ply
    format ascii 1.0
    element vertex 65866
    property float x
    property float y
    property float z
    property uchar red
    property uchar green
    property uchar blue
    end_header
-0.007812 -0.214844 -0.088779 14 26 73
-0.003906 -0.214844 -0.087154 14 26 72
0.000000 -0.214844 -0.085303 14 27 72
0.003906 -0.214844 -0.082604 15 28 71
0.007812 -0.214844 -0.079006 14 27 67
0.011719 -0.214844 -0.075427 14 26 62
0.015625 -0.214844 -0.071518 12 23 56
0.019531 -0.214844 -0.067416 12 21 50
0.023438 -0.214844 -0.061920 14 22 49
0.027344 -0.214844 -0.056170 15 23 46
0.031250 -0.214844 -0.045803 21 28 49
0.070312 -0.214844 -0.002173 14 14 59
0.074219 -0.214844 -0.013459 24 35 115
0.078125 -0.214844 -0.020916 19 33 110
0.082031 -0.214844 -0.026899 15 27 99
0.085938 -0.214844 -0.032177 14 27 99
0.089844 -0.214844 -0.036571 13 28 100
0.093750 -0.214844 -0.040468 13 30 103
0.097656 -0.214844 -0.043523 14 32 108
0.101562 -0.214844 -0.045949 15 34 115
0.105469 -0.214844 -0.048292 15 35 117
0.109375 -0.214844 -0.050412 14 35 117
0.113281 -0.214844 -0.052049 14 35 117
0.117188 -0.214844 -0.053256 14 35 118
0.121094 -0.214844 -0.054426 15 36 119
0.125000 -0.214844 -0.055535 15 37 120
0.128906 -0.214844 -0.056036 16 37 121
0.132812 -0.214844 -0.056067 16 38 121
0.136719 -0.214844 -0.056142 15 36 118
0.140625 -0.214844 -0.056226 15 36 117
0.144531 -0.214844 -0.056024 16 38 120
0.148438 -0.214844 -0.055436 17 39 120
0.152344 -0.214844 -0.055117 17 38 117
0.156250 -0.214844 -0.054882 17 39 116
0.160156 -0.214844 -0.053818 17 38 113
0.164062 -0.214844 -0.052293 17 38 112
0.167969 -0.214844 -0.051025 16 36 108
0.171875 -0.214844 -0.049880 14 33 101
0.175781 -0.214844 -0.048021 13 31 94
0.179688 -0.214844 -0.044592 10 25 79
0.183594 -0.214844 -0.042410 10 23 70
0.187500 -0.214844 -0.039675 9 19 56
0.191406 -0.214844 -0.034704 16 27 65
0.195312 -0.214844 -0.025825 95 112 155
0.199219 -0.214844 -0.020177 160 166 193
0.203125 -0.214844 -0.006688 170 161 180
0.207031 -0.214844 0.056551 192 166 173
0.210938 -0.214844 0.068186 178 139 144
0.214844 -0.214844 0.068456 184 143 142
0.218750 -0.214844 0.065785 181 141 140
0.222656 -0.214844 0.059534 169 128 128
0.226562 -0.214844 0.048867 178 137 133
0.230469 -0.214844 0.038665 182 139 133
0.234375 -0.214844 0.034322 190 141 129
0.238281 -0.214844 0.032555 190 130 114
0.242188 -0.214844 0.032954 199 127 104
0.246094 -0.214844 0.033905 199 117 91
0.250000 -0.214844 0.036668 207 128 98
0.253906 -0.214844 0.044409 182 112 81
0.257812 -0.214844 0.059428 116 82 56
-0.164062 -0.218750 0.027059 134 93 84
-0.160156 -0.218750 0.014012 138 90 78
-0.156250 -0.218750 0.008848 132 86 77
-0.152344 -0.218750 0.009536 143 96 88
-0.148438 -0.218750 0.016075 158 107 98
-0.144531 -0.218750 0.027393 160 104 96
-0.140625 -0.218750 0.044430 159 100 91
-0.136719 -0.218750 0.054334 156 94 86
-0.132812 -0.218750 0.059898 141 81 75
-0.128906 -0.218750 0.061400 121 69 66
-0.125000 -0.218750 0.060850 94 54 55
-0.121094 -0.218750 0.062513 99 59 60
-0.117188 -0.218750 0.063225 144 92 86
-0.113281 -0.218750 0.062472 143 82 73
-0.109375 -0.218750 0.067747 131 67 57
-0.105469 -0.218750 0.005972 94 49 46
-0.101562 -0.218750 -0.033760 26 16 20
-0.097656 -0.218750 -0.038810 15 13 21
-0.093750 -0.218750 -0.046695 21 25 49
-0.089844 -0.218750 -0.052135 17 27 63
-0.085938 -0.218750 -0.058800 15 26 66
-0.082031 -0.218750 -0.064220 15 27 71
-0.078125 -0.218750 -0.069146 14 26 71
-0.074219 -0.218750 -0.073037 14 28 76
-0.070312 -0.218750 -0.076609 14 28 78
-0.066406 -0.218750 -0.079914 13 28 77
-0.062500 -0.218750 -0.082746 14 29 79
-0.058594 -0.218750 -0.085064 14 29 79
-0.054688 -0.218750 -0.086941 14 29 80
-0.050781 -0.218750 -0.088628 14 29 81
-0.046875 -0.218750 -0.090134 14 29 80
-0.042969 -0.218750 -0.091080 14 29 81
-0.039062 -0.218750 -0.091627 14 29 80
-0.035156 -0.218750 -0.092204 15 30 81
-0.031250 -0.218750 -0.092732 16 31 83
-0.027344 -0.218750 -0.092818 15 29 81
-0.023438 -0.218750 -0.092467 15 30 81
-0.019531 -0.218750 -0.092053 16 30 81
-0.015625 -0.218750 -0.091364 15 29 78
-0.011719 -0.218750 -0.090336 15 28 76
-0.007812 -0.218750 -0.088773 15 28 75
-0.003906 -0.218750 -0.087193 15 28 75
0.000000 -0.218750 -0.085362 14 28 73
0.003906 -0.218750 -0.082679 14 27 70
0.007812 -0.218750 -0.079043 13 26 65
0.011719 -0.218750 -0.075429 13 25 61
0.015625 -0.218750 -0.071542 12 23 55
0.019531 -0.218750 -0.067289 12 21 50
0.023438 -0.218750 -0.061673 14 23 49
0.027344 -0.218750 -0.055477 15 22 45
0.031250 -0.218750 -0.046122 19 25 45
0.070312 -0.218750 0.001115 6 5 30
0.074219 -0.218750 -0.010543 22 29 104
0.078125 -0.218750 -0.018729 20 32 109
0.082031 -0.218750 -0.025265 15 26 97
0.085938 -0.218750 -0.030824 14 28 99
0.089844 -0.218750 -0.035431 13 28 99
0.093750 -0.218750 -0.039561 13 30 103
0.097656 -0.218750 -0.042734 14 32 109
0.101562 -0.218750 -0.045225 15 34 114
0.105469 -0.218750 -0.047640 15 35 117
0.109375 -0.218750 -0.049832 15 36 118
0.113281 -0.218750 -0.051503 15 36 119
0.117188 -0.218750 -0.052723 15 37 121
0.121094 -0.218750 -0.053920 15 37 121
0.125000 -0.218750 -0.055052 15 37 120
0.128906 -0.218750 -0.055568 15 37 119
0.132812 -0.218750 -0.055615 16 37 119
0.136719 -0.218750 -0.055711 15 36 117
0.140625 -0.218750 -0.055822 15 36 116
0.144531 -0.218750 -0.055637 16 37 117
0.148438 -0.218750 -0.055065 16 37 116
0.152344 -0.218750 -0.054765 16 37 115
0.156250 -0.218750 -0.054547 17 38 114
0.160156 -0.218750 -0.053480 16 37 111
0.164062 -0.218750 -0.051937 16 37 110
0.167969 -0.218750 -0.050684 15 35 106
0.171875 -0.218750 -0.049539 14 32 99
0.175781 -0.218750 -0.047619 13 30 94
0.179688 -0.218750 -0.044179 11 26 80
0.183594 -0.218750 -0.041919 10 23 69
0.187500 -0.218750 -0.038996 10 20 57
0.191406 -0.218750 -0.034409 14 22 52
0.195312 -0.218750 -0.024876 52 65 103
0.199219 -0.218750 -0.019983 139 142 175
0.203125 -0.218750 -0.005508 174 162 181
0.207031 -0.218750 0.059644 183 155 161
0.210938 -0.218750 0.071802 172 131 134
0.214844 -0.218750 0.071325 177 133 129
0.218750 -0.218750 0.068271 170 126 125
0.222656 -0.218750 0.063769 155 113 115
0.226562 -0.218750 0.054071 169 129 128
0.230469 -0.218750 0.043164 175 135 132
0.234375 -0.218750 0.036345 183 136 129
0.238281 -0.218750 0.034648 190 133 120
0.242188 -0.218750 0.033857 199 131 109
0.246094 -0.218750 0.034968 200 120 94
0.250000 -0.218750 0.037440 200 115 87
0.253906 -0.218750 0.044077 192 117 82
0.257812 -0.218750 0.058735 124 76 52
-0.164062 -0.222656 0.025963 142 104 92
-0.160156 -0.222656 0.013788 137 91 77
-0.156250 -0.222656 0.007772 126 80 72
-0.152344 -0.222656 0.008261 139 92 85
-0.148438 -0.222656 0.016867 160 108 99
-0.144531 -0.222656 0.033007 160 103 95
-0.140625 -0.222656 0.052309 158 98 89
-0.136719 -0.222656 0.061638 158 96 87
-0.132812 -0.222656 0.066957 138 82 75
-0.128906 -0.222656 0.068322 145 92 87
-0.125000 -0.222656 0.066041 139 90 90
-0.121094 -0.222656 0.067293 113 73 74
-0.117188 -0.222656 0.068010 142 93 88
-0.113281 -0.222656 0.066195 146 86 77
-0.109375 -0.222656 0.069935 137 72 62
-0.105469 -0.222656 0.017355 95 49 47
-0.101562 -0.222656 -0.034584 23 14 18
-0.097656 -0.222656 -0.037001 15 13 20
-0.093750 -0.222656 -0.045388 22 25 48
-0.089844 -0.222656 -0.051104 17 25 60
-0.085938 -0.222656 -0.057703 15 26 65
-0.082031 -0.222656 -0.063223 15 27 70
-0.078125 -0.222656 -0.068241 14 25 70
-0.074219 -0.222656 -0.072203 15 28 77
-0.070312 -0.222656 -0.075830 15 29 79
-0.066406 -0.222656 -0.079190 14 28 77
-0.062500 -0.222656 -0.082056 14 28 78
-0.058594 -0.222656 -0.084414 14 28 78
-0.054688 -0.222656 -0.086327 14 29 79
-0.050781 -0.222656 -0.088051 14 29 79
-0.046875 -0.222656 -0.089588 14 29 80
-0.042969 -0.222656 -0.090559 14 29 81
-0.039062 -0.222656 -0.091143 14 29 79
-0.035156 -0.222656 -0.091764 15 31 82
-0.031250 -0.222656 -0.092339 16 32 83
-0.027344 -0.222656 -0.092473 15 30 80
-0.023438 -0.222656 -0.092178 16 30 80
-0.019531 -0.222656 -0.091830 16 30 79
-0.015625 -0.222656 -0.091213 15 29 77
-0.011719 -0.222656 -0.090231 15 28 75
-0.007812 -0.222656 -0.088694 15 29 76
-0.003906 -0.222656 -0.087152 15 29 76
0.000000 -0.222656 -0.085330 14 27 72
0.003906 -0.222656 -0.082660 14 27 69
0.007812 -0.222656 -0.078989 13 26 66
0.011719 -0.222656 -0.075375 13 25 61
0.015625 -0.222656 -0.071509 12 23 55
0.019531 -0.222656 -0.067098 12 21 50
0.023438 -0.222656 -0.061272 14 23 50
0.027344 -0.222656 -0.054255 15 24 46
0.031250 -0.222656 -0.046321 21 27 47
0.070312 -0.222656 0.006117 4 4 23
0.074219 -0.222656 -0.007979 20 25 89
0.078125 -0.222656 -0.016900 21 33 108
0.082031 -0.222656 -0.023812 16 27 99
0.085938 -0.222656 -0.029554 16 30 103
0.089844 -0.222656 -0.034359 14 29 99
0.093750 -0.222656 -0.038685 14 31 104
0.097656 -0.222656 -0.042009 15 33 110
0.101562 -0.222656 -0.044589 14 34 112
0.105469 -0.222656 -0.047076 14 34 114
0.109375 -0.222656 -0.049344 14 35 117
0.113281 -0.222656 -0.051053 15 36 118
0.117188 -0.222656 -0.052290 15 37 120
0.121094 -0.222656 -0.053514 15 37 121
0.125000 -0.222656 -0.054671 15 37 120
0.128906 -0.222656 -0.055204 16 37 119
0.132812 -0.222656 -0.055262 16 37 118
0.136719 -0.222656 -0.055379 16 37 116
0.140625 -0.222656 -0.055518 16 38 118
0.144531 -0.222656 -0.055351 16 37 117
0.148438 -0.222656 -0.054795 15 36 113
0.152344 -0.222656 -0.054501 16 37 113
0.156250 -0.222656 -0.054289 17 38 113
0.160156 -0.222656 -0.053223 16 36 109
0.164062 -0.222656 -0.051663 15 35 108
0.167969 -0.222656 -0.050417 14 33 103
0.171875 -0.222656 -0.049255 13 31 95
0.175781 -0.222656 -0.047258 12 30 90
0.179688 -0.222656 -0.043785 11 28 81
0.183594 -0.222656 -0.041403 10 24 68
0.187500 -0.222656 -0.038438 11 22 57
0.191406 -0.222656 -0.034033 11 18 41
0.195312 -0.222656 -0.023472 23 31 58
0.199219 -0.222656 -0.017777 109 112 149
0.203125 -0.222656 -0.004327 176 161 178
0.207031 -0.222656 0.062244 178 147 151
0.210938 -0.222656 0.075408 171 127 127
0.214844 -0.222656 0.073986 168 121 116
0.218750 -0.222656 0.069487 155 108 107
0.222656 -0.222656 0.067141 142 99 103
0.226562 -0.222656 0.060053 164 124 126
0.230469 -0.222656 0.050929 172 134 135
0.234375 -0.222656 0.038867 174 130 129
0.238281 -0.222656 0.036706 187 134 125
0.242188 -0.222656 0.035610 197 132 114
0.246094 -0.222656 0.036057 201 123 99
0.250000 -0.222656 0.038071 201 112 87
0.253906 -0.222656 0.044412 208 132 95
0.257812 -0.222656 0.052255 174 113 79
0.261719 -0.222656 0.004409 201 112 87
-0.164062 -0.226562 0.026219 127 92 83
-0.160156 -0.226562 0.013612 132 86 72
-0.156250 -0.226562 0.007371 121 76 68
-0.152344 -0.226562 0.007231 137 90 83
-0.148438 -0.226562 0.017379 161 108 99
-0.144531 -0.226562 0.040069 159 101 94
-0.140625 -0.226562 0.058692 158 97 89
-0.136719 -0.226562 0.066636 161 99 89
-0.132812 -0.226562 0.071597 138 81 76
-0.128906 -0.226562 0.074240 156 104 99
-0.125000 -0.226562 0.070757 158 111 109
-0.121094 -0.226562 0.070918 118 78 80
-0.117188 -0.226562 0.072480 145 97 92
-0.113281 -0.226562 0.069783 152 92 83
-0.109375 -0.226562 0.071930 140 75 65
-0.105469 -0.226562 0.025526 94 47 46
-0.101562 -0.226562 -0.034434 21 12 17
-0.097656 -0.226562 -0.035345 15 12 19
-0.093750 -0.226562 -0.044070 22 24 45
-0.089844 -0.226562 -0.050010 16 23 57
-0.085938 -0.226562 -0.056605 16 26 65
-0.082031 -0.226562 -0.062262 16 27 70
-0.078125 -0.226562 -0.067358 14 25 69
-0.074219 -0.226562 -0.071388 15 28 77
-0.070312 -0.226562 -0.075071 14 28 78
-0.066406 -0.226562 -0.078492 14 27 76
-0.062500 -0.226562 -0.081399 14 29 79
-0.058594 -0.226562 -0.083797 14 29 80
-0.054688 -0.226562 -0.085741 14 29 80
-0.050781 -0.226562 -0.087497 14 28 79
-0.046875 -0.226562 -0.089058 14 29 80
-0.042969 -0.226562 -0.090051 14 30 81
-0.039062 -0.226562 -0.090662 14 29 78
-0.035156 -0.226562 -0.091318 15 30 79
-0.031250 -0.226562 -0.091931 15 30 79
-0.027344 -0.226562 -0.092105 15 30 78
-0.023438 -0.226562 -0.091860 16 31 80
-0.019531 -0.226562 -0.091565 16 30 79
-0.015625 -0.226562 -0.091006 16 29 77
-0.011719 -0.226562 -0.090064 15 29 75
-0.007812 -0.226562 -0.088546 15 28 75
-0.003906 -0.226562 -0.087037 15 28 74
0.000000 -0.226562 -0.085227 13 27 70
0.003906 -0.226562 -0.082576 13 26 68
0.007812 -0.226562 -0.078875 13 26 65
0.011719 -0.226562 -0.075271 12 24 60
0.015625 -0.226562 -0.071461 12 23 55
0.019531 -0.226562 -0.066902 12 22 51
0.023438 -0.226562 -0.060808 15 24 51
0.027344 -0.226562 -0.053591 16 24 47
0.031250 -0.226562 -0.044703 23 29 48
0.074219 -0.226562 -0.004965 25 31 93
0.078125 -0.226562 -0.014906 23 34 107
0.082031 -0.226562 -0.022263 15 26 96
0.085938 -0.226562 -0.028380 16 29 100
0.089844 -0.226562 -0.033447 13 27 94
0.093750 -0.226562 -0.037960 13 30 100
0.097656 -0.226562 -0.041410 15 34 111
0.101562 -0.226562 -0.044073 14 34 112
0.105469 -0.226562 -0.046634 14 33 111
0.109375 -0.226562 -0.048978 14 34 115
0.113281 -0.226562 -0.050722 14 35 117
0.117188 -0.226562 -0.051972 15 37 119
0.121094 -0.226562 -0.053218 16 37 120
0.125000 -0.226562 -0.054390 16 37 119
0.128906 -0.226562 -0.054936 16 37 118
0.132812 -0.226562 -0.055005 16 37 117
0.136719 -0.226562 -0.055148 15 36 115
0.140625 -0.226562 -0.055318 16 38 117
0.144531 -0.226562 -0.055170 16 37 116
0.148438 -0.226562 -0.054627 15 35 110
0.152344 -0.226562 -0.054336 16 36 112
0.156250 -0.226562 -0.054126 17 37 113
0.160156 -0.226562 -0.053066 16 36 109
0.164062 -0.226562 -0.051490 15 35 107
0.167969 -0.226562 -0.050241 14 33 102
0.171875 -0.226562 -0.049054 13 30 94
0.175781 -0.226562 -0.046973 12 29 87
0.179688 -0.226562 -0.043430 12 29 81
0.183594 -0.226562 -0.040847 10 24 67
0.187500 -0.226562 -0.037653 11 22 56
0.191406 -0.226562 -0.033077 10 16 37
0.195312 -0.226562 -0.022180 14 20 38
0.199219 -0.226562 -0.016353 85 91 125
0.203125 -0.226562 -0.002141 169 153 170
0.207031 -0.226562 0.065078 171 135 139
0.210938 -0.226562 0.078719 171 123 120
0.214844 -0.226562 0.076588 164 113 107
0.218750 -0.226562 0.068316 146 97 95
0.222656 -0.226562 0.069225 129 84 90
0.226562 -0.226562 0.065582 159 117 122
0.230469 -0.226562 0.057319 175 137 143
0.234375 -0.226562 0.046049 169 129 134
0.238281 -0.226562 0.039777 184 136 132
0.242188 -0.226562 0.038401 194 135 120
0.246094 -0.226562 0.037950 200 127 103
0.250000 -0.226562 0.039165 201 113 87
0.253906 -0.226562 0.044859 206 125 91
0.257812 -0.226562 0.052829 175 104 79
0.261719 -0.226562 0.027491 201 113 87
-0.160156 -0.230469 0.016321 131 86 71
-0.156250 -0.230469 0.006646 116 73 65
-0.152344 -0.230469 0.007158 132 85 78
-0.148438 -0.230469 0.019797 157 104 95
-0.144531 -0.230469 0.048391 155 96 90
-0.140625 -0.230469 0.065116 159 97 89
-0.136719 -0.230469 0.070808 167 104 94
-0.132812 -0.230469 0.075479 140 82 79
-0.121094 -0.230469 0.074619 106 71 75
-0.117188 -0.230469 0.075722 148 100 96
-0.113281 -0.230469 0.072668 159 98 89
-0.109375 -0.230469 0.073041 138 73 64
-0.105469 -0.230469 0.029563 87 43 44
-0.101562 -0.230469 -0.033864 20 11 16
-0.097656 -0.230469 -0.033732 16 12 19
-0.093750 -0.230469 -0.042829 21 22 43
-0.089844 -0.230469 -0.048981 15 21 53
-0.085938 -0.230469 -0.055531 16 25 63
-0.082031 -0.230469 -0.061319 16 27 70
-0.078125 -0.230469 -0.066496 14 26 70
-0.074219 -0.230469 -0.070603 15 28 76
-0.070312 -0.230469 -0.074346 14 27 76
-0.066406 -0.230469 -0.077827 13 27 75
-0.062500 -0.230469 -0.080783 14 28 78
-0.058594 -0.230469 -0.083222 15 30 81
-0.054688 -0.230469 -0.085186 14 29 80
-0.050781 -0.230469 -0.086963 14 28 78
-0.046875 -0.230469 -0.088544 14 29 79
-0.042969 -0.230469 -0.089557 15 30 81
-0.039062 -0.230469 -0.090192 15 30 79
-0.035156 -0.230469 -0.090870 15 29 78
-0.031250 -0.230469 -0.091507 15 29 76
-0.027344 -0.230469 -0.091714 15 29 76
-0.023438 -0.230469 -0.091510 15 29 77
-0.019531 -0.230469 -0.091252 15 29 75
-0.015625 -0.230469 -0.090741 15 28 74
-0.011719 -0.230469 -0.089831 15 28 73
-0.007812 -0.230469 -0.088323 15 28 73
-0.003906 -0.230469 -0.086836 14 28 72
0.000000 -0.230469 -0.085030 14 26 69
0.003906 -0.230469 -0.082396 13 26 67
0.007812 -0.230469 -0.078680 12 25 63
0.011719 -0.230469 -0.075072 12 24 59
0.015625 -0.230469 -0.071212 12 23 56
0.019531 -0.230469 -0.066583 12 22 50
0.023438 -0.230469 -0.060272 14 23 48
0.027344 -0.230469 -0.053966 14 21 42
0.031250 -0.230469 -0.038807 18 22 38
0.074219 -0.230469 -0.001567 11 12 48
0.078125 -0.230469 -0.012594 17 25 84
0.082031 -0.230469 -0.020613 14 24 89
0.085938 -0.230469 -0.027207 16 30 99
0.089844 -0.230469 -0.032682 13 27 93
0.093750 -0.230469 -0.037329 13 30 100
0.097656 -0.230469 -0.040906 16 36 114
0.101562 -0.230469 -0.043668 15 36 115
0.105469 -0.230469 -0.046316 14 34 112
0.109375 -0.230469 -0.048746 15 35 116
0.113281 -0.230469 -0.050517 15 36 117
0.117188 -0.230469 -0.051771 15 36 117
0.121094 -0.230469 -0.053033 15 36 118
0.125000 -0.230469 -0.054214 15 36 116
0.128906 -0.230469 -0.054772 15 36 115
0.132812 -0.230469 -0.054854 16 36 115
0.136719 -0.230469 -0.055019 15 35 112
0.140625 -0.230469 -0.055221 16 38 115
0.144531 -0.230469 -0.055092 16 38 115
0.148438 -0.230469 -0.054562 15 36 111
0.152344 -0.230469 -0.054276 16 37 112
0.156250 -0.230469 -0.054064 16 37 111
0.160156 -0.230469 -0.053003 15 34 107
0.164062 -0.230469 -0.051405 15 33 105
0.167969 -0.230469 -0.050141 14 32 101
0.171875 -0.230469 -0.048919 13 30 92
0.175781 -0.230469 -0.046747 13 29 84
0.179688 -0.230469 -0.043178 13 31 81
0.183594 -0.230469 -0.040316 11 26 66
0.187500 -0.230469 -0.036554 11 23 56
0.191406 -0.230469 -0.031866 11 18 39
0.195312 -0.230469 -0.020794 12 18 35
0.199219 -0.230469 -0.015093 67 76 110
0.203125 -0.230469 0.001919 156 142 161
0.207031 -0.230469 0.069347 161 124 130
0.210938 -0.230469 0.083518 166 113 111
0.214844 -0.230469 0.079279 160 106 100
0.218750 -0.230469 0.066289 140 88 87
0.222656 -0.230469 0.042338 110 67 75
0.226562 -0.230469 0.072115 140 97 109
0.230469 -0.230469 0.067626 170 134 146
0.234375 -0.230469 0.056902 165 129 141
0.238281 -0.230469 0.045409 180 137 138
0.242188 -0.230469 0.041187 190 136 125
0.246094 -0.230469 0.040016 198 129 107
0.250000 -0.230469 0.041177 198 113 87
0.253906 -0.230469 0.045667 197 111 81
0.257812 -0.230469 0.054128 158 82 64
0.261719 -0.230469 0.043851 198 113 87
-0.160156 -0.234375 0.016548 147 102 86
-0.156250 -0.234375 0.006410 119 76 68
-0.152344 -0.234375 0.007672 123 79 72
-0.148438 -0.234375 0.023050 147 95 87
-0.144531 -0.234375 0.054677 146 88 83
-0.140625 -0.234375 0.071249 160 99 90
-0.136719 -0.234375 0.076784 168 106 95
-0.132812 -0.234375 0.080129 124 71 69
-0.128906 -0.234375 0.058386 130 83 82
-0.121094 -0.234375 0.080207 104 70 74
-0.117188 -0.234375 0.079545 147 97 96
-0.113281 -0.234375 0.075682 163 100 92
-0.109375 -0.234375 0.073640 135 71 64
-0.105469 -0.234375 0.031873 77 37 40
-0.101562 -0.234375 -0.030558 18 10 15
-0.097656 -0.234375 -0.031756 14 10 17
-0.093750 -0.234375 -0.041553 19 19 38
-0.089844 -0.234375 -0.047991 14 19 48
-0.085938 -0.234375 -0.054439 16 23 59
-0.082031 -0.234375 -0.060344 17 26 68
-0.078125 -0.234375 -0.065615 14 25 69
-0.074219 -0.234375 -0.069812 15 27 74
-0.070312 -0.234375 -0.073619 14 27 76
-0.066406 -0.234375 -0.077163 14 27 75
-0.062500 -0.234375 -0.080181 14 27 76
-0.058594 -0.234375 -0.082661 14 28 77
-0.054688 -0.234375 -0.084639 14 28 77
-0.050781 -0.234375 -0.086436 13 27 76
-0.046875 -0.234375 -0.088044 14 28 77
-0.042969 -0.234375 -0.089079 15 29 79
-0.039062 -0.234375 -0.089730 15 30 79
-0.035156 -0.234375 -0.090424 15 30 79
-0.031250 -0.234375 -0.091081 15 30 77
-0.027344 -0.234375 -0.091312 15 30 77
-0.023438 -0.234375 -0.091137 15 29 75
-0.019531 -0.234375 -0.090910 14 27 72
-0.015625 -0.234375 -0.090438 14 27 71
-0.011719 -0.234375 -0.089546 14 27 70
-0.007812 -0.234375 -0.088040 14 26 69
-0.003906 -0.234375 -0.086572 14 26 69
0.000000 -0.234375 -0.084762 13 26 68
0.003906 -0.234375 -0.082141 13 25 66
0.007812 -0.234375 -0.078407 12 24 61
0.011719 -0.234375 -0.074816 12 24 59
0.015625 -0.234375 -0.070936 13 24 55
0.019531 -0.234375 -0.066327 12 21 48
0.023438 -0.234375 -0.059620 14 22 46
0.027344 -0.234375 -0.053486 15 21 42
0.074219 -0.234375 0.003389 14 15 48
0.078125 -0.234375 -0.010155 20 28 84
0.082031 -0.234375 -0.019158 14 26 89
0.085938 -0.234375 -0.026284 16 31 99
0.089844 -0.234375 -0.031939 13 28 93
0.093750 -0.234375 -0.036783 13 29 97
0.097656 -0.234375 -0.040511 15 34 110
0.101562 -0.234375 -0.043379 15 34 112
0.105469 -0.234375 -0.046109 13 32 109
0.109375 -0.234375 -0.048615 14 34 114
0.113281 -0.234375 -0.050404 15 36 116
0.117188 -0.234375 -0.051670 14 35 114
0.121094 -0.234375 -0.052953 14 35 114
0.125000 -0.234375 -0.054142 14 34 114
0.128906 -0.234375 -0.054715 15 35 114
0.132812 -0.234375 -0.054812 15 36 115
0.136719 -0.234375 -0.054998 15 36 113
0.140625 -0.234375 -0.055231 16 38 114
0.144531 -0.234375 -0.055120 16 38 113
0.148438 -0.234375 -0.054599 16 36 111
0.152344 -0.234375 -0.054321 16 37 112
0.156250 -0.234375 -0.054104 16 36 109
0.160156 -0.234375 -0.053040 15 33 105
0.164062 -0.234375 -0.051418 14 33 104
0.167969 -0.234375 -0.050134 14 32 99
0.171875 -0.234375 -0.048853 13 30 91
0.175781 -0.234375 -0.046571 13 30 84
0.179688 -0.234375 -0.042912 14 31 79
0.183594 -0.234375 -0.039808 11 26 65
0.187500 -0.234375 -0.035828 10 22 54
0.191406 -0.234375 -0.030797 10 19 40
0.195312 -0.234375 -0.019494 10 17 35
0.199219 -0.234375 -0.012719 50 62 95
0.203125 -0.234375 0.003293 149 137 157
0.207031 -0.234375 0.068813 160 124 131
0.210938 -0.234375 0.085192 159 106 105
0.214844 -0.234375 0.081025 160 103 97
0.230469 -0.234375 0.079421 171 139 158
0.234375 -0.234375 0.066938 169 138 156
0.238281 -0.234375 0.052882 175 137 145
0.242188 -0.234375 0.044766 182 132 126
0.246094 -0.234375 0.042545 194 128 110
0.250000 -0.234375 0.043362 200 122 96
0.253906 -0.234375 0.047004 195 111 79
0.257812 -0.234375 0.053498 151 72 50
0.261719 -0.234375 0.045530 200 122 96
-0.160156 -0.238281 0.017640 137 94 78
-0.156250 -0.238281 0.006637 126 83 73
-0.152344 -0.238281 0.008048 121 78 71
-0.148438 -0.238281 0.029256 142 92 84
-0.144531 -0.238281 0.060451 144 85 81
-0.140625 -0.238281 0.076359 167 103 94
-0.136719 -0.238281 0.085668 166 103 94
-0.132812 -0.238281 0.085694 99 53 53
-0.121094 -0.238281 0.085770 118 77 81
-0.117188 -0.238281 0.082724 147 95 94
-0.113281 -0.238281 0.078214 163 99 92
-0.109375 -0.238281 0.073675 134 69 64
-0.101562 -0.238281 -0.026199 18 10 15
-0.097656 -0.238281 -0.029792 13 10 16
-0.093750 -0.238281 -0.040306 18 18 36
-0.089844 -0.238281 -0.046963 14 19 47
-0.085938 -0.238281 -0.053281 15 22 56
-0.082031 -0.238281 -0.059336 16 26 66
-0.078125 -0.238281 -0.064726 14 24 66
-0.074219 -0.238281 -0.069005 14 26 70
-0.070312 -0.238281 -0.072873 15 27 74
-0.066406 -0.238281 -0.076493 14 27 74
-0.062500 -0.238281 -0.079589 14 27 75
-0.058594 -0.238281 -0.082112 14 27 76
-0.054688 -0.238281 -0.084102 14 27 77
-0.050781 -0.238281 -0.085922 14 28 77
-0.046875 -0.238281 -0.087549 14 28 78
-0.042969 -0.238281 -0.088603 15 28 77
-0.039062 -0.238281 -0.089274 15 29 77
-0.035156 -0.238281 -0.089979 15 30 78
-0.031250 -0.238281 -0.090647 16 30 78
-0.027344 -0.238281 -0.090892 16 30 76
-0.023438 -0.238281 -0.090734 15 29 74
-0.019531 -0.238281 -0.090532 15 28 73
-0.015625 -0.238281 -0.090092 15 28 73
-0.011719 -0.238281 -0.089203 14 27 71
-0.007812 -0.238281 -0.087681 13 26 68
-0.003906 -0.238281 -0.086222 13 26 68
0.000000 -0.238281 -0.084407 13 26 68
0.003906 -0.238281 -0.081791 13 26 66
0.007812 -0.238281 -0.078037 12 24 61
0.011719 -0.238281 -0.074469 12 24 57
0.015625 -0.238281 -0.070490 13 23 54
0.019531 -0.238281 -0.066023 12 20 47
0.023438 -0.238281 -0.058990 15 22 47
0.027344 -0.238281 -0.051387 17 23 46
0.078125 -0.238281 -0.007495 23 30 81
0.082031 -0.238281 -0.018041 14 26 88
0.085938 -0.238281 -0.025362 14 29 94
0.089844 -0.238281 -0.031362 13 27 91
0.093750 -0.238281 -0.036444 12 28 95
0.097656 -0.238281 -0.040219 14 32 106
0.101562 -0.238281 -0.043188 14 32 109
0.105469 -0.238281 -0.046009 12 29 103
0.109375 -0.238281 -0.048599 13 32 110
0.113281 -0.238281 -0.050403 14 35 115
0.117188 -0.238281 -0.051675 14 34 113
0.121094 -0.238281 -0.052974 14 35 114
0.125000 -0.238281 -0.054170 14 35 114
0.128906 -0.238281 -0.054755 15 35 115
0.132812 -0.238281 -0.054861 15 36 114
0.136719 -0.238281 -0.055065 15 36 112
0.140625 -0.238281 -0.055327 16 37 112
0.144531 -0.238281 -0.055229 16 37 111
0.148438 -0.238281 -0.054711 16 36 109
0.152344 -0.238281 -0.054440 16 36 110
0.156250 -0.238281 -0.054227 15 35 108
0.160156 -0.238281 -0.053171 15 34 106
0.164062 -0.238281 -0.051540 15 33 104
0.167969 -0.238281 -0.050237 14 32 99
0.171875 -0.238281 -0.048907 14 31 93
0.175781 -0.238281 -0.046549 14 30 85
0.179688 -0.238281 -0.042878 14 30 77
0.183594 -0.238281 -0.039478 12 27 66
0.187500 -0.238281 -0.034885 10 23 56
0.191406 -0.238281 -0.029220 11 21 44
0.195312 -0.238281 -0.018460 10 18 36
0.199219 -0.238281 -0.009309 38 50 82
0.203125 -0.238281 0.003619 148 138 158
0.210938 -0.238281 0.083597 161 109 107
0.230469 -0.238281 0.086130 180 152 175
0.234375 -0.238281 0.075234 183 157 178
0.238281 -0.238281 0.059883 179 147 159
0.242188 -0.238281 0.048820 178 130 130
0.246094 -0.238281 0.044812 186 123 109
0.250000 -0.238281 0.044774 201 128 104
0.253906 -0.238281 0.048392 174 92 64
0.257812 -0.238281 0.053454 102 42 24
0.261719 -0.238281 0.038333 201 128 104
-0.160156 -0.242188 0.018673 116 81 66
-0.156250 -0.242188 0.006974 130 90 77
-0.152344 -0.242188 0.008514 118 79 69
-0.148438 -0.242188 0.031042 141 91 83
-0.144531 -0.242188 0.062454 147 87 82
-0.140625 -0.242188 0.079119 172 106 96
-0.136719 -0.242188 0.093531 165 99 90
-0.132812 -0.242188 0.054522 89 45 45
-0.117188 -0.242188 0.084307 141 88 87
-0.113281 -0.242188 0.079531 149 85 79
-0.109375 -0.242188 0.072978 111 53 50
-0.101562 -0.242188 -0.021426 17 11 15
-0.097656 -0.242188 -0.027856 12 10 15
-0.093750 -0.242188 -0.038934 17 19 35
-0.089844 -0.242188 -0.045861 16 22 50
-0.085938 -0.242188 -0.052163 15 22 55
-0.082031 -0.242188 -0.058368 16 25 65
-0.078125 -0.242188 -0.063836 14 24 66
-0.074219 -0.242188 -0.068201 14 25 69
-0.070312 -0.242188 -0.072152 15 27 72
-0.066406 -0.242188 -0.075849 15 27 72
-0.062500 -0.242188 -0.079016 15 27 75
-0.058594 -0.242188 -0.081578 15 28 77
-0.054688 -0.242188 -0.083581 15 28 77
-0.050781 -0.242188 -0.085424 15 28 78
-0.046875 -0.242188 -0.087068 15 29 78
-0.042969 -0.242188 -0.088136 15 28 76
-0.039062 -0.242188 -0.088825 15 28 75
-0.035156 -0.242188 -0.089535 15 29 76
-0.031250 -0.242188 -0.090210 15 29 75
-0.027344 -0.242188 -0.090465 14 28 73
-0.023438 -0.242188 -0.090319 14 28 72
-0.019531 -0.242188 -0.090128 15 28 73
-0.015625 -0.242188 -0.089704 15 28 73
-0.011719 -0.242188 -0.088812 14 28 71
-0.007812 -0.242188 -0.087271 14 26 69
-0.003906 -0.242188 -0.085811 14 26 68
0.000000 -0.242188 -0.083983 14 27 68
0.003906 -0.242188 -0.081369 14 26 66
0.007812 -0.242188 -0.077593 13 24 60
0.011719 -0.242188 -0.074047 12 23 56
0.015625 -0.242188 -0.069995 12 22 51
0.019531 -0.242188 -0.065592 12 19 45
0.023438 -0.242188 -0.058268 15 21 46
0.027344 -0.242188 -0.049283 14 18 39
0.078125 -0.242188 -0.004959 13 15 47
0.082031 -0.242188 -0.016480 13 24 83
0.085938 -0.242188 -0.024571 13 27 90
0.089844 -0.242188 -0.030818 14 29 94
0.093750 -0.242188 -0.036059 13 29 98
0.097656 -0.242188 -0.039980 14 32 106
0.101562 -0.242188 -0.043078 14 34 110
0.105469 -0.242188 -0.045979 12 30 104
0.109375 -0.242188 -0.048645 14 32 109
0.113281 -0.242188 -0.050475 15 34 114
0.117188 -0.242188 -0.051760 15 35 114
0.121094 -0.242188 -0.053078 15 35 115
0.125000 -0.242188 -0.054287 15 35 115
0.128906 -0.242188 -0.054881 14 35 114
0.132812 -0.242188 -0.054995 14 35 112
0.136719 -0.242188 -0.055220 15 34 109
0.140625 -0.242188 -0.055512 16 36 110
0.144531 -0.242188 -0.055424 16 36 109
0.148438 -0.242188 -0.054912 16 36 108
0.152344 -0.242188 -0.054650 16 36 110
0.156250 -0.242188 -0.054441 15 35 109
0.160156 -0.242188 -0.053399 15 34 107
0.164062 -0.242188 -0.051770 14 32 103
0.167969 -0.242188 -0.050467 14 31 98
0.171875 -0.242188 -0.049112 14 30 92
0.175781 -0.242188 -0.046689 13 28 82
0.179688 -0.242188 -0.043000 13 28 75
0.183594 -0.242188 -0.039414 12 27 68
0.187500 -0.242188 -0.034642 11 24 58
0.191406 -0.242188 -0.028741 11 22 47
0.195312 -0.242188 -0.018558 9 18 37
0.199219 -0.242188 -0.007940 30 42 73
0.203125 -0.242188 0.005533 147 139 160
0.230469 -0.242188 0.089790 166 140 169
0.234375 -0.242188 0.080001 178 154 179
0.238281 -0.242188 0.065459 184 154 169
0.242188 -0.242188 0.053066 179 132 134
0.246094 -0.242188 0.047248 178 115 102
0.250000 -0.242188 0.046423 201 134 110
0.253906 -0.242188 0.049894 158 84 59
0.257812 -0.242188 0.054590 95 43 22
0.261719 -0.242188 0.020221 201 134 110
-0.160156 -0.246094 0.019126 100 70 60
-0.156250 -0.246094 0.006464 131 92 78
-0.152344 -0.246094 0.006678 121 81 71
-0.148438 -0.246094 0.026876 141 91 83
-0.144531 -0.246094 0.060057 149 88 83
-0.140625 -0.246094 0.077820 169 102 92
-0.132812 -0.246094 0.018323 90 43 43
-0.117188 -0.246094 0.085912 134 79 79
-0.113281 -0.246094 0.080817 124 66 62
-0.109375 -0.246094 0.070422 80 36 35
-0.101562 -0.246094 -0.015957 23 16 21
-0.097656 -0.246094 -0.026032 12 11 17
-0.093750 -0.246094 -0.037267 15 17 31
-0.089844 -0.246094 -0.044711 16 23 51
-0.085938 -0.246094 -0.050959 14 21 53
-0.082031 -0.246094 -0.057333 15 24 62
-0.078125 -0.246094 -0.062898 14 24 65
-0.074219 -0.246094 -0.067392 15 25 68
-0.070312 -0.246094 -0.071423 15 26 70
-0.066406 -0.246094 -0.075182 14 26 70
-0.062500 -0.246094 -0.078428 15 27 73
-0.058594 -0.246094 -0.081038 15 28 75
-0.054688 -0.246094 -0.083054 14 27 75
-0.050781 -0.246094 -0.084922 15 28 76
-0.046875 -0.246094 -0.086589 15 29 77
-0.042969 -0.246094 -0.087674 15 28 75
-0.039062 -0.246094 -0.088372 15 28 75
-0.035156 -0.246094 -0.089086 15 29 76
-0.031250 -0.246094 -0.089767 15 28 75
-0.027344 -0.246094 -0.090024 14 28 73
-0.023438 -0.246094 -0.089881 14 28 73
-0.019531 -0.246094 -0.089693 14 27 72
-0.015625 -0.246094 -0.089272 14 27 71
-0.011719 -0.246094 -0.088375 14 27 70
-0.007812 -0.246094 -0.086824 14 26 69
-0.003906 -0.246094 -0.085360 13 26 67
0.000000 -0.246094 -0.083508 13 25 65
0.003906 -0.246094 -0.080897 13 25 64
0.007812 -0.246094 -0.077097 12 24 59
0.011719 -0.246094 -0.073566 12 22 55
0.015625 -0.246094 -0.069545 12 21 51
0.019531 -0.246094 -0.064979 12 19 45
0.023438 -0.246094 -0.057299 16 23 49
0.027344 -0.246094 -0.048346 15 19 43
0.078125 -0.246094 -0.000639 14 14 45
0.082031 -0.246094 -0.014831 19 30 94
0.085938 -0.246094 -0.023718 13 26 86
0.089844 -0.246094 -0.030501 14 28 93
0.093750 -0.246094 -0.035865 13 29 97
0.097656 -0.246094 -0.039836 13 31 103
0.101562 -0.246094 -0.043028 15 33 109
0.105469 -0.246094 -0.046024 13 30 104
0.109375 -0.246094 -0.048766 14 32 109
0.113281 -0.246094 -0.050618 15 33 112
0.117188 -0.246094 -0.051923 15 34 112
0.121094 -0.246094 -0.053261 15 34 114
0.125000 -0.246094 -0.054477 14 33 112
0.128906 -0.246094 -0.055082 14 33 111
0.132812 -0.246094 -0.055205 14 34 110
0.136719 -0.246094 -0.055449 14 34 109
0.140625 -0.246094 -0.055773 16 36 110
0.144531 -0.246094 -0.055698 16 36 109
0.148438 -0.246094 -0.055194 16 36 108
0.152344 -0.246094 -0.054950 16 36 110
0.156250 -0.246094 -0.054757 16 36 110
0.160156 -0.246094 -0.053742 15 35 108
0.164062 -0.246094 -0.052127 14 32 103
0.167969 -0.246094 -0.050839 14 31 98
0.171875 -0.246094 -0.049483 14 31 93
0.175781 -0.246094 -0.047022 13 29 83
0.179688 -0.246094 -0.043326 13 29 76
0.183594 -0.246094 -0.039651 13 29 71
0.187500 -0.246094 -0.034696 12 25 60
0.191406 -0.246094 -0.028699 12 23 49
0.195312 -0.246094 -0.019136 9 17 37
0.199219 -0.246094 -0.006785 27 39 69
0.203125 -0.246094 0.001536 146 138 160
0.210938 -0.246094 0.071335 171 114 115
0.234375 -0.246094 0.083998 167 144 174
0.238281 -0.246094 0.070362 188 157 174
0.242188 -0.246094 0.057452 178 129 132
0.246094 -0.246094 0.050696 162 99 86
0.250000 -0.246094 0.049667 185 115 93
0.253906 -0.246094 0.052923 133 68 51
0.257812 -0.246094 0.063174 78 37 23
-0.160156 -0.250000 0.023618 91 63 54
-0.156250 -0.250000 0.008436 137 95 80
-0.152344 -0.250000 0.007434 138 93 81
-0.148438 -0.250000 0.022922 145 93 84
-0.144531 -0.250000 0.055381 153 91 84
-0.140625 -0.250000 0.071882 170 101 91
-0.136719 -0.250000 0.097265 164 95 84
-0.113281 -0.250000 0.080460 111 60 56
-0.109375 -0.250000 0.066491 62 31 30
-0.097656 -0.250000 -0.024140 16 15 23
-0.093750 -0.250000 -0.035527 17 19 35
-0.089844 -0.250000 -0.043390 19 25 55
-0.085938 -0.250000 -0.049734 15 22 55
-0.082031 -0.250000 -0.056317 16 25 63
-0.078125 -0.250000 -0.061957 15 25 66
-0.074219 -0.250000 -0.066578 15 25 68
-0.070312 -0.250000 -0.070682 15 27 71
-0.066406 -0.250000 -0.074499 15 27 71
-0.062500 -0.250000 -0.077828 15 28 74
-0.058594 -0.250000 -0.080487 15 28 74
-0.054688 -0.250000 -0.082511 14 27 74
-0.050781 -0.250000 -0.084411 15 28 75
-0.046875 -0.250000 -0.086105 15 29 76
-0.042969 -0.250000 -0.087204 15 28 75
-0.039062 -0.250000 -0.087912 15 28 76
-0.035156 -0.250000 -0.088627 15 29 77
-0.031250 -0.250000 -0.089305 15 29 77
-0.027344 -0.250000 -0.089558 15 29 76
-0.023438 -0.250000 -0.089411 15 29 76
-0.019531 -0.250000 -0.089219 15 28 73
-0.015625 -0.250000 -0.088800 14 27 72
-0.011719 -0.250000 -0.087891 14 27 71
-0.007812 -0.250000 -0.086322 14 27 69
-0.003906 -0.250000 -0.084852 13 25 65
0.000000 -0.250000 -0.082984 12 24 61
0.003906 -0.250000 -0.080367 12 24 61
0.007812 -0.250000 -0.076532 12 23 58
0.011719 -0.250000 -0.072993 12 22 55
0.015625 -0.250000 -0.068965 12 21 51
0.019531 -0.250000 -0.064164 12 19 46
0.023438 -0.250000 -0.056355 17 24 51
0.027344 -0.250000 -0.047110 16 22 46
0.082031 -0.250000 -0.013136 20 30 96
0.085938 -0.250000 -0.022727 11 21 77
0.089844 -0.250000 -0.030019 14 28 92
0.093750 -0.250000 -0.035640 14 30 99
0.097656 -0.250000 -0.039715 14 30 101
0.101562 -0.250000 -0.042999 15 32 106
0.105469 -0.250000 -0.046080 13 30 103
0.109375 -0.250000 -0.048892 14 32 108
0.113281 -0.250000 -0.050773 15 33 111
0.117188 -0.250000 -0.052097 15 34 112
0.121094 -0.250000 -0.053452 14 33 110
0.125000 -0.250000 -0.054673 13 32 108
0.128906 -0.250000 -0.055292 13 32 107
0.132812 -0.250000 -0.055427 14 33 108
0.136719 -0.250000 -0.055684 14 34 108
0.140625 -0.250000 -0.056033 16 36 109
0.144531 -0.250000 -0.055972 15 35 108
0.148438 -0.250000 -0.055473 15 35 107
0.152344 -0.250000 -0.055247 16 35 108
0.156250 -0.250000 -0.055077 15 35 107
0.160156 -0.250000 -0.054096 15 34 107
0.164062 -0.250000 -0.052510 15 33 104
0.167969 -0.250000 -0.051256 14 31 99
0.171875 -0.250000 -0.049918 15 31 95
0.175781 -0.250000 -0.047448 14 29 84
0.179688 -0.250000 -0.043787 13 29 76
0.183594 -0.250000 -0.040067 13 28 69
0.187500 -0.250000 -0.034806 12 25 60
0.191406 -0.250000 -0.028699 12 23 49
0.195312 -0.250000 -0.019635 10 18 37
0.199219 -0.250000 -0.005258 31 42 74
0.234375 -0.250000 0.087591 169 147 178
0.238281 -0.250000 0.073952 194 164 180
0.242188 -0.250000 0.060796 175 122 126
0.246094 -0.250000 0.053458 148 82 72
0.250000 -0.250000 0.052104 137 69 61
0.253906 -0.250000 0.055833 84 40 36
0.257812 -0.250000 0.064984 102 42 24
-0.160156 -0.253906 0.031855 116 81 66
-0.156250 -0.253906 0.012514 117 78 71
-0.152344 -0.253906 0.011394 135 87 79
-0.148438 -0.253906 0.017928 130 78 71
-0.144531 -0.253906 0.043242 151 89 81
-0.140625 -0.253906 0.061467 173 105 92
-0.136719 -0.253906 0.092574 174 105 92
-0.132812 -0.253906 0.007449 133 69 63
-0.109375 -0.253906 0.060828 65 36 34
-0.097656 -0.253906 -0.022192 13 13 20
-0.093750 -0.253906 -0.033867 18 21 38
-0.089844 -0.253906 -0.042234 21 27 58
-0.085938 -0.253906 -0.048596 16 23 57
-0.082031 -0.253906 -0.055331 17 26 65
-0.078125 -0.253906 -0.061009 15 25 67
-0.074219 -0.253906 -0.065722 15 25 67
-0.070312 -0.253906 -0.069912 15 27 71
-0.066406 -0.253906 -0.073803 16 28 73
-0.062500 -0.253906 -0.077214 16 28 74
-0.058594 -0.253906 -0.079912 15 27 73
-0.054688 -0.253906 -0.081942 14 27 72
-0.050781 -0.253906 -0.083879 15 28 74
-0.046875 -0.253906 -0.085600 15 28 75
-0.042969 -0.253906 -0.086711 15 28 75
-0.039062 -0.253906 -0.087431 15 28 76
-0.035156 -0.253906 -0.088147 15 29 77
-0.031250 -0.253906 -0.088816 15 29 76
-0.027344 -0.253906 -0.089063 15 29 75
-0.023438 -0.253906 -0.088916 15 29 75
-0.019531 -0.253906 -0.088723 15 28 73
-0.015625 -0.253906 -0.088308 14 28 72
-0.011719 -0.253906 -0.087386 14 28 72
-0.007812 -0.253906 -0.085792 14 27 70
-0.003906 -0.253906 -0.084319 13 26 66
0.000000 -0.253906 -0.082440 12 24 62
0.003906 -0.253906 -0.079810 12 24 61
0.007812 -0.253906 -0.075947 12 24 59
0.011719 -0.253906 -0.072383 12 23 55
0.015625 -0.253906 -0.068371 12 21 51
0.019531 -0.253906 -0.063294 12 20 46
0.023438 -0.253906 -0.055452 16 23 49
0.027344 -0.253906 -0.045342 13 17 39
0.082031 -0.253906 -0.012055 21 30 92
0.085938 -0.253906 -0.021934 11 18 70
0.089844 -0.253906 -0.029449 15 27 93
0.093750 -0.253906 -0.035330 15 31 100
0.097656 -0.253906 -0.039631 14 29 100
0.101562 -0.253906 -0.042967 15 31 103
0.105469 -0.253906 -0.046124 14 30 101
0.109375 -0.253906 -0.048999 15 32 106
0.113281 -0.253906 -0.050911 15 34 111
0.117188 -0.253906 -0.052259 15 35 112
0.121094 -0.253906 -0.053629 14 33 109
0.125000 -0.253906 -0.054852 13 31 106
0.128906 -0.253906 -0.055486 13 31 105
0.132812 -0.253906 -0.055636 14 33 107
0.136719 -0.253906 -0.055905 14 34 108
0.140625 -0.253906 -0.056278 15 34 107
0.144531 -0.253906 -0.056231 14 34 106
0.148438 -0.253906 -0.055740 15 34 106
0.152344 -0.253906 -0.055534 14 33 105
0.156250 -0.253906 -0.055390 14 33 104
0.160156 -0.253906 -0.054444 15 34 107
0.164062 -0.253906 -0.052890 15 33 105
0.167969 -0.253906 -0.051677 15 32 100
0.171875 -0.253906 -0.050379 15 32 96
0.175781 -0.253906 -0.047911 14 30 86
0.179688 -0.253906 -0.044291 13 29 77
0.183594 -0.253906 -0.040517 12 26 67
0.187500 -0.253906 -0.035183 11 24 58
0.191406 -0.253906 -0.029462 12 22 48
0.195312 -0.253906 -0.021058 11 18 38
0.199219 -0.253906 -0.005371 38 49 82
0.214844 -0.253906 0.086147 180 113 109
0.234375 -0.253906 0.090882 173 149 180
0.238281 -0.253906 0.077118 198 165 181
0.242188 -0.253906 0.063756 174 116 119
0.246094 -0.253906 0.056205 157 87 75
0.250000 -0.253906 0.053374 117 55 50
0.253906 -0.253906 0.057654 81 39 37
0.257812 -0.253906 0.064080 95 43 22
-0.156250 -0.257812 0.028226 97 68 73
-0.152344 -0.257812 0.015256 134 88 82
-0.148438 -0.257812 0.020528 116 67 61
-0.144531 -0.257812 0.033863 149 87 77
-0.140625 -0.257812 0.052976 174 104 91
-0.136719 -0.257812 0.084406 176 105 92
-0.132812 -0.257812 0.009608 132 67 61
-0.109375 -0.257812 0.051255 58 34 33
-0.097656 -0.257812 -0.020421 12 11 17
-0.093750 -0.257812 -0.031968 17 19 34
-0.089844 -0.257812 -0.040967 19 24 53
-0.085938 -0.257812 -0.047368 16 23 56
-0.082031 -0.257812 -0.054334 17 26 64
-0.078125 -0.257812 -0.060070 15 24 64
-0.074219 -0.257812 -0.064881 14 24 65
-0.070312 -0.257812 -0.069155 15 26 70
-0.066406 -0.257812 -0.073097 15 26 71
-0.062500 -0.257812 -0.076579 15 26 70
-0.058594 -0.257812 -0.079322 14 26 70
-0.054688 -0.257812 -0.081371 14 26 71
-0.050781 -0.257812 -0.083346 14 27 72
-0.046875 -0.257812 -0.085096 14 27 73
-0.042969 -0.257812 -0.086225 14 27 73
-0.039062 -0.257812 -0.086951 15 28 74
-0.035156 -0.257812 -0.087664 15 28 75
-0.031250 -0.257812 -0.088329 15 28 75
-0.027344 -0.257812 -0.088565 14 28 74
-0.023438 -0.257812 -0.088401 15 28 75
-0.019531 -0.257812 -0.088197 15 28 74
-0.015625 -0.257812 -0.087777 14 27 72
-0.011719 -0.257812 -0.086841 14 27 71
-0.007812 -0.257812 -0.085228 13 26 69
-0.003906 -0.257812 -0.083746 13 25 66
0.000000 -0.257812 -0.081857 12 24 62
0.003906 -0.257812 -0.079220 13 25 62
0.007812 -0.257812 -0.075304 12 24 58
0.011719 -0.257812 -0.071704 12 22 53
0.015625 -0.257812 -0.067719 12 21 49
0.019531 -0.257812 -0.062313 12 20 45
0.023438 -0.257812 -0.054329 16 22 48
0.027344 -0.257812 -0.042849 13 17 39
0.082031 -0.257812 -0.009718 26 34 96
0.085938 -0.257812 -0.021106 12 19 71
0.089844 -0.257812 -0.029000 15 27 93
0.093750 -0.257812 -0.034985 15 29 96
0.097656 -0.257812 -0.039432 13 27 94
0.101562 -0.257812 -0.042873 14 29 99
0.105469 -0.257812 -0.046123 13 29 98
0.109375 -0.257812 -0.049037 14 30 102
0.113281 -0.257812 -0.050978 14 32 106
0.117188 -0.257812 -0.052357 15 33 108
0.121094 -0.257812 -0.053751 14 32 106
0.125000 -0.257812 -0.054991 14 32 106
0.128906 -0.257812 -0.055637 14 32 105
0.132812 -0.257812 -0.055799 14 33 106
0.136719 -0.257812 -0.056081 14 33 106
0.140625 -0.257812 -0.056471 14 33 105
0.144531 -0.257812 -0.056438 14 33 104
0.148438 -0.257812 -0.055956 14 33 105
0.152344 -0.257812 -0.055767 14 33 105
0.156250 -0.257812 -0.055646 14 33 104
0.160156 -0.257812 -0.054734 15 34 107
0.164062 -0.257812 -0.053211 15 33 104
0.167969 -0.257812 -0.052031 15 31 98
0.171875 -0.257812 -0.050773 15 31 95
0.175781 -0.257812 -0.048330 15 30 87
0.179688 -0.257812 -0.044777 15 30 80
0.183594 -0.257812 -0.040943 13 28 70
0.187500 -0.257812 -0.035393 12 25 60
0.191406 -0.257812 -0.029575 12 22 48
0.195312 -0.257812 -0.021223 11 18 38
0.199219 -0.257812 -0.006062 43 52 86
0.214844 -0.257812 0.086638 180 114 112
0.234375 -0.257812 0.090793 174 148 178
0.238281 -0.257812 0.078174 197 160 175
0.242188 -0.257812 0.065645 172 110 108
0.246094 -0.257812 0.058777 158 84 71
0.250000 -0.257812 0.055706 88 34 32
0.253906 -0.257812 0.059274 48 16 17
0.257812 -0.257812 0.046497 78 37 23
-0.152344 -0.261719 0.030901 141 96 87
-0.148438 -0.261719 0.025395 112 65 60
-0.144531 -0.261719 0.030388 144 83 75
-0.140625 -0.261719 0.044535 170 99 87
-0.136719 -0.261719 0.069871 177 105 92
-0.132812 -0.261719 0.011888 124 61 56
-0.113281 -0.261719 0.072224 117 72 71
-0.109375 -0.261719 0.043904 31 22 23
-0.097656 -0.261719 -0.017265 16 15 23
-0.093750 -0.261719 -0.028914 18 20 34
-0.089844 -0.261719 -0.039121 19 25 53
-0.085938 -0.261719 -0.045934 18 25 57
-0.082031 -0.261719 -0.053311 18 25 63
-0.078125 -0.261719 -0.059115 15 24 64
-0.074219 -0.261719 -0.063970 15 25 66
-0.070312 -0.261719 -0.068359 15 26 69
-0.066406 -0.261719 -0.072369 15 26 70
-0.062500 -0.261719 -0.075925 14 25 68
-0.058594 -0.261719 -0.078723 14 26 70
-0.054688 -0.261719 -0.080797 14 27 72
-0.050781 -0.261719 -0.082808 14 27 72
-0.046875 -0.261719 -0.084589 14 27 72
-0.042969 -0.261719 -0.085738 15 27 73
-0.039062 -0.261719 -0.086465 15 28 75
-0.035156 -0.261719 -0.087175 15 28 75
-0.031250 -0.261719 -0.087838 14 28 74
-0.027344 -0.261719 -0.088061 14 28 73
-0.023438 -0.261719 -0.087877 15 29 76
-0.019531 -0.261719 -0.087656 15 29 75
-0.015625 -0.261719 -0.087230 15 28 74
-0.011719 -0.261719 -0.086283 15 28 73
-0.007812 -0.261719 -0.084655 14 27 71
-0.003906 -0.261719 -0.083155 13 26 67
0.000000 -0.261719 -0.081250 13 25 64
0.003906 -0.261719 -0.078595 13 26 63
0.007812 -0.261719 -0.074617 12 24 57
0.011719 -0.261719 -0.071013 12 22 52
0.015625 -0.261719 -0.067069 12 21 48
0.019531 -0.261719 -0.061335 12 19 43
0.023438 -0.261719 -0.053595 15 22 46
0.027344 -0.261719 -0.041250 15 21 43
0.082031 -0.261719 -0.006857 20 25 76
0.085938 -0.261719 -0.020190 11 17 65
0.089844 -0.261719 -0.028332 15 26 90
0.093750 -0.261719 -0.034426 15 28 93
0.097656 -0.261719 -0.039068 14 26 93
0.101562 -0.261719 -0.042708 14 29 98
0.105469 -0.261719 -0.046039 14 29 99
0.109375 -0.261719 -0.049008 14 30 101
0.113281 -0.261719 -0.050986 13 30 101
0.117188 -0.261719 -0.052400 14 32 104
0.121094 -0.261719 -0.053820 14 32 106
0.125000 -0.261719 -0.055086 15 34 108
0.128906 -0.261719 -0.055748 14 33 107
0.132812 -0.261719 -0.055922 14 33 106
0.136719 -0.261719 -0.056220 14 33 106
0.140625 -0.261719 -0.056625 14 34 106
0.144531 -0.261719 -0.056601 14 34 106
0.148438 -0.261719 -0.056124 15 34 107
0.152344 -0.261719 -0.055951 14 34 106
0.156250 -0.261719 -0.055853 14 32 104
0.160156 -0.261719 -0.054970 15 33 104
0.164062 -0.261719 -0.053479 15 32 101
0.167969 -0.261719 -0.052338 14 30 96
0.171875 -0.261719 -0.051111 14 29 91
0.175781 -0.261719 -0.048706 13 28 82
0.179688 -0.261719 -0.045242 14 29 77
0.183594 -0.261719 -0.041313 13 27 68
0.187500 -0.261719 -0.035764 12 25 59
0.191406 -0.261719 -0.029756 13 22 48
0.195312 -0.261719 -0.021092 12 19 38
0.199219 -0.261719 -0.008351 43 51 83
0.203125 -0.261719 0.003992 148 131 151
0.230469 -0.261719 0.093829 110 95 135
0.234375 -0.261719 0.087513 179 151 180
0.238281 -0.261719 0.076813 196 155 170
0.242188 -0.261719 0.066272 174 109 108
0.246094 -0.261719 0.061017 141 69 61
0.250000 -0.261719 0.060422 54 18 17
0.253906 -0.261719 0.067859 32 9 10
0.257812 -0.261719 0.019261 141 69 61
-0.148438 -0.265625 0.036920 105 62 59
-0.144531 -0.265625 0.029577 135 77 70
-0.140625 -0.265625 0.039765 158 88 76
-0.136719 -0.265625 0.055386 179 105 91
-0.132812 -0.265625 0.049579 135 67 61
-0.093750 -0.265625 -0.024848 15 16 29
-0.089844 -0.265625 -0.037310 19 26 52
-0.085938 -0.265625 -0.044957 19 27 59
-0.082031 -0.265625 -0.052187 17 25 61
-0.078125 -0.265625 -0.058053 15 24 62
-0.074219 -0.265625 -0.063055 15 24 64
-0.070312 -0.265625 -0.067563 15 25 67
-0.066406 -0.265625 -0.071626 14 25 68
-0.062500 -0.265625 -0.075246 13 24 66
-0.058594 -0.265625 -0.078091 14 25 69
-0.054688 -0.265625 -0.080200 14 26 71
-0.050781 -0.265625 -0.082249 14 26 71
-0.046875 -0.265625 -0.084065 14 27 73
-0.042969 -0.265625 -0.085237 15 28 73
-0.039062 -0.265625 -0.085967 15 28 74
-0.035156 -0.265625 -0.086676 15 28 74
-0.031250 -0.265625 -0.087330 15 28 74
-0.027344 -0.265625 -0.087536 14 27 72
-0.023438 -0.265625 -0.087334 14 28 73
-0.019531 -0.265625 -0.087093 15 28 74
-0.015625 -0.265625 -0.086653 15 28 73
-0.011719 -0.265625 -0.085690 14 27 72
-0.007812 -0.265625 -0.084037 14 27 70
-0.003906 -0.265625 -0.082523 14 27 68
0.000000 -0.265625 -0.080605 13 26 64
0.003906 -0.265625 -0.077932 14 26 62
0.007812 -0.265625 -0.073910 13 24 57
0.011719 -0.265625 -0.070269 12 23 53
0.015625 -0.265625 -0.066199 13 22 50
0.019531 -0.265625 -0.060281 12 20 43
0.023438 -0.265625 -0.052770 17 25 49
0.027344 -0.265625 -0.036280 21 28 53
0.085938 -0.265625 -0.017626 14 20 70
0.089844 -0.265625 -0.027588 16 26 90
0.093750 -0.265625 -0.034105 15 27 91
0.097656 -0.265625 -0.038652 14 27 93
0.101562 -0.265625 -0.042482 15 30 99
0.105469 -0.265625 -0.045891 14 30 100
0.109375 -0.265625 -0.048908 14 30 100
0.113281 -0.265625 -0.050915 13 30 101
0.117188 -0.265625 -0.052362 14 32 103
0.121094 -0.265625 -0.053804 14 33 105
0.125000 -0.265625 -0.055104 15 34 108
0.128906 -0.265625 -0.055789 14 34 107
0.132812 -0.265625 -0.055974 14 34 107
0.136719 -0.265625 -0.056287 14 34 107
0.140625 -0.265625 -0.056708 14 34 107
0.144531 -0.265625 -0.056687 14 34 107
0.148438 -0.265625 -0.056210 15 35 108
0.152344 -0.265625 -0.056051 15 34 106
0.156250 -0.265625 -0.055976 14 32 103
0.160156 -0.265625 -0.055121 15 32 102
0.164062 -0.265625 -0.053661 15 31 100
0.167969 -0.265625 -0.052561 15 31 96
0.171875 -0.265625 -0.051377 15 30 92
0.175781 -0.265625 -0.049004 14 28 83
0.179688 -0.265625 -0.045576 14 29 76
0.183594 -0.265625 -0.041632 14 28 68
0.187500 -0.265625 -0.036121 12 24 58
0.191406 -0.265625 -0.030106 12 22 47
0.195312 -0.265625 -0.021775 12 19 39
0.199219 -0.265625 -0.010630 40 47 78
0.203125 -0.265625 0.004166 135 117 138
0.230469 -0.265625 0.088650 140 124 160
0.234375 -0.265625 0.082990 194 169 192
0.238281 -0.265625 0.073945 194 152 166
0.242188 -0.265625 0.065496 181 119 120
0.246094 -0.265625 0.062585 137 72 69
0.250000 -0.265625 0.063246 66 28 27
0.253906 -0.265625 0.066188 81 39 37
-0.144531 -0.269531 0.041061 153 96 83
-0.140625 -0.269531 0.039090 154 88 74
-0.136719 -0.269531 0.050167 175 104 90
-0.132812 -0.269531 0.064039 151 79 72
-0.093750 -0.269531 -0.020784 11 12 21
-0.089844 -0.269531 -0.035028 18 25 49
-0.085938 -0.269531 -0.043819 20 29 62
-0.082031 -0.269531 -0.051317 16 24 59
-0.078125 -0.269531 -0.057211 15 23 59
-0.074219 -0.269531 -0.062187 14 24 62
-0.070312 -0.269531 -0.066742 15 25 66
-0.066406 -0.269531 -0.070846 14 25 67
-0.062500 -0.269531 -0.074538 13 24 66
-0.058594 -0.269531 -0.077436 14 25 68
-0.054688 -0.269531 -0.079590 14 26 70
-0.050781 -0.269531 -0.081683 14 26 71
-0.046875 -0.269531 -0.083538 15 27 72
-0.042969 -0.269531 -0.084732 14 27 71
-0.039062 -0.269531 -0.085464 14 26 70
-0.035156 -0.269531 -0.086174 14 26 71
-0.031250 -0.269531 -0.086822 14 27 72
