ply
    format ascii 1.0
    element vertex 56630
    property float x
    property float y
    property float z
    property uchar red
    property uchar green
    property uchar blue
    end_header
0.015625 0.105469 0.095876 92 90 94
0.019531 0.105469 0.098427 93 91 94
0.023438 0.105469 0.099702 102 102 103
0.027344 0.105469 0.100879 96 97 96
0.031250 0.105469 0.102057 98 99 99
0.035156 0.105469 0.103374 102 102 102
0.039062 0.105469 0.105056 104 104 104
0.042969 0.105469 0.106677 97 97 97
0.046875 0.105469 0.108084 93 93 93
0.050781 0.105469 0.109121 105 105 105
0.054688 0.105469 0.109800 122 122 122
0.058594 0.105469 0.110172 110 113 94
0.062500 0.105469 0.110352 111 114 97
0.066406 0.105469 0.110176 111 115 100
0.070312 0.105469 0.109523 110 114 100
0.074219 0.105469 0.108670 109 112 103
0.078125 0.105469 0.107662 105 110 104
0.082031 0.105469 0.106572 107 111 110
0.085938 0.105469 0.105414 108 113 116
0.089844 0.105469 0.104124 108 115 123
0.093750 0.105469 0.102687 110 116 128
0.097656 0.105469 0.101239 111 118 134
0.101562 0.105469 0.099905 111 119 138
0.105469 0.105469 0.098488 110 118 141
0.109375 0.105469 0.096954 108 115 141
0.113281 0.105469 0.095366 103 113 140
0.117188 0.105469 0.093756 100 109 138
0.121094 0.105469 0.092078 97 110 144
0.125000 0.105469 0.090381 97 108 140
0.128906 0.105469 0.088499 95 102 131
0.132812 0.105469 0.086226 101 107 131
0.136719 0.105469 0.083862 119 120 140
0.140625 0.105469 0.081381 120 118 131
0.144531 0.105469 0.078948 115 112 119
0.148438 0.105469 0.076805 122 116 118
0.152344 0.105469 0.074610 103 98 94
0.156250 0.105469 0.072324 152 149 141
0.160156 0.105469 0.069430 178 175 169
0.164062 0.105469 0.065512 176 173 169
0.167969 0.105469 0.061438 189 187 182
0.171875 0.105469 0.057226 189 189 183
0.175781 0.105469 0.052841 187 185 179
0.179688 0.105469 0.048738 181 180 174
0.183594 0.105469 0.043964 182 179 180
0.187500 0.105469 0.038999 175 172 173
0.191406 0.105469 0.032896 162 158 159
0.195312 0.105469 0.024398 137 132 132
0.199219 0.105469 -0.014465 91 78 72
0.203125 0.105469 -0.027840 119 85 68
0.207031 0.105469 -0.024013 171 120 93
0.210938 0.105469 -0.020529 201 144 110
0.214844 0.105469 -0.018105 216 158 119
0.218750 0.105469 -0.016623 226 169 130
0.222656 0.105469 -0.017204 233 175 135
0.226562 0.105469 -0.018793 235 175 137
0.230469 0.105469 -0.020827 233 173 136
0.234375 0.105469 -0.023124 227 165 128
0.238281 0.105469 -0.027389 214 167 139
-0.226562 0.101562 0.009250 170 129 110
-0.222656 0.101562 0.027894 207 156 117
-0.218750 0.101562 0.036299 213 149 110
-0.214844 0.101562 0.039671 227 163 121
-0.210938 0.101562 0.037516 229 165 125
-0.207031 0.101562 0.031887 228 162 125
-0.203125 0.101562 0.026792 223 161 125
-0.199219 0.101562 0.025522 205 140 109
-0.195312 0.101562 0.026894 189 127 106
-0.191406 0.101562 0.039247 154 109 104
-0.187500 0.101562 0.050425 77 54 57
0.003906 0.101562 0.083687 70 71 80
0.007812 0.101562 0.087306 131 130 137
0.011719 0.101562 0.091508 93 92 96
0.015625 0.101562 0.095271 60 58 62
0.019531 0.101562 0.097884 77 75 79
0.023438 0.101562 0.099271 132 132 134
0.027344 0.101562 0.100564 150 151 151
0.031250 0.101562 0.101825 135 136 136
0.035156 0.101562 0.103224 101 102 102
0.039062 0.101562 0.104992 91 91 91
0.042969 0.101562 0.106735 104 104 104
0.046875 0.101562 0.108283 111 111 111
0.050781 0.101562 0.109481 94 94 94
0.054688 0.101562 0.110310 73 73 74
0.058594 0.101562 0.110802 99 102 75
0.062500 0.101562 0.111091 101 104 77
0.066406 0.101562 0.111011 108 110 86
0.070312 0.101562 0.110459 115 117 96
0.074219 0.101562 0.109686 114 117 98
0.078125 0.101562 0.108719 110 112 98
0.082031 0.101562 0.107650 107 110 101
0.085938 0.101562 0.106476 108 110 105
0.089844 0.101562 0.105144 106 110 111
0.093750 0.101562 0.103659 108 111 116
0.097656 0.101562 0.102163 109 113 122
0.101562 0.101562 0.100785 110 114 126
0.105469 0.101562 0.099327 107 113 129
0.109375 0.101562 0.097747 104 109 129
0.113281 0.101562 0.096126 100 105 127
0.117188 0.101562 0.094496 98 103 125
0.121094 0.101562 0.092815 109 118 157
0.125000 0.101562 0.091134 108 116 153
0.128906 0.101562 0.089263 98 104 138
0.132812 0.101562 0.087006 95 99 128
0.136719 0.101562 0.084662 109 109 133
0.140625 0.101562 0.082180 116 113 130
0.144531 0.101562 0.079755 115 112 121
0.148438 0.101562 0.077617 122 117 121
0.152344 0.101562 0.075421 107 102 99
0.156250 0.101562 0.073127 165 161 156
0.160156 0.101562 0.070196 183 181 175
0.164062 0.101562 0.066196 175 175 169
0.167969 0.101562 0.062064 188 186 182
0.171875 0.101562 0.057840 188 188 179
0.175781 0.101562 0.053401 188 185 178
0.179688 0.101562 0.049193 182 179 172
0.183594 0.101562 0.044269 180 174 176
0.187500 0.101562 0.039108 169 164 166
0.191406 0.101562 0.032813 157 151 153
0.195312 0.101562 0.025795 143 136 137
0.199219 0.101562 -0.009087 95 80 76
0.203125 0.101562 -0.027918 113 80 63
0.207031 0.101562 -0.023434 169 118 90
0.210938 0.101562 -0.019641 198 140 106
0.214844 0.101562 -0.017230 213 154 115
0.218750 0.101562 -0.015558 225 167 127
0.222656 0.101562 -0.016066 232 173 134
0.226562 0.101562 -0.017619 235 174 136
0.230469 0.101562 -0.019608 233 172 135
0.234375 0.101562 -0.021854 226 164 127
0.238281 0.101562 -0.026100 216 168 140
-0.226562 0.097656 0.015579 198 159 124
-0.222656 0.097656 0.032324 213 162 117
-0.218750 0.097656 0.039247 218 152 112
-0.214844 0.097656 0.041682 228 164 122
-0.210938 0.097656 0.037525 229 163 123
-0.207031 0.097656 0.031033 225 157 120
-0.203125 0.097656 0.025684 217 151 116
-0.199219 0.097656 0.024821 193 123 95
-0.195312 0.097656 0.026629 171 108 95
-0.191406 0.097656 0.040342 133 94 97
0.003906 0.097656 0.083179 104 104 111
0.007812 0.097656 0.086816 149 148 153
0.011719 0.097656 0.090990 95 93 96
0.015625 0.097656 0.094724 53 52 55
0.019531 0.097656 0.097386 60 58 61
0.023438 0.097656 0.098872 97 96 98
0.027344 0.097656 0.100280 130 131 131
0.031250 0.097656 0.101637 162 163 163
0.035156 0.097656 0.103131 175 176 176
0.039062 0.097656 0.105019 158 159 159
0.042969 0.097656 0.106923 124 125 125
0.046875 0.097656 0.108663 101 101 102
0.050781 0.097656 0.110093 97 98 98
0.054688 0.097656 0.111134 103 103 103
0.058594 0.097656 0.111790 102 101 77
0.062500 0.097656 0.112216 101 99 75
0.066406 0.097656 0.112236 103 104 80
0.070312 0.097656 0.111792 112 111 90
0.074219 0.097656 0.111104 116 115 97
0.078125 0.097656 0.110197 112 113 97
0.082031 0.097656 0.109178 113 113 102
0.085938 0.097656 0.108001 117 117 109
0.089844 0.097656 0.106649 108 109 104
0.093750 0.097656 0.105133 108 108 108
0.097656 0.097656 0.103604 107 108 112
0.101562 0.097656 0.102194 107 107 115
0.105469 0.097656 0.100684 105 108 117
0.109375 0.097656 0.099058 105 107 119
0.113281 0.097656 0.097407 105 107 120
0.117188 0.097656 0.095758 105 107 120
0.121094 0.097656 0.094076 111 117 152
0.125000 0.097656 0.092409 117 122 156
0.128906 0.097656 0.090548 107 112 143
0.132812 0.097656 0.088320 97 101 128
0.136719 0.097656 0.086012 106 107 128
0.140625 0.097656 0.083549 113 112 128
0.144531 0.097656 0.081142 110 107 118
0.148438 0.097656 0.079018 110 105 111
0.152344 0.097656 0.076831 108 104 103
0.156250 0.097656 0.074532 170 167 163
0.160156 0.097656 0.071541 182 179 176
0.164062 0.097656 0.067423 170 168 166
0.167969 0.097656 0.063179 181 179 177
0.171875 0.097656 0.058875 181 180 176
0.175781 0.097656 0.054366 185 180 177
0.179688 0.097656 0.050045 178 173 169
0.183594 0.097656 0.044966 177 167 171
0.187500 0.097656 0.039512 168 158 161
0.191406 0.097656 0.032996 158 149 151
0.195312 0.097656 0.026503 147 137 138
0.199219 0.097656 -0.002317 97 78 77
0.203125 0.097656 -0.027849 110 75 59
0.207031 0.097656 -0.022295 165 114 84
0.210938 0.097656 -0.018380 193 134 99
0.214844 0.097656 -0.016131 209 148 110
0.218750 0.097656 -0.014307 223 162 124
0.222656 0.097656 -0.014763 231 170 131
0.226562 0.097656 -0.016314 235 173 135
0.230469 0.097656 -0.018282 232 171 134
0.234375 0.097656 -0.020498 226 162 125
0.238281 0.097656 -0.024750 217 168 140
-0.226562 0.093750 0.020146 203 161 123
-0.222656 0.093750 0.036102 214 159 113
-0.218750 0.093750 0.042199 219 153 113
-0.214844 0.093750 0.043671 228 164 124
-0.210938 0.093750 0.038144 228 161 123
-0.207031 0.093750 0.030582 221 148 115
-0.203125 0.093750 0.025243 210 139 107
-0.199219 0.093750 0.024424 186 119 92
-0.195312 0.093750 0.027428 169 118 103
-0.191406 0.093750 0.043390 124 95 92
0.007812 0.093750 0.086385 169 168 171
0.011719 0.093750 0.090509 110 109 111
0.015625 0.093750 0.094230 63 63 64
0.019531 0.093750 0.096956 65 64 66
0.023438 0.093750 0.098564 89 89 89
0.027344 0.093750 0.100116 107 107 107
0.031250 0.093750 0.101581 109 109 110
0.035156 0.093750 0.103193 110 111 111
0.039062 0.093750 0.105245 122 123 124
0.042969 0.093750 0.107364 150 151 152
0.046875 0.093750 0.109374 167 169 170
0.050781 0.093750 0.111109 152 154 156
0.054688 0.093750 0.112442 127 129 130
0.058594 0.093750 0.113318 109 108 94
0.062500 0.093750 0.113895 103 101 86
0.066406 0.093750 0.113991 97 95 81
0.070312 0.093750 0.113591 98 96 81
0.074219 0.093750 0.112908 101 97 85
0.078125 0.093750 0.111983 101 99 88
0.082031 0.093750 0.110935 108 105 96
0.085938 0.093750 0.109695 115 112 105
0.089844 0.093750 0.108286 113 112 107
0.093750 0.093750 0.106697 111 110 106
0.097656 0.093750 0.105087 109 108 106
0.101562 0.093750 0.103608 107 107 107
0.105469 0.093750 0.102036 107 107 109
0.109375 0.093750 0.100358 110 109 114
0.113281 0.093750 0.098696 113 112 117
0.117188 0.093750 0.097063 116 115 120
0.121094 0.093750 0.095413 88 93 121
0.125000 0.093750 0.093818 104 109 134
0.128906 0.093750 0.092023 105 109 133
0.132812 0.093750 0.089872 101 103 123
0.136719 0.093750 0.087647 111 112 130
0.140625 0.093750 0.085246 119 119 131
0.144531 0.093750 0.082887 111 110 118
0.148438 0.093750 0.080777 103 101 106
0.152344 0.093750 0.078557 102 100 101
0.156250 0.093750 0.076218 157 156 155
0.160156 0.093750 0.073159 163 161 163
0.164062 0.093750 0.068902 155 152 156
0.167969 0.093750 0.064536 171 167 171
0.171875 0.093750 0.060109 172 168 171
0.175781 0.093750 0.055484 178 171 174
0.179688 0.093750 0.051050 173 164 167
0.183594 0.093750 0.045803 172 157 163
0.187500 0.093750 0.040185 164 149 154
0.191406 0.093750 0.033721 159 143 147
0.195312 0.093750 0.026994 146 131 134
0.199219 0.093750 0.006433 96 73 75
0.203125 0.093750 -0.026337 106 69 55
0.207031 0.093750 -0.020407 158 106 77
0.210938 0.093750 -0.016797 187 125 91
0.214844 0.093750 -0.014623 205 141 105
0.218750 0.093750 -0.012815 220 158 120
0.222656 0.093750 -0.013261 230 167 128
0.226562 0.093750 -0.014827 234 171 133
0.230469 0.093750 -0.016827 232 170 133
0.234375 0.093750 -0.019098 225 160 124
0.238281 0.093750 -0.023380 215 162 136
-0.226562 0.089844 0.021964 200 150 116
-0.222656 0.089844 0.039488 214 154 112
-0.218750 0.089844 0.045356 221 155 114
-0.214844 0.089844 0.046091 228 163 122
-0.210938 0.089844 0.039863 226 158 121
-0.207031 0.089844 0.030518 217 141 108
-0.203125 0.089844 0.025102 207 137 104
-0.199219 0.089844 0.023645 190 133 103
-0.195312 0.089844 0.030680 160 126 106
0.007812 0.089844 0.085870 167 167 168
0.011719 0.089844 0.089931 118 118 118
0.015625 0.089844 0.093661 72 72 72
0.019531 0.089844 0.096452 74 74 74
0.023438 0.089844 0.098212 98 98 98
0.027344 0.089844 0.099959 106 106 106
0.031250 0.089844 0.101609 102 102 102
0.035156 0.089844 0.103416 99 99 99
0.039062 0.089844 0.105692 105 105 106
0.042969 0.089844 0.108065 121 122 123
0.046875 0.089844 0.110298 136 138 141
0.050781 0.089844 0.112252 150 152 156
0.054688 0.089844 0.113752 166 169 173
0.058594 0.089844 0.114726 181 179 180
0.062500 0.089844 0.115331 163 161 160
0.066406 0.089844 0.115395 129 126 123
0.070312 0.089844 0.114953 101 97 94
0.074219 0.089844 0.114173 92 88 84
0.078125 0.089844 0.113195 96 91 88
0.082031 0.089844 0.112125 98 93 89
0.085938 0.089844 0.110863 97 93 90
0.089844 0.089844 0.109437 114 110 107
0.093750 0.089844 0.107794 116 112 110
0.097656 0.089844 0.106115 121 117 114
0.101562 0.089844 0.104630 117 116 112
0.105469 0.089844 0.103116 106 105 101
0.109375 0.089844 0.101465 98 97 93
0.113281 0.089844 0.099844 105 104 100
0.117188 0.089844 0.098275 118 117 113
0.121094 0.089844 0.096691 107 113 128
0.125000 0.089844 0.095180 106 111 124
0.128906 0.089844 0.093461 101 105 116
0.132812 0.089844 0.091416 94 98 108
0.136719 0.089844 0.089287 100 103 111
0.140625 0.089844 0.086958 115 115 123
0.144531 0.089844 0.084658 121 120 126
0.148438 0.089844 0.082561 117 116 120
0.152344 0.089844 0.080354 110 108 111
0.156250 0.089844 0.078027 161 159 161
0.160156 0.089844 0.074964 151 147 154
0.164062 0.089844 0.070623 151 147 156
0.167969 0.089844 0.066131 163 157 166
0.171875 0.089844 0.061562 170 163 172
0.175781 0.089844 0.056786 174 165 173
0.179688 0.089844 0.052220 170 159 167
0.183594 0.089844 0.046728 166 150 157
0.187500 0.089844 0.041018 161 143 150
0.191406 0.089844 0.034968 165 145 152
0.195312 0.089844 0.027980 158 138 144
0.199219 0.089844 0.015053 107 80 82
0.203125 0.089844 -0.021989 106 71 57
0.207031 0.089844 -0.019122 148 99 71
0.210938 0.089844 -0.015620 178 116 83
0.214844 0.089844 -0.013169 201 136 102
0.218750 0.089844 -0.011232 217 153 118
0.222656 0.089844 -0.011629 228 164 126
0.226562 0.089844 -0.013232 233 169 132
0.230469 0.089844 -0.015256 232 170 134
0.234375 0.089844 -0.017619 225 162 126
0.238281 0.089844 -0.021930 214 159 135
-0.226562 0.085938 0.025844 221 170 131
-0.222656 0.085938 0.042597 228 169 126
-0.218750 0.085938 0.048585 230 166 123
-0.214844 0.085938 0.048857 230 164 123
-0.210938 0.085938 0.042135 225 154 121
-0.207031 0.085938 0.030896 212 134 102
-0.203125 0.085938 0.025177 201 130 99
-0.199219 0.085938 0.023458 176 116 98
-0.195312 0.085938 0.034703 80 51 44
0.007812 0.085938 0.085201 160 160 160
0.011719 0.085938 0.089196 131 131 131
0.015625 0.085938 0.092951 91 91 91
0.019531 0.085938 0.095803 99 99 99
0.023438 0.085938 0.097656 129 129 129
0.027344 0.085938 0.099513 139 139 140
0.031250 0.085938 0.101265 137 137 137
0.035156 0.085938 0.103130 134 134 135
0.039062 0.085938 0.105464 135 135 136
0.042969 0.085938 0.107871 142 143 144
0.046875 0.085938 0.110166 146 147 150
0.050781 0.085938 0.112298 145 147 150
0.054688 0.085938 0.113971 141 143 147
0.058594 0.085938 0.115136 128 126 133
0.062500 0.085938 0.115868 133 132 137
0.066406 0.085938 0.115965 141 140 144
0.070312 0.085938 0.115551 143 140 145
0.074219 0.085938 0.114687 123 120 125
0.078125 0.085938 0.113658 107 103 106
0.082031 0.085938 0.112581 98 95 96
0.085938 0.085938 0.111289 98 95 94
0.089844 0.085938 0.109848 99 95 94
0.093750 0.085938 0.108220 98 94 91
0.097656 0.085938 0.106580 101 98 93
0.101562 0.085938 0.105167 110 107 103
0.105469 0.085938 0.103732 118 115 108
0.109375 0.085938 0.102157 115 115 107
0.113281 0.085938 0.100628 113 113 103
0.117188 0.085938 0.099149 112 112 103
0.121094 0.085938 0.097658 110 115 118
0.125000 0.085938 0.096230 116 121 124
0.128906 0.085938 0.094578 116 120 123
0.132812 0.085938 0.092604 107 111 113
0.136719 0.085938 0.090532 103 104 106
0.140625 0.085938 0.088255 106 107 109
0.144531 0.085938 0.086002 111 111 113
0.148438 0.085938 0.083945 110 110 112
0.152344 0.085938 0.081834 117 117 119
0.156250 0.085938 0.079563 172 171 177
0.160156 0.085938 0.076452 159 157 165
0.164062 0.085938 0.071963 153 148 157
0.167969 0.085938 0.067286 161 154 163
0.171875 0.085938 0.062604 167 159 170
0.175781 0.085938 0.057729 171 162 171
0.179688 0.085938 0.053159 168 160 168
0.183594 0.085938 0.047655 166 154 162
0.187500 0.085938 0.041803 168 155 162
0.191406 0.085938 0.035842 180 167 174
0.195312 0.085938 0.028794 179 167 172
0.199219 0.085938 0.019492 125 104 105
0.203125 0.085938 -0.014271 113 77 61
0.207031 0.085938 -0.017709 147 97 70
0.210938 0.085938 -0.014013 170 107 76
0.214844 0.085938 -0.011662 195 129 98
0.218750 0.085938 -0.009717 214 149 116
0.222656 0.085938 -0.010028 226 160 124
0.226562 0.085938 -0.011638 232 167 131
0.230469 0.085938 -0.013697 232 171 134
0.234375 0.085938 -0.016136 226 167 129
0.238281 0.085938 -0.020506 209 151 128
-0.230469 0.082031 0.006263 229 199 170
-0.226562 0.082031 0.031934 220 167 121
-0.222656 0.082031 0.045274 227 170 122
-0.218750 0.082031 0.052163 233 177 128
-0.214844 0.082031 0.051907 231 171 126
-0.210938 0.082031 0.044761 224 158 123
-0.207031 0.082031 0.030627 205 130 98
-0.203125 0.082031 0.024508 190 119 96
-0.199219 0.082031 0.023945 142 83 79
-0.195312 0.082031 0.037047 12 5 5
0.007812 0.082031 0.084370 149 149 150
0.011719 0.082031 0.088291 139 139 139
0.015625 0.082031 0.092091 107 107 107
0.019531 0.082031 0.095018 117 117 117
0.023438 0.082031 0.096920 147 146 147
0.027344 0.082031 0.098805 156 156 157
0.031250 0.082031 0.100552 153 154 154
0.035156 0.082031 0.102364 148 149 149
0.039062 0.082031 0.104604 146 146 147
0.042969 0.082031 0.106982 148 149 150
0.046875 0.082031 0.109344 150 151 152
0.050781 0.082031 0.111630 147 147 149
0.054688 0.082031 0.113552 139 140 142
0.058594 0.082031 0.114913 130 129 133
0.062500 0.082031 0.115659 122 121 125
0.066406 0.082031 0.115677 116 114 120
0.070312 0.082031 0.115090 111 110 113
0.074219 0.082031 0.114027 105 105 107
0.078125 0.082031 0.112763 114 113 116
0.082031 0.082031 0.111465 120 119 122
0.085938 0.082031 0.110032 124 123 124
0.089844 0.082031 0.108453 101 100 100
0.093750 0.082031 0.106916 105 103 100
0.097656 0.082031 0.105522 100 99 95
0.101562 0.082031 0.104201 104 104 96
0.105469 0.082031 0.102783 112 112 103
0.109375 0.082031 0.101280 116 116 106
0.113281 0.082031 0.099866 117 117 105
0.117188 0.082031 0.098459 116 116 104
0.121094 0.082031 0.097021 98 103 97
0.125000 0.082031 0.095620 100 105 99
0.128906 0.082031 0.093978 102 107 101
0.132812 0.082031 0.092001 104 106 102
0.136719 0.082031 0.089885 108 110 107
0.140625 0.082031 0.087672 109 111 108
0.144531 0.082031 0.085461 105 107 106
0.148438 0.082031 0.083381 98 99 101
0.152344 0.082031 0.081294 123 124 126
0.156250 0.082031 0.078939 174 175 179
0.160156 0.082031 0.075693 165 165 167
0.164062 0.082031 0.071188 155 153 157
0.167969 0.082031 0.066556 160 156 162
0.171875 0.082031 0.062084 166 160 168
0.175781 0.082031 0.057423 167 161 168
0.179688 0.082031 0.053094 165 158 166
0.183594 0.082031 0.047881 165 158 165
0.187500 0.082031 0.041984 174 167 172
0.191406 0.082031 0.035983 186 180 185
0.195312 0.082031 0.029076 184 181 183
0.199219 0.082031 0.020850 133 126 125
0.203125 0.082031 -0.008001 103 75 61
0.207031 0.082031 -0.017189 137 87 61
0.210938 0.082031 -0.012720 163 99 69
0.214844 0.082031 -0.010255 191 125 96
0.218750 0.082031 -0.008292 211 146 113
0.222656 0.082031 -0.008509 224 157 122
0.226562 0.082031 -0.010035 230 164 129
0.230469 0.082031 -0.012071 231 170 134
0.234375 0.082031 -0.014596 227 167 129
0.238281 0.082031 -0.019035 204 142 120
-0.230469 0.078125 0.011753 224 190 156
-0.226562 0.078125 0.037711 202 146 104
-0.222656 0.078125 0.048763 218 162 116
-0.218750 0.078125 0.055830 233 182 132
-0.214844 0.078125 0.054717 227 169 121
-0.210938 0.078125 0.047174 208 138 103
-0.207031 0.078125 0.031265 178 108 80
-0.203125 0.078125 0.024410 169 113 92
-0.199219 0.078125 0.024992 100 61 58
0.007812 0.078125 0.083514 150 150 150
0.011719 0.078125 0.087308 150 150 150
0.015625 0.078125 0.091083 122 122 122
0.019531 0.078125 0.094022 131 131 131
0.023438 0.078125 0.095907 157 157 157
0.027344 0.078125 0.097644 168 167 168
0.031250 0.078125 0.099183 167 167 168
0.035156 0.078125 0.100821 165 165 166
0.039062 0.078125 0.103151 165 165 166
0.042969 0.078125 0.105462 168 168 169
0.046875 0.078125 0.106602 172 172 173
0.050781 0.078125 0.105896 173 173 174
0.054688 0.078125 0.104407 172 173 174
0.058594 0.078125 0.102883 169 168 171
0.062500 0.078125 0.101972 161 160 165
0.066406 0.078125 0.101817 149 148 153
0.070312 0.078125 0.101991 132 131 134
0.074219 0.078125 0.102450 106 107 108
0.078125 0.078125 0.102339 85 86 87
0.082031 0.078125 0.101734 72 74 74
0.085938 0.078125 0.100739 64 67 66
0.089844 0.078125 0.099471 79 84 82
0.093750 0.078125 0.098837 104 116 109
0.097656 0.078125 0.098796 112 121 115
0.101562 0.078125 0.098689 104 108 103
0.105469 0.078125 0.098408 90 93 85
0.109375 0.078125 0.097694 86 87 80
0.113281 0.078125 0.096661 95 97 87
0.117188 0.078125 0.095389 104 105 96
0.121094 0.078125 0.093902 101 105 96
0.125000 0.078125 0.092304 91 95 88
0.128906 0.078125 0.090357 79 83 77
0.132812 0.078125 0.087966 70 76 70
0.136719 0.078125 0.085305 66 72 65
0.140625 0.078125 0.082668 71 74 69
0.144531 0.078125 0.080105 79 82 79
0.148438 0.078125 0.077980 85 88 87
0.152344 0.078125 0.076277 109 111 112
0.156250 0.078125 0.074369 135 137 139
0.160156 0.078125 0.071567 125 127 127
0.164062 0.078125 0.067680 122 123 124
0.167969 0.078125 0.063698 135 134 137
0.171875 0.078125 0.059959 143 140 146
0.175781 0.078125 0.055907 142 138 143
0.179688 0.078125 0.051740 136 132 138
0.183594 0.078125 0.046690 137 134 138
0.187500 0.078125 0.040928 152 149 153
0.191406 0.078125 0.034767 165 164 168
0.195312 0.078125 0.028028 157 160 162
0.199219 0.078125 0.019686 119 120 114
0.203125 0.078125 -0.008548 81 69 58
0.207031 0.078125 -0.017423 85 55 39
0.210938 0.078125 -0.012335 138 82 56
0.214844 0.078125 -0.009324 186 120 92
0.218750 0.078125 -0.007000 208 142 111
0.222656 0.078125 -0.007037 222 155 120
0.226562 0.078125 -0.008500 229 162 127
0.230469 0.078125 -0.010462 231 169 132
0.234375 0.078125 -0.013034 229 169 130
0.238281 0.078125 -0.017454 214 159 133
-0.230469 0.074219 0.020206 212 166 128
-0.226562 0.074219 0.042496 208 147 111
-0.222656 0.074219 0.052337 225 165 124
-0.218750 0.074219 0.059084 231 170 125
-0.214844 0.074219 0.057379 211 135 94
-0.210938 0.074219 0.049909 164 89 67
-0.207031 0.074219 0.034754 138 80 68
-0.203125 0.074219 0.025969 145 108 98
-0.199219 0.074219 0.026166 53 41 38
0.007812 0.074219 0.082645 149 149 150
0.011719 0.074219 0.086297 157 157 158
0.015625 0.074219 0.090035 130 130 130
0.019531 0.074219 0.092980 138 137 137
0.023438 0.074219 0.094719 163 162 163
0.027344 0.074219 0.096059 176 176 177
0.031250 0.074219 0.097140 182 182 183
0.035156 0.074219 0.097801 185 186 186
0.039062 0.074219 0.096753 187 187 188
0.042969 0.074219 0.092091 186 187 187
0.046875 0.074219 0.087805 185 186 186
0.050781 0.074219 0.085489 183 184 184
0.054688 0.074219 0.084678 182 183 183
0.058594 0.074219 0.084259 174 175 179
0.062500 0.074219 0.083952 164 165 165
0.066406 0.074219 0.083905 138 140 140
0.070312 0.074219 0.084284 109 111 111
0.074219 0.074219 0.084926 76 79 80
0.078125 0.074219 0.085444 48 51 52
0.082031 0.074219 0.085925 31 33 33
0.085938 0.074219 0.086314 22 25 24
0.089844 0.074219 0.086713 22 28 27
0.093750 0.074219 0.087077 45 65 57
0.097656 0.074219 0.087441 63 88 77
0.101562 0.074219 0.087682 68 93 82
0.105469 0.074219 0.087720 79 105 90
0.109375 0.074219 0.087427 73 95 79
0.113281 0.074219 0.086874 69 86 72
0.117188 0.074219 0.086117 63 77 64
0.121094 0.074219 0.085150 59 69 58
0.125000 0.074219 0.084145 61 71 59
0.128906 0.074219 0.082890 57 68 54
0.132812 0.074219 0.081256 54 67 53
0.136719 0.074219 0.079435 50 64 49
0.140625 0.074219 0.077529 46 58 45
0.144531 0.074219 0.075568 45 56 45
0.148438 0.074219 0.073614 47 56 47
0.152344 0.074219 0.071676 54 60 52
0.156250 0.074219 0.069788 48 53 48
0.160156 0.074219 0.067271 37 41 39
0.164062 0.074219 0.063796 41 44 44
0.167969 0.074219 0.060252 58 59 60
0.171875 0.074219 0.056578 68 67 70
0.175781 0.074219 0.052940 67 64 69
0.179688 0.074219 0.049382 63 60 66
0.183594 0.074219 0.044659 64 63 67
0.187500 0.074219 0.039466 79 79 82
0.191406 0.074219 0.033016 107 111 111
0.195312 0.074219 0.025908 143 151 143
0.199219 0.074219 0.015190 135 138 124
0.203125 0.074219 -0.013899 64 58 50
0.207031 0.074219 -0.016725 47 34 26
0.210938 0.074219 -0.011499 106 66 46
0.214844 0.074219 -0.008470 177 114 88
0.218750 0.074219 -0.005858 205 139 108
0.222656 0.074219 -0.005630 219 151 116
0.226562 0.074219 -0.007039 228 159 124
0.230469 0.074219 -0.008984 231 167 129
0.234375 0.074219 -0.011534 231 169 130
0.238281 0.074219 -0.015805 222 169 138
0.242188 0.074219 -0.025825 210 185 163
-0.234375 0.070312 0.001497 187 147 129
-0.230469 0.070312 0.029123 216 165 121
-0.226562 0.070312 0.045930 219 162 119
-0.222656 0.070312 0.055323 221 158 113
-0.218750 0.070312 0.061085 208 135 92
-0.214844 0.070312 0.059687 157 86 58
-0.210938 0.070312 0.053478 117 65 48
-0.207031 0.070312 0.040616 147 107 93
-0.203125 0.070312 0.028803 175 160 145
0.007812 0.070312 0.082011 140 140 140
0.011719 0.070312 0.085403 154 154 155
0.015625 0.070312 0.088882 123 123 123
0.019531 0.070312 0.091537 124 124 125
0.023438 0.070312 0.092844 147 146 147
0.027344 0.070312 0.093758 159 158 159
0.031250 0.070312 0.093913 162 163 163
0.035156 0.070312 0.091405 165 165 166
0.039062 0.070312 0.087568 161 161 162
0.042969 0.070312 0.085676 149 150 150
0.046875 0.070312 0.085187 134 135 135
0.050781 0.070312 0.084754 120 122 122
0.054688 0.070312 0.084350 108 110 110
0.058594 0.070312 0.084074 92 95 93
0.062500 0.070312 0.083773 67 71 69
0.066406 0.070312 0.083576 41 45 44
0.070312 0.070312 0.083838 28 32 31
0.074219 0.070312 0.084174 22 26 25
0.078125 0.070312 0.084422 16 20 19
0.082031 0.070312 0.084711 12 16 15
0.085938 0.070312 0.085004 10 13 12
0.089844 0.070312 0.085402 10 13 13
0.093750 0.070312 0.085619 15 17 19
0.097656 0.070312 0.085765 15 17 19
0.101562 0.070312 0.085947 17 19 20
0.105469 0.070312 0.085983 22 25 25
0.109375 0.070312 0.085725 23 25 25
0.113281 0.070312 0.085230 25 25 25
0.117188 0.070312 0.084561 25 25 24
0.121094 0.070312 0.083719 25 23 23
0.125000 0.070312 0.082864 27 25 24
0.128906 0.070312 0.081813 26 25 23
0.132812 0.070312 0.080433 25 25 23
0.136719 0.070312 0.078908 23 23 22
0.140625 0.070312 0.077266 21 22 20
0.144531 0.070312 0.075538 21 21 20
0.148438 0.070312 0.073658 21 22 20
0.152344 0.070312 0.071631 24 24 22
0.156250 0.070312 0.069665 24 25 22
0.160156 0.070312 0.067160 20 23 20
0.164062 0.070312 0.063686 20 24 20
0.167969 0.070312 0.060058 26 28 25
0.171875 0.070312 0.056283 28 28 28
0.175781 0.070312 0.052398 29 27 29
0.179688 0.070312 0.048557 30 27 30
0.183594 0.070312 0.043948 26 25 27
0.187500 0.070312 0.038971 29 30 30
0.191406 0.070312 0.032110 38 40 40
0.195312 0.070312 0.024547 50 54 51
0.199219 0.070312 0.012640 59 59 50
0.203125 0.070312 -0.014999 44 37 29
0.207031 0.070312 -0.016058 48 35 25
0.210938 0.070312 -0.010825 100 66 46
0.214844 0.070312 -0.007544 167 108 83
0.218750 0.070312 -0.004774 200 136 104
0.222656 0.070312 -0.004382 216 148 113
0.226562 0.070312 -0.005733 227 158 122
0.230469 0.070312 -0.007592 231 166 128
0.234375 0.070312 -0.010094 232 168 129
0.238281 0.070312 -0.014294 225 169 138
0.242188 0.070312 -0.023820 212 181 158
-0.234375 0.066406 0.005399 213 181 150
-0.230469 0.066406 0.035113 227 188 138
-0.226562 0.066406 0.049473 220 169 119
-0.222656 0.066406 0.057452 206 146 99
-0.218750 0.066406 0.061777 174 112 73
-0.214844 0.066406 0.061167 110 65 44
-0.210938 0.066406 0.056857 90 59 43
-0.207031 0.066406 0.046843 140 121 103
-0.203125 0.066406 0.032666 150 146 125
0.003906 0.066406 0.079205 15 15 16
0.007812 0.066406 0.081308 111 111 112
0.011719 0.066406 0.084171 132 132 133
0.015625 0.066406 0.086943 97 97 98
0.019531 0.066406 0.088881 89 88 90
0.023438 0.066406 0.089445 96 96 98
0.027344 0.066406 0.089063 93 93 94
0.031250 0.066406 0.087231 82 83 84
0.035156 0.066406 0.085505 72 73 74
0.039062 0.066406 0.085282 58 60 61
0.042969 0.066406 0.084908 43 46 46
0.046875 0.066406 0.084766 31 35 34
0.050781 0.066406 0.084813 23 27 26
0.054688 0.066406 0.084947 18 22 21
0.058594 0.066406 0.085066 13 19 16
0.062500 0.066406 0.085089 11 16 14
0.066406 0.066406 0.085114 10 14 12
0.070312 0.066406 0.085345 9 13 12
0.074219 0.066406 0.085625 9 12 12
0.078125 0.066406 0.085811 9 11 11
0.082031 0.066406 0.086011 9 11 10
0.085938 0.066406 0.086290 10 11 11
0.089844 0.066406 0.086647 11 12 12
0.093750 0.066406 0.086790 11 12 13
0.097656 0.066406 0.086830 11 12 12
0.101562 0.066406 0.086880 14 14 14
0.105469 0.066406 0.086824 17 17 17
0.109375 0.066406 0.086558 19 18 18
0.113281 0.066406 0.086108 21 18 19
0.117188 0.066406 0.085529 22 18 19
0.121094 0.066406 0.084839 22 18 19
0.125000 0.066406 0.084129 24 20 20
0.128906 0.066406 0.083223 25 22 20
0.132812 0.066406 0.082017 25 22 21
0.136719 0.066406 0.080644 24 21 20
0.140625 0.066406 0.079164 24 20 20
0.144531 0.066406 0.077545 25 21 21
0.148438 0.066406 0.075688 24 22 21
0.152344 0.066406 0.073671 24 22 21
0.156250 0.066406 0.071561 24 23 21
0.160156 0.066406 0.068870 23 24 21
0.164062 0.066406 0.065354 23 24 21
0.167969 0.066406 0.061632 24 24 21
0.171875 0.066406 0.057778 21 21 20
0.175781 0.066406 0.053919 23 22 23
0.179688 0.066406 0.049817 27 25 26
0.183594 0.066406 0.044944 26 24 24
0.187500 0.066406 0.039755 25 25 23
0.191406 0.066406 0.032689 19 20 19
0.195312 0.066406 0.025053 17 19 17
0.199219 0.066406 0.013160 22 23 18
0.203125 0.066406 -0.013534 31 25 18
0.207031 0.066406 -0.015520 59 41 28
0.210938 0.066406 -0.010193 101 67 49
0.214844 0.066406 -0.006554 146 90 70
0.218750 0.066406 -0.003751 189 124 94
0.222656 0.066406 -0.003316 212 143 109
0.226562 0.066406 -0.004613 225 156 119
0.230469 0.066406 -0.006387 231 165 126
0.234375 0.066406 -0.008782 233 169 131
0.238281 0.066406 -0.012901 230 177 144
0.242188 0.066406 -0.022190 226 198 170
-0.234375 0.062500 0.011495 211 177 144
-0.230469 0.062500 0.040806 225 184 139
-0.226562 0.062500 0.052397 213 159 113
-0.222656 0.062500 0.058745 196 134 93
-0.218750 0.062500 0.062194 172 111 78
-0.214844 0.062500 0.062250 114 68 49
-0.210938 0.062500 0.059269 88 58 46
-0.207031 0.062500 0.050909 85 74 69
-0.203125 0.062500 0.036251 26 22 22
0.003906 0.062500 0.078548 4 4 4
0.007812 0.062500 0.080226 37 36 38
0.011719 0.062500 0.082490 54 53 55
0.015625 0.062500 0.084439 35 34 36
0.019531 0.062500 0.085710 28 26 28
0.023438 0.062500 0.085746 25 25 26
0.027344 0.062500 0.084762 21 23 23
0.031250 0.062500 0.083806 18 20 20
0.035156 0.062500 0.083734 15 16 17
0.039062 0.062500 0.083784 13 14 15
0.042969 0.062500 0.083870 12 14 14
0.046875 0.062500 0.084308 11 13 13
0.050781 0.062500 0.084816 10 13 12
0.054688 0.062500 0.085290 11 13 12
0.058594 0.062500 0.085671 11 14 12
0.062500 0.062500 0.085998 12 14 13
0.066406 0.062500 0.086232 12 14 13
0.070312 0.062500 0.086455 12 14 13
0.074219 0.062500 0.086694 12 13 13
0.078125 0.062500 0.086840 11 12 12
0.082031 0.062500 0.086999 11 12 12
0.085938 0.062500 0.087244 13 13 13
0.089844 0.062500 0.087544 16 17 16
0.093750 0.062500 0.087674 18 19 17
0.097656 0.062500 0.087714 18 19 18
0.101562 0.062500 0.087679 20 21 19
0.105469 0.062500 0.087537 22 22 20
0.109375 0.062500 0.087274 25 23 21
0.113281 0.062500 0.086894 27 24 22
0.117188 0.062500 0.086415 26 23 22
0.121094 0.062500 0.085839 25 22 21
0.125000 0.062500 0.085240 25 22 21
0.128906 0.062500 0.084435 25 22 21
0.132812 0.062500 0.083318 25 22 21
0.136719 0.062500 0.082022 24 21 20
0.140625 0.062500 0.080630 24 21 20
0.144531 0.062500 0.079089 26 22 21
0.148438 0.062500 0.077305 27 23 22
0.152344 0.062500 0.075367 26 23 22
0.156250 0.062500 0.073252 25 23 22
0.160156 0.062500 0.070525 24 23 21
0.164062 0.062500 0.067073 23 22 20
0.167969 0.062500 0.063427 24 22 20
0.171875 0.062500 0.059632 23 21 21
0.175781 0.062500 0.055806 26 23 24
0.179688 0.062500 0.051472 29 25 26
0.183594 0.062500 0.046467 26 24 24
0.187500 0.062500 0.041209 26 25 23
0.191406 0.062500 0.034085 20 21 19
0.195312 0.062500 0.026348 20 22 18
0.199219 0.062500 0.014773 23 24 18
0.203125 0.062500 -0.011844 26 22 16
0.207031 0.062500 -0.014866 56 40 28
0.210938 0.062500 -0.009548 84 58 43
0.214844 0.062500 -0.005746 109 68 52
0.218750 0.062500 -0.002888 171 110 82
0.222656 0.062500 -0.002385 208 141 107
0.226562 0.062500 -0.003628 224 156 119
0.230469 0.062500 -0.005270 231 165 126
0.234375 0.062500 -0.007510 233 169 130
0.238281 0.062500 -0.011534 232 178 141
0.242188 0.062500 -0.020675 227 193 160
-0.234375 0.058594 0.020343 206 166 136
-0.230469 0.058594 0.046756 218 170 130
-0.226562 0.058594 0.054839 202 143 104
-0.222656 0.058594 0.059729 177 116 83
-0.218750 0.058594 0.062324 167 107 78
-0.214844 0.058594 0.062811 120 71 54
-0.210938 0.058594 0.060554 98 65 53
-0.207031 0.058594 0.052809 79 65 61
-0.203125 0.058594 0.039730 6 4 4
0.003906 0.058594 0.077439 0 0 1
0.007812 0.058594 0.078783 5 5 7
0.011719 0.058594 0.080657 11 10 13
0.015625 0.058594 0.082039 9 8 10
0.019531 0.058594 0.082896 11 10 11
0.023438 0.058594 0.082886 13 14 13
0.027344 0.058594 0.082391 15 17 14
0.031250 0.058594 0.082349 17 19 16
0.035156 0.058594 0.082498 16 17 15
0.039062 0.058594 0.082816 15 16 15
0.042969 0.058594 0.083379 15 15 14
0.046875 0.058594 0.084018 14 15 14
0.050781 0.058594 0.084630 14 15 14
0.054688 0.058594 0.085176 15 16 15
0.058594 0.058594 0.085628 16 16 15
0.062500 0.058594 0.086051 16 17 15
0.066406 0.058594 0.086370 17 18 15
0.070312 0.058594 0.086632 17 18 16
0.074219 0.058594 0.086902 18 19 17
0.078125 0.058594 0.087095 18 19 16
0.082031 0.058594 0.087346 17 18 16
0.085938 0.058594 0.087667 16 17 15
0.089844 0.058594 0.087983 16 16 15
0.093750 0.058594 0.088143 15 16 15
0.097656 0.058594 0.088224 15 15 15
0.101562 0.058594 0.088249 15 15 14
0.105469 0.058594 0.088219 15 15 14
0.109375 0.058594 0.088040 17 16 15
0.113281 0.058594 0.087748 18 17 16
0.117188 0.058594 0.087361 17 16 16
0.121094 0.058594 0.086842 17 15 16
0.125000 0.058594 0.086278 17 15 16
0.128906 0.058594 0.085498 18 16 16
0.132812 0.058594 0.084385 18 16 17
0.136719 0.058594 0.083102 18 15 16
0.140625 0.058594 0.081721 18 16 16
0.144531 0.058594 0.080184 20 17 17
0.148438 0.058594 0.078391 21 19 18
0.152344 0.058594 0.076435 22 19 19
0.156250 0.058594 0.074385 22 20 19
0.160156 0.058594 0.071768 22 20 19
0.164062 0.058594 0.068437 21 20 18
0.167969 0.058594 0.064922 22 20 19
0.171875 0.058594 0.061220 23 20 20
0.175781 0.058594 0.057148 27 22 23
0.179688 0.058594 0.052874 29 24 25
0.183594 0.058594 0.048144 26 23 22
0.187500 0.058594 0.042793 25 24 22
0.191406 0.058594 0.035618 22 22 19
0.195312 0.058594 0.028040 24 25 19
0.199219 0.058594 0.016584 27 26 19
0.203125 0.058594 -0.010569 25 21 15
0.207031 0.058594 -0.014355 50 37 25
0.210938 0.058594 -0.008682 67 49 35
0.214844 0.058594 -0.004870 85 56 42
0.218750 0.058594 -0.001977 159 103 75
0.222656 0.058594 -0.001464 206 141 107
0.226562 0.058594 -0.002695 224 160 121
0.230469 0.058594 -0.004191 232 168 127
0.234375 0.058594 -0.006339 234 171 131
0.238281 0.058594 -0.010250 232 178 139
0.242188 0.058594 -0.019359 225 186 150
-0.234375 0.054688 0.029281 211 172 142
-0.230469 0.054688 0.050064 215 165 125
-0.226562 0.054688 0.056651 197 141 102
-0.222656 0.054688 0.060661 167 110 80
-0.218750 0.054688 0.062476 164 108 80
-0.214844 0.054688 0.063171 118 72 54
-0.210938 0.054688 0.061307 102 68 56
-0.207031 0.054688 0.053620 98 75 70
0.003906 0.054688 0.076099 1 0 2
0.007812 0.054688 0.077290 6 5 8
0.011719 0.054688 0.078986 20 20 19
0.015625 0.054688 0.080145 15 15 14
0.019531 0.054688 0.080847 16 15 14
0.023438 0.054688 0.080771 17 18 15
0.027344 0.054688 0.080424 17 18 15
0.031250 0.054688 0.080496 19 20 16
0.035156 0.054688 0.080723 19 20 17
0.039062 0.054688 0.081367 19 19 17
0.042969 0.054688 0.082078 19 19 17
0.046875 0.054688 0.082885 18 18 16
0.050781 0.054688 0.083615 18 18 16
0.054688 0.054688 0.084256 19 19 17
0.058594 0.054688 0.084821 19 19 17
0.062500 0.054688 0.085365 19 19 17
0.066406 0.054688 0.085805 19 19 17
0.070312 0.054688 0.086162 19 19 17
0.074219 0.054688 0.086502 19 20 17
0.078125 0.054688 0.086752 19 20 17
0.082031 0.054688 0.087074 19 19 17
0.085938 0.054688 0.087463 18 19 16
0.089844 0.054688 0.087841 17 18 16
0.093750 0.054688 0.088084 16 17 16
0.097656 0.054688 0.088286 17 17 16
0.101562 0.054688 0.088452 18 17 16
0.105469 0.054688 0.088567 18 18 16
0.109375 0.054688 0.088476 21 19 18
0.113281 0.054688 0.088257 21 19 18
0.117188 0.054688 0.087956 20 19 18
0.121094 0.054688 0.087496 20 19 18
0.125000 0.054688 0.086972 21 19 18
0.128906 0.054688 0.086227 22 20 19
0.132812 0.054688 0.085135 22 20 19
0.136719 0.054688 0.083882 21 19 18
0.140625 0.054688 0.082517 21 19 18
0.144531 0.054688 0.080970 21 19 18
0.148438 0.054688 0.079151 23 21 20
0.152344 0.054688 0.077154 24 21 21
0.156250 0.054688 0.075108 24 22 21
0.160156 0.054688 0.072522 23 22 20
0.164062 0.054688 0.069230 21 20 19
0.167969 0.054688 0.065690 21 20 19
0.171875 0.054688 0.061884 21 19 19
0.175781 0.054688 0.057838 25 20 21
0.179688 0.054688 0.053743 27 22 23
0.183594 0.054688 0.049222 24 22 22
0.187500 0.054688 0.044025 25 25 23
0.191406 0.054688 0.037192 24 24 21
0.195312 0.054688 0.029939 25 26 20
0.199219 0.054688 0.019002 28 27 19
0.203125 0.054688 -0.007757 26 21 15
0.207031 0.054688 -0.014094 46 33 22
0.210938 0.054688 -0.007821 60 43 31
0.214844 0.054688 -0.003819 82 55 41
0.218750 0.054688 -0.000965 156 102 75
0.222656 0.054688 -0.000515 205 141 107
0.226562 0.054688 -0.001745 224 162 123
0.230469 0.054688 -0.003236 232 169 128
0.234375 0.054688 -0.005329 234 170 129
0.238281 0.054688 -0.009123 233 179 137
0.242188 0.054688 -0.017750 226 187 147
-0.238281 0.050781 0.000882 227 206 181
-0.234375 0.050781 0.035958 212 170 137
-0.230469 0.050781 0.050953 207 153 114
-0.226562 0.050781 0.057926 195 138 101
-0.222656 0.050781 0.061028 166 112 82
-0.218750 0.050781 0.062498 165 110 83
-0.214844 0.050781 0.063375 120 75 57
-0.210938 0.050781 0.061111 103 69 57
-0.207031 0.050781 0.052835 99 72 71
0.003906 0.050781 0.074877 1 1 2
0.007812 0.050781 0.076009 10 8 10
0.011719 0.050781 0.077544 31 29 25
0.015625 0.050781 0.078610 21 20 17
0.019531 0.050781 0.079240 18 17 14
0.023438 0.050781 0.079257 17 17 14
0.027344 0.050781 0.078939 15 15 13
0.031250 0.050781 0.078718 16 16 14
0.035156 0.050781 0.078995 16 16 14
0.039062 0.050781 0.079648 16 16 14
0.042969 0.050781 0.080321 16 16 15
0.046875 0.050781 0.081120 16 15 14
0.050781 0.050781 0.081871 16 15 14
0.054688 0.050781 0.082582 16 16 14
0.058594 0.050781 0.083296 17 16 15
0.062500 0.050781 0.083996 18 17 15
0.066406 0.050781 0.084558 18 17 16
0.070312 0.050781 0.085031 18 18 16
0.074219 0.050781 0.085499 19 19 16
0.078125 0.050781 0.085887 19 19 17
0.082031 0.050781 0.086345 19 19 17
0.085938 0.050781 0.086860 19 19 17
0.089844 0.050781 0.087313 18 19 17
0.093750 0.050781 0.087612 18 18 16
0.097656 0.050781 0.087888 18 18 16
0.101562 0.050781 0.088083 18 18 16
0.105469 0.050781 0.088179 19 18 16
0.109375 0.050781 0.088090 20 19 17
0.113281 0.050781 0.087905 21 19 17
0.117188 0.050781 0.087636 20 19 17
0.121094 0.050781 0.087205 20 18 17
0.125000 0.050781 0.086691 19 18 17
0.128906 0.050781 0.085958 19 18 17
0.132812 0.050781 0.084877 18 17 16
0.136719 0.050781 0.083637 17 16 16
0.140625 0.050781 0.082293 17 15 15
0.144531 0.050781 0.080741 18 16 16
0.148438 0.050781 0.078955 20 18 18
0.152344 0.050781 0.077024 21 19 19
0.156250 0.050781 0.075039 22 21 20
0.160156 0.050781 0.072520 23 22 20
0.164062 0.050781 0.069294 22 22 20
0.167969 0.050781 0.065853 24 22 20
0.171875 0.050781 0.062130 24 21 21
0.175781 0.050781 0.058221 27 22 22
0.179688 0.050781 0.054148 28 23 23
0.183594 0.050781 0.049603 25 22 22
0.187500 0.050781 0.044629 25 25 23
0.191406 0.050781 0.038301 23 24 21
0.195312 0.050781 0.031269 22 23 19
0.199219 0.050781 0.021113 24 24 17
0.203125 0.050781 -0.003507 22 19 13
0.207031 0.050781 -0.013980 38 28 18
0.210938 0.050781 -0.007309 57 40 28
0.214844 0.050781 -0.003017 85 56 42
0.218750 0.050781 -0.000100 154 101 74
0.222656 0.050781 0.000351 201 137 104
0.226562 0.050781 -0.000834 223 159 121
0.230469 0.050781 -0.002352 231 167 125
0.234375 0.050781 -0.004420 234 169 127
0.238281 0.050781 -0.008199 234 181 140
0.242188 0.050781 -0.015806 228 189 149
-0.238281 0.046875 0.005995 226 202 171
-0.234375 0.046875 0.040880 211 162 126
-0.230469 0.046875 0.052422 200 139 101
-0.226562 0.046875 0.058981 192 135 99
-0.222656 0.046875 0.061250 167 114 85
-0.218750 0.046875 0.062474 162 108 83
-0.214844 0.046875 0.063435 124 79 61
-0.210938 0.046875 0.060445 106 72 61
-0.207031 0.046875 0.051212 96 68 70
0.003906 0.046875 0.073556 4 3 5
0.007812 0.046875 0.074529 12 10 11
0.011719 0.046875 0.075780 29 27 23
0.015625 0.046875 0.076683 22 20 17
0.019531 0.046875 0.077199 18 17 14
0.023438 0.046875 0.077239 16 16 14
0.027344 0.046875 0.077127 14 14 12
0.031250 0.046875 0.076808 15 15 13
0.035156 0.046875 0.076942 15 15 13
0.039062 0.046875 0.077659 16 15 14
0.042969 0.046875 0.078396 16 16 14
0.046875 0.046875 0.079222 16 15 14
0.050781 0.046875 0.080035 16 15 14
0.054688 0.046875 0.080832 17 16 14
0.058594 0.046875 0.081650 17 16 15
0.062500 0.046875 0.082477 17 17 15
0.066406 0.046875 0.083183 18 17 15
0.070312 0.046875 0.083820 18 17 16
0.074219 0.046875 0.084468 18 18 16
0.078125 0.046875 0.084999 18 18 16
0.082031 0.046875 0.085520 18 18 16
0.085938 0.046875 0.086049 17 18 15
0.089844 0.046875 0.086521 17 17 15
0.093750 0.046875 0.086832 17 17 15
0.097656 0.046875 0.087130 17 17 15
0.101562 0.046875 0.087361 17 17 15
0.105469 0.046875 0.087477 17 17 15
0.109375 0.046875 0.087419 18 17 16
0.113281 0.046875 0.087265 18 17 16
0.117188 0.046875 0.087013 18 17 16
0.121094 0.046875 0.086602 18 17 16
0.125000 0.046875 0.086095 18 17 16
0.128906 0.046875 0.085367 18 17 16
0.132812 0.046875 0.084293 17 16 16
0.136719 0.046875 0.083069 17 16 16
0.140625 0.046875 0.081756 18 16 16
0.144531 0.046875 0.080240 19 17 16
0.148438 0.046875 0.078503 20 18 18
0.152344 0.046875 0.076623 21 19 19
0.156250 0.046875 0.074698 21 20 20
0.160156 0.046875 0.072245 22 21 20
0.164062 0.046875 0.069091 21 21 19
0.167969 0.046875 0.065725 22 21 20
0.171875 0.046875 0.062056 23 20 20
0.175781 0.046875 0.058209 25 21 21
0.179688 0.046875 0.054140 26 21 21
0.183594 0.046875 0.049603 24 21 21
0.187500 0.046875 0.044770 26 24 23
0.191406 0.046875 0.038746 23 23 20
0.195312 0.046875 0.032109 21 22 18
0.199219 0.046875 0.022718 23 23 17
0.203125 0.046875 0.001251 20 18 13
0.207031 0.046875 -0.013727 32 24 16
0.210938 0.046875 -0.006746 52 37 26
0.214844 0.046875 -0.002291 81 56 42
0.218750 0.046875 0.000629 144 96 72
0.222656 0.046875 0.001022 195 131 103
0.226562 0.046875 -0.000124 221 155 121
0.230469 0.046875 -0.001502 230 165 126
0.234375 0.046875 -0.003475 235 170 130
0.238281 0.046875 -0.007229 236 183 147
0.242188 0.046875 -0.014137 227 184 150
-0.238281 0.042969 0.017696 216 182 148
-0.234375 0.042969 0.045435 212 159 120
-0.230469 0.042969 0.054181 200 138 99
-0.226562 0.042969 0.059631 194 137 102
-0.222656 0.042969 0.061535 172 119 91
-0.218750 0.042969 0.062590 162 110 85
-0.214844 0.042969 0.063418 133 88 69
-0.210938 0.042969 0.059762 107 73 62
-0.207031 0.042969 0.049526 81 56 61
0.003906 0.042969 0.072281 5 4 6
0.007812 0.042969 0.073050 12 10 11
0.011719 0.042969 0.074010 26 24 21
0.015625 0.042969 0.074739 21 20 17
0.019531 0.042969 0.075130 17 16 14
0.023438 0.042969 0.075084 16 15 14
0.027344 0.042969 0.074963 14 14 13
0.031250 0.042969 0.074799 15 15 13
0.035156 0.042969 0.074825 14 15 13
0.039062 0.042969 0.075407 15 15 14
0.042969 0.042969 0.076218 16 16 14
0.046875 0.042969 0.077128 16 15 14
0.050781 0.042969 0.078056 16 15 14
0.054688 0.042969 0.078973 16 16 14
0.058594 0.042969 0.079908 16 16 14
0.062500 0.042969 0.080914 16 15 14
0.066406 0.042969 0.081799 16 15 14
0.070312 0.042969 0.082547 16 15 14
0.074219 0.042969 0.083249 16 15 14
0.078125 0.042969 0.083866 16 15 14
0.082031 0.042969 0.084471 15 15 14
0.085938 0.042969 0.085095 16 16 14
0.089844 0.042969 0.085680 16 16 14
0.093750 0.042969 0.086073 17 17 15
0.097656 0.042969 0.086432 17 18 15
0.101562 0.042969 0.086731 18 18 16
0.105469 0.042969 0.086913 18 18 16
0.109375 0.042969 0.086899 19 18 16
0.113281 0.042969 0.086773 19 18 16
0.117188 0.042969 0.086535 19 18 16
0.121094 0.042969 0.086134 20 19 17
0.125000 0.042969 0.085636 20 19 18
0.128906 0.042969 0.084908 20 19 18
0.132812 0.042969 0.083833 20 19 18
0.136719 0.042969 0.082623 20 19 18
0.140625 0.042969 0.081332 21 19 18
0.144531 0.042969 0.079847 21 19 18
0.148438 0.042969 0.078140 21 20 19
0.152344 0.042969 0.076273 21 20 19
0.156250 0.042969 0.074355 21 20 20
0.160156 0.042969 0.071924 21 20 19
0.164062 0.042969 0.068826 20 20 19
0.167969 0.042969 0.065515 21 20 19
0.171875 0.042969 0.061907 22 19 19
0.175781 0.042969 0.058108 24 20 20
0.179688 0.042969 0.054033 26 21 20
0.183594 0.042969 0.049542 26 22 21
0.187500 0.042969 0.044890 27 25 23
0.191406 0.042969 0.038995 21 22 19
0.195312 0.042969 0.032538 21 23 19
0.199219 0.042969 0.024102 27 28 21
0.203125 0.042969 0.006218 22 21 15
0.207031 0.042969 -0.013060 30 24 17
0.210938 0.042969 -0.006483 45 35 26
0.214844 0.042969 -0.001579 72 54 41
0.218750 0.042969 0.001251 136 98 74
0.222656 0.042969 0.001664 194 141 110
0.226562 0.042969 0.000485 223 170 132
0.230469 0.042969 -0.000723 232 177 132
0.234375 0.042969 -0.002616 235 176 130
0.238281 0.042969 -0.006221 232 177 139
0.242188 0.042969 -0.012714 206 160 129
-0.238281 0.039062 0.029002 211 171 135
-0.234375 0.039062 0.049214 211 156 116
-0.230469 0.039062 0.055970 200 138 100
-0.226562 0.039062 0.060040 195 139 104
-0.222656 0.039062 0.061740 176 123 95
-0.218750 0.039062 0.063105 166 114 90
-0.214844 0.039062 0.063833 145 100 80
-0.210938 0.039062 0.059513 110 75 66
-0.207031 0.039062 0.047729 68 47 54
0.000000 0.039062 0.070957 2 1 3
0.003906 0.039062 0.070912 7 6 6
0.007812 0.039062 0.071479 17 15 14
0.011719 0.039062 0.072237 30 27 24
0.015625 0.039062 0.072754 22 21 18
0.019531 0.039062 0.072951 17 16 14
0.023438 0.039062 0.072839 15 15 13
0.027344 0.039062 0.072693 14 14 13
0.031250 0.039062 0.072616 15 15 13
0.035156 0.039062 0.072836 14 14 13
0.039062 0.039062 0.073490 15 15 13
0.042969 0.039062 0.074305 15 15 14
0.046875 0.039062 0.075255 15 15 13
0.050781 0.039062 0.076293 15 15 13
0.054688 0.039062 0.077352 15 14 13
0.058594 0.039062 0.078414 15 14 12
0.062500 0.039062 0.079485 14 14 12
0.066406 0.039062 0.080440 14 14 12
0.070312 0.039062 0.081289 14 14 12
0.074219 0.039062 0.082100 14 14 13
0.078125 0.039062 0.082849 14 14 13
0.082031 0.039062 0.083573 14 14 13
0.085938 0.039062 0.084299 15 15 13
0.089844 0.039062 0.084968 15 15 14
0.093750 0.039062 0.085442 16 16 14
0.097656 0.039062 0.085875 16 16 14
0.101562 0.039062 0.086235 16 16 15
0.105469 0.039062 0.086469 17 16 15
0.109375 0.039062 0.086487 17 16 15
0.113281 0.039062 0.086388 17 16 15
0.117188 0.039062 0.086169 18 16 15
0.121094 0.039062 0.085780 18 17 16
0.125000 0.039062 0.085290 19 18 17
0.128906 0.039062 0.084560 19 18 17
0.132812 0.039062 0.083481 19 18 17
0.136719 0.039062 0.082272 20 18 17
0.140625 0.039062 0.080984 20 19 18
0.144531 0.039062 0.079505 20 19 18
0.148438 0.039062 0.077817 21 19 19
0.152344 0.039062 0.075973 21 20 19
0.156250 0.039062 0.074065 21 20 20
0.160156 0.039062 0.071659 20 20 20
0.164062 0.039062 0.068630 20 20 20
0.167969 0.039062 0.065382 21 20 20
0.171875 0.039062 0.061851 23 20 19
0.175781 0.039062 0.058121 25 20 20
0.179688 0.039062 0.054064 26 21 20
0.183594 0.039062 0.049638 27 23 21
0.187500 0.039062 0.045234 27 25 22
0.191406 0.039062 0.039593 19 20 18
0.195312 0.039062 0.033226 21 22 19
0.199219 0.039062 0.025236 27 29 22
0.203125 0.039062 0.009521 23 22 18
0.207031 0.039062 -0.011293 31 27 21
0.210938 0.039062 -0.006116 45 37 29
0.214844 0.039062 -0.000783 72 55 44
0.218750 0.039062 0.002075 141 105 78
0.222656 0.039062 0.002565 198 149 114
0.226562 0.039062 0.001310 225 177 137
0.230469 0.039062 -0.000082 232 180 136
0.234375 0.039062 -0.002268 229 171 125
0.238281 0.039062 -0.005469 225 172 135
0.242188 0.039062 -0.011096 221 189 163
-0.242188 0.035156 0.004222 163 132 124
-0.238281 0.035156 0.038483 218 179 140
-0.234375 0.035156 0.051656 211 155 113
-0.230469 0.035156 0.057422 200 138 100
-0.226562 0.035156 0.060433 194 137 103
-0.222656 0.035156 0.062297 178 123 97
-0.218750 0.035156 0.064260 172 120 97
-0.214844 0.035156 0.064879 159 113 92
-0.210938 0.035156 0.059957 122 86 76
-0.207031 0.035156 0.047328 71 49 58
-0.003906 0.035156 0.070799 9 7 8
