ply
    format ascii 1.0
    element vertex 74056
    property float x
    property float y
    property float z
    property uchar red
    property uchar green
    property uchar blue
    end_header
0.218750 0.324219 -0.124823 196 144 113
0.222656 0.324219 -0.124596 202 153 114
0.226562 0.324219 -0.123434 208 158 117
0.230469 0.324219 -0.122654 212 160 120
0.234375 0.324219 -0.121739 217 164 124
0.238281 0.324219 -0.120523 220 168 127
0.242188 0.324219 -0.117818 224 172 129
0.246094 0.324219 -0.114872 226 173 131
0.250000 0.324219 -0.112193 225 169 126
0.253906 0.324219 -0.107400 218 160 120
0.257812 0.324219 -0.099699 207 154 120
-0.187500 0.320312 -0.019400 174 118 93
-0.183594 0.320312 -0.027343 187 130 98
-0.179688 0.320312 -0.033849 192 125 91
-0.175781 0.320312 -0.038740 212 143 103
-0.171875 0.320312 -0.042634 218 149 107
-0.167969 0.320312 -0.045437 222 154 111
-0.164062 0.320312 -0.047930 225 159 115
-0.160156 0.320312 -0.050302 226 160 117
-0.156250 0.320312 -0.052433 227 163 119
-0.152344 0.320312 -0.053734 228 165 121
-0.148438 0.320312 -0.054446 228 167 123
-0.144531 0.320312 -0.055199 228 168 126
-0.140625 0.320312 -0.055582 225 167 126
-0.136719 0.320312 -0.055663 220 161 123
-0.132812 0.320312 -0.055381 209 147 113
-0.128906 0.320312 -0.054933 191 131 104
-0.125000 0.320312 -0.053848 170 116 94
-0.121094 0.320312 -0.051704 138 101 85
-0.117188 0.320312 -0.049062 108 86 76
-0.113281 0.320312 -0.045297 86 76 66
-0.109375 0.320312 -0.041500 177 175 164
-0.105469 0.320312 -0.035020 214 196 194
-0.101562 0.320312 -0.027511 124 104 103
-0.097656 0.320312 -0.027758 148 127 126
-0.093750 0.320312 -0.034149 157 137 136
-0.089844 0.320312 -0.045182 157 142 139
-0.085938 0.320312 -0.057521 167 156 154
-0.082031 0.320312 -0.067326 160 155 152
-0.078125 0.320312 -0.075160 110 109 107
-0.074219 0.320312 -0.081336 117 119 116
-0.070312 0.320312 -0.086201 158 162 161
-0.066406 0.320312 -0.090834 162 168 194
-0.062500 0.320312 -0.095249 165 171 194
-0.058594 0.320312 -0.098832 174 182 205
-0.054688 0.320312 -0.101777 169 177 198
-0.050781 0.320312 -0.104420 139 150 168
-0.046875 0.320312 -0.106506 123 136 152
-0.042969 0.320312 -0.108048 133 149 164
-0.039062 0.320312 -0.108933 149 165 180
-0.035156 0.320312 -0.109522 149 165 180
-0.031250 0.320312 -0.109784 155 171 187
-0.027344 0.320312 -0.109770 162 175 194
-0.023438 0.320312 -0.109540 162 173 195
-0.019531 0.320312 -0.109113 163 170 196
-0.015625 0.320312 -0.108542 164 171 200
-0.011719 0.320312 -0.107577 164 169 201
-0.007812 0.320312 -0.106336 161 166 198
-0.003906 0.320312 -0.105036 165 185 209
0.000000 0.320312 -0.103686 158 178 202
0.003906 0.320312 -0.102341 130 148 172
0.007812 0.320312 -0.101090 106 124 148
0.011719 0.320312 -0.099917 144 160 183
0.015625 0.320312 -0.098895 157 172 193
0.019531 0.320312 -0.098041 157 170 189
0.023438 0.320312 -0.097437 156 165 182
0.027344 0.320312 -0.096918 103 109 123
0.031250 0.320312 -0.096578 94 96 108
0.035156 0.320312 -0.096446 124 123 131
0.039062 0.320312 -0.096537 123 118 122
0.042969 0.320312 -0.096766 102 93 94
0.046875 0.320312 -0.097099 119 107 107
0.050781 0.320312 -0.097694 129 115 112
0.054688 0.320312 -0.098439 121 106 103
0.058594 0.320312 -0.099326 135 144 153
0.062500 0.320312 -0.100265 132 139 149
0.066406 0.320312 -0.101325 96 100 109
0.070312 0.320312 -0.102407 94 97 106
0.074219 0.320312 -0.103582 67 65 73
0.078125 0.320312 -0.104742 118 115 124
0.082031 0.320312 -0.105954 122 117 124
0.085938 0.320312 -0.107133 72 66 76
0.089844 0.320312 -0.108225 73 70 79
0.093750 0.320312 -0.109205 130 128 139
0.097656 0.320312 -0.109965 168 170 183
0.101562 0.320312 -0.110545 165 172 188
0.105469 0.320312 -0.110962 158 170 186
0.109375 0.320312 -0.111216 151 166 185
0.113281 0.320312 -0.111237 149 167 186
0.117188 0.320312 -0.111062 153 174 193
0.121094 0.320312 -0.110702 164 170 186
0.125000 0.320312 -0.110153 160 167 183
0.128906 0.320312 -0.109398 126 133 149
0.132812 0.320312 -0.108419 131 138 156
0.136719 0.320312 -0.107341 142 151 168
0.140625 0.320312 -0.106128 135 144 161
0.144531 0.320312 -0.104116 123 132 149
0.148438 0.320312 -0.101588 79 88 105
0.152344 0.320312 -0.098188 137 144 160
0.156250 0.320312 -0.094012 156 162 176
0.160156 0.320312 -0.089789 109 113 125
0.164062 0.320312 -0.085522 103 105 117
0.167969 0.320312 -0.079827 160 160 170
0.171875 0.320312 -0.073863 159 156 165
0.175781 0.320312 -0.070273 131 128 135
0.179688 0.320312 -0.065447 143 138 144
0.183594 0.320312 -0.096384 104 102 115
0.187500 0.320312 -0.111338 116 110 124
0.191406 0.320312 -0.116109 146 138 150
0.195312 0.320312 -0.117924 167 157 167
0.199219 0.320312 -0.120332 126 118 122
0.203125 0.320312 -0.122704 102 103 87
0.207031 0.320312 -0.124173 145 123 105
0.210938 0.320312 -0.124958 181 139 123
0.214844 0.320312 -0.124757 195 147 119
0.218750 0.320312 -0.124664 196 144 113
0.222656 0.320312 -0.124544 201 152 113
0.226562 0.320312 -0.123438 207 157 117
0.230469 0.320312 -0.122733 212 160 121
0.234375 0.320312 -0.121884 217 164 125
0.238281 0.320312 -0.120731 221 169 128
0.242188 0.320312 -0.118105 224 173 131
0.246094 0.320312 -0.115346 227 175 133
0.250000 0.320312 -0.112492 226 172 129
0.253906 0.320312 -0.107923 219 163 123
0.257812 0.320312 -0.101755 208 157 120
-0.187500 0.316406 -0.019665 195 142 109
-0.183594 0.316406 -0.027894 198 139 103
-0.179688 0.316406 -0.034209 199 130 94
-0.175781 0.316406 -0.038806 214 146 105
-0.171875 0.316406 -0.042555 220 152 109
-0.167969 0.316406 -0.045310 223 156 113
-0.164062 0.316406 -0.047716 226 161 117
-0.160156 0.316406 -0.050013 226 162 118
-0.156250 0.316406 -0.052057 228 165 121
-0.152344 0.316406 -0.053320 228 166 122
-0.148438 0.316406 -0.054012 228 167 124
-0.144531 0.316406 -0.054724 228 168 126
-0.140625 0.316406 -0.055067 225 167 126
-0.136719 0.316406 -0.055090 220 160 122
-0.132812 0.316406 -0.054683 209 146 112
-0.128906 0.316406 -0.054098 191 130 103
-0.125000 0.316406 -0.052856 169 115 94
-0.121094 0.316406 -0.050520 139 102 86
-0.117188 0.316406 -0.047600 109 86 76
-0.113281 0.316406 -0.043543 86 75 66
-0.109375 0.316406 -0.039804 178 175 163
-0.105469 0.316406 -0.031702 218 201 196
-0.101562 0.316406 -0.022414 120 99 94
-0.097656 0.316406 -0.023834 114 93 88
-0.093750 0.316406 -0.031436 135 114 109
-0.089844 0.316406 -0.043433 146 128 124
-0.085938 0.316406 -0.056240 154 141 135
-0.082031 0.316406 -0.066468 134 125 120
-0.078125 0.316406 -0.074508 102 99 94
-0.074219 0.316406 -0.080678 87 88 82
-0.070312 0.316406 -0.085541 143 146 139
-0.066406 0.316406 -0.090194 170 176 201
-0.062500 0.316406 -0.094628 173 179 203
-0.058594 0.316406 -0.098206 178 186 207
-0.054688 0.316406 -0.101136 177 185 204
-0.050781 0.316406 -0.103792 154 165 183
-0.046875 0.316406 -0.105888 119 132 148
-0.042969 0.316406 -0.107452 114 130 143
-0.039062 0.316406 -0.108350 139 155 168
-0.035156 0.316406 -0.108967 155 171 184
-0.031250 0.316406 -0.109259 155 171 186
-0.027344 0.316406 -0.109263 159 172 189
-0.023438 0.316406 -0.109043 163 174 196
-0.019531 0.316406 -0.108625 163 170 196
-0.015625 0.316406 -0.108061 158 165 193
-0.011719 0.316406 -0.107085 158 163 193
-0.007812 0.316406 -0.105833 161 166 198
-0.003906 0.316406 -0.104510 158 178 202
0.000000 0.316406 -0.103121 149 169 193
0.003906 0.316406 -0.101748 134 154 178
0.007812 0.316406 -0.100472 112 132 156
0.011719 0.316406 -0.099264 141 161 185
0.015625 0.316406 -0.098214 146 166 190
0.019531 0.316406 -0.097332 160 178 200
0.023438 0.316406 -0.096716 164 179 198
0.027344 0.316406 -0.096209 131 143 159
0.031250 0.316406 -0.095894 57 63 75
0.035156 0.316406 -0.095787 95 95 103
0.039062 0.316406 -0.095900 142 137 141
0.042969 0.316406 -0.096144 124 114 113
0.046875 0.316406 -0.096511 141 127 124
0.050781 0.316406 -0.097155 160 143 136
0.054688 0.316406 -0.097934 136 117 110
0.058594 0.316406 -0.098843 79 88 95
0.062500 0.316406 -0.099806 115 122 130
0.066406 0.316406 -0.100904 142 147 153
0.070312 0.316406 -0.102011 135 138 145
0.074219 0.316406 -0.103180 132 131 137
0.078125 0.316406 -0.104328 178 175 182
0.082031 0.316406 -0.105551 204 199 206
0.085938 0.316406 -0.106740 136 130 140
0.089844 0.316406 -0.107830 119 116 127
0.093750 0.316406 -0.108811 156 156 168
0.097656 0.316406 -0.109579 171 174 188
0.101562 0.316406 -0.110151 163 172 189
0.105469 0.316406 -0.110566 157 170 189
0.109375 0.316406 -0.110824 143 160 182
0.113281 0.316406 -0.110845 133 153 177
0.117188 0.316406 -0.110669 142 164 188
0.121094 0.316406 -0.110301 151 157 173
0.125000 0.316406 -0.109730 170 177 193
0.128906 0.316406 -0.108923 161 168 186
0.132812 0.316406 -0.107877 146 153 171
0.136719 0.316406 -0.106709 159 167 186
0.140625 0.316406 -0.105399 169 177 196
0.144531 0.316406 -0.103289 138 146 165
0.148438 0.316406 -0.100627 89 97 116
0.152344 0.316406 -0.097097 130 137 155
0.156250 0.316406 -0.092895 181 187 203
0.160156 0.316406 -0.088689 171 174 189
0.164062 0.316406 -0.084439 124 126 139
0.167969 0.316406 -0.078784 130 130 140
0.171875 0.316406 -0.073081 126 123 132
0.175781 0.316406 -0.069150 104 101 108
0.179688 0.316406 -0.064082 135 130 137
0.183594 0.316406 -0.085438 76 75 91
0.187500 0.316406 -0.110399 108 104 121
0.191406 0.316406 -0.114277 145 138 154
0.195312 0.316406 -0.117094 165 159 172
0.199219 0.316406 -0.119818 135 128 137
0.203125 0.316406 -0.122077 108 108 97
0.207031 0.316406 -0.123804 143 122 106
0.210938 0.316406 -0.124612 183 142 128
0.214844 0.316406 -0.124485 197 150 123
0.218750 0.316406 -0.124463 196 145 114
0.222656 0.316406 -0.124452 201 151 113
0.226562 0.316406 -0.123414 207 156 117
0.230469 0.316406 -0.122803 211 160 121
0.234375 0.316406 -0.122004 216 164 125
0.238281 0.316406 -0.120862 221 169 128
0.242188 0.316406 -0.118379 225 173 132
0.246094 0.316406 -0.115855 228 177 135
0.250000 0.316406 -0.112907 228 175 132
0.253906 0.316406 -0.108516 221 166 125
0.257812 0.316406 -0.103697 205 154 115
-0.187500 0.312500 -0.021335 164 110 88
-0.183594 0.312500 -0.028784 197 135 98
-0.179688 0.312500 -0.034401 203 133 95
-0.175781 0.312500 -0.038856 217 149 107
-0.171875 0.312500 -0.042571 222 155 112
-0.167969 0.312500 -0.045256 224 158 115
-0.164062 0.312500 -0.047541 226 162 118
-0.160156 0.312500 -0.049752 227 163 119
-0.156250 0.312500 -0.051698 228 166 122
-0.152344 0.312500 -0.052918 229 167 123
-0.148438 0.312500 -0.053584 229 168 125
-0.144531 0.312500 -0.054254 228 168 126
-0.140625 0.312500 -0.054557 225 166 126
-0.136719 0.312500 -0.054519 220 159 121
-0.132812 0.312500 -0.053956 209 145 112
-0.128906 0.312500 -0.053215 191 129 103
-0.125000 0.312500 -0.051830 169 114 94
-0.121094 0.312500 -0.049306 141 103 87
-0.117188 0.312500 -0.046122 112 89 79
-0.113281 0.312500 -0.041787 90 79 70
-0.109375 0.312500 -0.036464 180 175 162
-0.097656 0.312500 -0.019571 112 88 84
-0.093750 0.312500 -0.028916 116 95 90
-0.089844 0.312500 -0.041558 113 94 88
-0.085938 0.312500 -0.054891 140 125 118
-0.082031 0.312500 -0.065547 133 124 117
-0.078125 0.312500 -0.073838 134 129 123
-0.074219 0.312500 -0.080027 78 78 70
-0.070312 0.312500 -0.084921 121 122 114
-0.066406 0.312500 -0.089601 156 162 186
-0.062500 0.312500 -0.094052 163 169 193
-0.058594 0.312500 -0.097616 167 175 196
-0.054688 0.312500 -0.100518 177 185 204
-0.050781 0.312500 -0.103172 167 179 195
-0.046875 0.312500 -0.105263 129 143 156
-0.042969 0.312500 -0.106842 120 136 149
-0.039062 0.312500 -0.107761 157 173 186
-0.035156 0.312500 -0.108412 165 181 194
-0.031250 0.312500 -0.108734 159 175 190
-0.027344 0.312500 -0.108768 160 173 190
-0.023438 0.312500 -0.108576 165 176 196
-0.019531 0.312500 -0.108175 164 171 197
-0.015625 0.312500 -0.107630 155 162 190
-0.011719 0.312500 -0.106661 157 162 192
-0.007812 0.312500 -0.105403 164 169 201
-0.003906 0.312500 -0.104066 148 168 192
0.000000 0.312500 -0.102648 144 164 188
0.003906 0.312500 -0.101247 161 183 206
0.007812 0.312500 -0.099943 153 175 199
0.011719 0.312500 -0.098700 163 185 209
0.015625 0.312500 -0.097623 150 172 196
0.019531 0.312500 -0.096724 159 179 203
0.023438 0.312500 -0.096095 149 167 187
0.027344 0.312500 -0.095579 154 167 184
0.031250 0.312500 -0.095281 100 108 121
0.035156 0.312500 -0.095203 83 86 95
0.039062 0.312500 -0.095339 133 128 132
0.042969 0.312500 -0.095607 168 158 157
0.046875 0.312500 -0.096011 113 98 93
0.050781 0.312500 -0.096681 78 60 50
0.054688 0.312500 -0.097482 151 129 118
0.058594 0.312500 -0.098424 110 119 126
0.062500 0.312500 -0.099392 110 117 123
0.066406 0.312500 -0.100497 170 175 181
0.070312 0.312500 -0.101634 171 174 179
0.074219 0.312500 -0.102820 150 149 155
0.078125 0.312500 -0.103968 102 99 106
0.082031 0.312500 -0.105185 146 143 150
0.085938 0.312500 -0.106351 128 125 134
0.089844 0.312500 -0.107418 162 160 171
0.093750 0.312500 -0.108397 173 172 186
0.097656 0.312500 -0.109176 161 167 183
0.101562 0.312500 -0.109757 153 161 179
0.105469 0.312500 -0.110183 151 166 187
0.109375 0.312500 -0.110446 136 156 179
0.113281 0.312500 -0.110469 129 151 175
0.117188 0.312500 -0.110291 145 169 195
0.121094 0.312500 -0.109917 158 164 180
0.125000 0.312500 -0.109331 159 166 184
0.128906 0.312500 -0.108486 161 168 186
0.132812 0.312500 -0.107378 152 159 177
0.136719 0.312500 -0.106137 153 161 180
0.140625 0.312500 -0.104738 149 157 176
0.144531 0.312500 -0.102510 132 140 159
0.148438 0.312500 -0.099729 138 146 165
0.152344 0.312500 -0.096097 140 147 165
0.156250 0.312500 -0.091885 97 103 119
0.160156 0.312500 -0.087686 90 93 108
0.164062 0.312500 -0.083427 67 69 82
0.167969 0.312500 -0.077789 77 77 89
0.171875 0.312500 -0.072238 138 135 144
0.175781 0.312500 -0.068307 153 150 159
0.179688 0.312500 -0.064053 147 142 149
0.183594 0.312500 -0.072373 136 137 155
0.187500 0.312500 -0.109711 144 143 159
0.191406 0.312500 -0.112351 142 138 154
0.195312 0.312500 -0.116243 153 144 160
0.199219 0.312500 -0.119222 143 135 146
0.203125 0.312500 -0.121400 119 119 112
0.207031 0.312500 -0.123385 136 117 101
0.210938 0.312500 -0.124203 180 143 126
0.214844 0.312500 -0.124133 197 152 125
0.218750 0.312500 -0.124207 196 146 116
0.222656 0.312500 -0.124305 201 152 114
0.226562 0.312500 -0.123346 206 156 117
0.230469 0.312500 -0.122806 211 159 121
0.234375 0.312500 -0.122074 215 163 124
0.238281 0.312500 -0.120989 220 168 128
0.242188 0.312500 -0.118646 225 172 132
0.246094 0.312500 -0.116269 229 178 136
0.250000 0.312500 -0.113381 229 177 135
0.253906 0.312500 -0.109399 223 169 127
0.257812 0.312500 -0.104164 208 154 114
0.261719 0.312500 -0.094259 229 177 135
-0.187500 0.308594 -0.022740 174 118 93
-0.183594 0.308594 -0.029647 200 135 99
-0.179688 0.308594 -0.034667 208 137 99
-0.175781 0.308594 -0.038962 219 151 108
-0.171875 0.308594 -0.042599 223 157 113
-0.167969 0.308594 -0.045240 225 160 117
-0.164062 0.308594 -0.047422 227 163 120
-0.160156 0.308594 -0.049534 228 164 121
-0.156250 0.308594 -0.051363 229 167 124
-0.152344 0.308594 -0.052531 230 169 125
-0.148438 0.308594 -0.053166 229 169 127
-0.144531 0.308594 -0.053784 228 168 127
-0.140625 0.308594 -0.054021 225 165 126
-0.136719 0.308594 -0.053896 219 158 121
-0.132812 0.308594 -0.053162 208 144 111
-0.128906 0.308594 -0.052278 190 128 102
-0.125000 0.308594 -0.050686 169 114 93
-0.121094 0.308594 -0.048038 143 104 88
-0.117188 0.308594 -0.044193 114 91 81
-0.113281 0.308594 -0.039048 94 83 74
-0.109375 0.308594 -0.027140 185 183 173
-0.097656 0.308594 -0.013160 133 100 91
-0.093750 0.308594 -0.027269 118 80 69
-0.089844 0.308594 -0.039730 133 95 84
-0.085938 0.308594 -0.053637 150 116 106
-0.082031 0.308594 -0.064734 134 105 99
-0.078125 0.308594 -0.073252 114 95 91
-0.074219 0.308594 -0.079416 114 99 102
-0.070312 0.308594 -0.084321 109 100 105
-0.066406 0.308594 -0.089029 156 155 173
-0.062500 0.308594 -0.093515 169 170 187
-0.058594 0.308594 -0.097062 174 175 195
-0.054688 0.308594 -0.099933 168 169 189
-0.050781 0.308594 -0.102587 161 164 183
-0.046875 0.308594 -0.104671 152 154 175
-0.042969 0.308594 -0.106260 142 147 167
-0.039062 0.308594 -0.107203 140 145 167
-0.035156 0.308594 -0.107896 181 187 211
-0.031250 0.308594 -0.108246 156 164 187
-0.027344 0.308594 -0.108311 167 174 200
-0.023438 0.308594 -0.108152 171 181 206
-0.019531 0.308594 -0.107770 163 173 200
-0.015625 0.308594 -0.107246 163 173 200
-0.011719 0.308594 -0.106287 159 171 197
-0.007812 0.308594 -0.105025 161 172 200
-0.003906 0.308594 -0.103678 164 175 195
0.000000 0.308594 -0.102242 161 172 192
0.003906 0.308594 -0.100816 165 176 196
0.007812 0.308594 -0.099489 174 185 205
0.011719 0.308594 -0.098219 171 182 200
0.015625 0.308594 -0.097111 161 172 190
0.019531 0.308594 -0.096184 161 172 190
0.023438 0.308594 -0.095532 170 182 198
0.027344 0.308594 -0.095006 167 179 195
0.031250 0.308594 -0.094732 170 182 198
0.035156 0.308594 -0.094666 144 156 172
0.039062 0.308594 -0.094817 100 112 126
0.042969 0.308594 -0.095129 81 93 107
0.046875 0.308594 -0.095566 89 101 115
0.050781 0.308594 -0.096250 87 99 113
0.054688 0.308594 -0.097070 68 80 94
0.058594 0.308594 -0.098043 117 105 109
0.062500 0.308594 -0.099026 137 126 130
0.066406 0.308594 -0.100132 130 119 125
0.070312 0.308594 -0.101271 179 169 177
0.074219 0.308594 -0.102478 162 155 163
0.078125 0.308594 -0.103640 98 92 102
0.082031 0.308594 -0.104844 132 130 141
0.085938 0.308594 -0.105988 155 154 168
0.089844 0.308594 -0.107037 195 198 213
0.093750 0.308594 -0.108002 137 142 161
0.097656 0.308594 -0.108788 162 170 189
0.101562 0.308594 -0.109372 166 177 197
0.105469 0.308594 -0.109802 146 158 180
0.109375 0.308594 -0.110079 146 161 183
0.113281 0.308594 -0.110105 134 148 174
0.117188 0.308594 -0.109922 148 162 188
0.121094 0.308594 -0.109535 158 175 202
0.125000 0.308594 -0.108924 160 177 202
0.128906 0.308594 -0.108042 151 168 194
0.132812 0.308594 -0.106876 137 155 179
0.136719 0.308594 -0.105567 142 160 184
0.140625 0.308594 -0.104084 162 180 202
0.144531 0.308594 -0.101745 174 191 211
0.148438 0.308594 -0.098864 173 189 205
0.152344 0.308594 -0.095146 168 181 197
0.156250 0.308594 -0.090915 102 114 128
0.160156 0.308594 -0.086717 64 71 84
0.164062 0.308594 -0.082403 67 70 82
0.167969 0.308594 -0.076778 62 64 76
0.171875 0.308594 -0.071413 98 96 109
0.175781 0.308594 -0.067493 137 134 145
0.179688 0.308594 -0.063715 104 101 112
0.183594 0.308594 -0.062990 91 87 102
0.187500 0.308594 -0.106977 159 156 170
0.191406 0.308594 -0.110477 146 143 157
0.195312 0.308594 -0.115209 124 123 136
0.199219 0.308594 -0.118382 140 143 152
0.203125 0.308594 -0.120400 114 120 114
0.207031 0.308594 -0.122786 131 114 99
0.210938 0.308594 -0.123496 179 143 125
0.214844 0.308594 -0.123625 196 153 125
0.218750 0.308594 -0.123911 196 147 118
0.222656 0.308594 -0.124111 201 152 115
0.226562 0.308594 -0.123265 206 156 118
0.230469 0.308594 -0.122803 210 159 121
0.234375 0.308594 -0.122147 215 162 124
0.238281 0.308594 -0.121160 220 167 128
0.242188 0.308594 -0.118942 225 172 131
0.246094 0.308594 -0.116656 230 178 136
0.250000 0.308594 -0.113843 231 180 137
0.253906 0.308594 -0.110248 225 172 130
0.257812 0.308594 -0.103393 214 158 118
0.261719 0.308594 -0.096173 214 170 139
-0.191406 0.304688 -0.016642 185 132 101
-0.187500 0.304688 -0.024132 195 142 109
-0.183594 0.304688 -0.030181 206 141 104
-0.179688 0.304688 -0.035037 212 142 103
-0.175781 0.304688 -0.039231 221 153 111
-0.171875 0.304688 -0.042698 225 159 116
-0.167969 0.304688 -0.045271 227 162 119
-0.164062 0.304688 -0.047336 228 165 122
-0.160156 0.304688 -0.049336 229 166 123
-0.156250 0.304688 -0.051054 230 168 125
-0.152344 0.304688 -0.052157 230 169 126
-0.148438 0.304688 -0.052744 230 170 127
-0.144531 0.304688 -0.053300 228 168 127
-0.140625 0.304688 -0.053460 225 165 126
-0.136719 0.304688 -0.053237 219 157 120
-0.132812 0.304688 -0.052341 208 143 111
-0.128906 0.304688 -0.051312 190 127 101
-0.125000 0.304688 -0.049509 169 113 93
-0.121094 0.304688 -0.046706 144 103 88
-0.117188 0.304688 -0.042462 117 92 83
-0.113281 0.304688 -0.036665 102 91 82
-0.097656 0.304688 -0.005649 122 89 80
-0.093750 0.304688 -0.025524 118 82 70
-0.089844 0.304688 -0.038304 133 95 82
-0.085938 0.304688 -0.052615 144 110 100
-0.082031 0.304688 -0.063953 125 96 90
-0.078125 0.304688 -0.072667 104 83 80
-0.074219 0.304688 -0.078803 118 104 104
-0.070312 0.304688 -0.083739 141 130 134
-0.066406 0.304688 -0.088482 163 164 183
-0.062500 0.304688 -0.092986 166 167 187
-0.058594 0.304688 -0.096513 177 180 199
-0.054688 0.304688 -0.099357 164 167 186
-0.050781 0.304688 -0.102008 135 137 158
-0.046875 0.304688 -0.104084 134 139 159
-0.042969 0.304688 -0.105687 135 140 162
-0.039062 0.304688 -0.106660 106 112 134
-0.035156 0.304688 -0.107397 146 152 176
-0.031250 0.304688 -0.107786 173 181 204
-0.027344 0.304688 -0.107887 161 168 194
-0.023438 0.304688 -0.107767 161 171 196
-0.019531 0.304688 -0.107423 167 177 202
-0.015625 0.304688 -0.106932 158 168 195
-0.011719 0.304688 -0.105996 166 178 204
-0.007812 0.304688 -0.104743 167 179 205
-0.003906 0.304688 -0.103395 165 176 196
0.000000 0.304688 -0.101945 162 173 193
0.003906 0.304688 -0.100500 167 178 198
0.007812 0.304688 -0.099144 176 187 207
0.011719 0.304688 -0.097842 176 187 207
0.015625 0.304688 -0.096704 166 177 195
0.019531 0.304688 -0.095747 164 175 193
0.023438 0.304688 -0.095077 170 181 199
0.027344 0.304688 -0.094547 166 178 194
0.031250 0.304688 -0.094276 175 187 203
0.035156 0.304688 -0.094215 170 182 198
0.039062 0.304688 -0.094390 153 165 181
0.042969 0.304688 -0.094737 146 158 172
0.046875 0.304688 -0.095199 143 155 169
0.050781 0.304688 -0.095895 122 134 148
0.054688 0.304688 -0.096733 92 104 118
0.058594 0.304688 -0.097720 83 72 78
0.062500 0.304688 -0.098706 78 69 74
0.066406 0.304688 -0.099815 69 59 67
0.070312 0.304688 -0.100938 103 96 104
0.074219 0.304688 -0.102138 146 140 150
0.078125 0.304688 -0.103309 129 126 137
0.082031 0.304688 -0.104503 121 119 132
0.085938 0.304688 -0.105643 155 157 170
0.089844 0.304688 -0.106685 88 91 108
0.093750 0.304688 -0.107642 66 71 90
0.097656 0.304688 -0.108439 129 137 156
0.101562 0.304688 -0.109023 163 174 194
0.105469 0.304688 -0.109457 162 174 195
0.109375 0.304688 -0.109751 167 179 203
0.113281 0.304688 -0.109787 145 159 185
0.117188 0.304688 -0.109607 149 163 189
0.121094 0.304688 -0.109216 159 174 203
0.125000 0.304688 -0.108585 155 171 197
0.128906 0.304688 -0.107661 151 168 194
0.132812 0.304688 -0.106430 148 166 190
0.136719 0.304688 -0.105036 147 165 189
0.140625 0.304688 -0.103461 147 165 187
0.144531 0.304688 -0.101023 146 163 183
0.148438 0.304688 -0.098034 146 162 178
0.152344 0.304688 -0.094232 150 163 179
0.156250 0.304688 -0.089971 138 150 164
0.160156 0.304688 -0.085755 132 140 153
0.164062 0.304688 -0.081396 145 149 161
0.167969 0.304688 -0.075786 114 116 128
0.171875 0.304688 -0.070515 68 66 79
0.175781 0.304688 -0.066623 80 77 88
0.179688 0.304688 -0.062703 106 103 114
0.183594 0.304688 -0.058519 114 108 122
0.187500 0.304688 -0.101129 163 157 171
0.191406 0.304688 -0.108228 156 152 166
0.195312 0.304688 -0.114020 130 127 140
0.199219 0.304688 -0.117444 128 128 137
0.203125 0.304688 -0.119543 114 118 113
0.207031 0.304688 -0.122145 134 118 103
0.210938 0.304688 -0.122870 181 149 130
0.214844 0.304688 -0.123196 198 156 128
0.218750 0.304688 -0.123676 198 149 120
0.222656 0.304688 -0.123914 201 153 116
0.226562 0.304688 -0.123177 207 157 119
0.230469 0.304688 -0.122807 210 159 122
0.234375 0.304688 -0.122215 214 161 123
0.238281 0.304688 -0.121291 220 167 128
0.242188 0.304688 -0.119168 225 171 131
0.246094 0.304688 -0.117018 230 179 137
0.250000 0.304688 -0.114243 232 182 140
0.253906 0.304688 -0.110803 227 175 132
0.257812 0.304688 -0.104541 217 162 120
0.261719 0.304688 -0.098344 219 175 144
-0.191406 0.300781 -0.016609 183 124 93
-0.187500 0.300781 -0.025084 197 140 105
-0.183594 0.300781 -0.030846 211 144 105
-0.179688 0.300781 -0.035490 217 148 107
-0.175781 0.300781 -0.039428 223 156 114
-0.171875 0.300781 -0.042830 227 162 119
-0.167969 0.300781 -0.045336 228 164 121
-0.164062 0.300781 -0.047271 229 166 124
-0.160156 0.300781 -0.049144 230 167 124
-0.156250 0.300781 -0.050747 231 169 126
-0.152344 0.300781 -0.051776 231 170 127
-0.148438 0.300781 -0.052296 230 170 128
-0.144531 0.300781 -0.052779 229 169 128
-0.140625 0.300781 -0.052851 224 165 126
-0.136719 0.300781 -0.052513 218 157 120
-0.132812 0.300781 -0.051464 207 143 110
-0.128906 0.300781 -0.050335 190 127 101
-0.125000 0.300781 -0.048333 171 113 94
-0.121094 0.300781 -0.045122 145 100 87
-0.117188 0.300781 -0.040595 120 91 84
-0.113281 0.300781 -0.032776 106 93 86
-0.093750 0.300781 -0.024458 133 95 84
-0.089844 0.300781 -0.037293 140 102 89
-0.085938 0.300781 -0.051774 148 114 104
-0.082031 0.300781 -0.063243 133 104 96
-0.078125 0.300781 -0.072114 103 82 79
-0.074219 0.300781 -0.078242 113 99 99
-0.070312 0.300781 -0.083207 152 141 145
-0.066406 0.300781 -0.087971 165 170 189
-0.062500 0.300781 -0.092498 163 168 187
-0.058594 0.300781 -0.096015 183 188 207
-0.054688 0.300781 -0.098839 171 176 196
-0.050781 0.300781 -0.101486 136 141 160
-0.046875 0.300781 -0.103550 149 155 177
-0.042969 0.300781 -0.105170 159 165 187
-0.039062 0.300781 -0.106172 118 124 146
-0.035156 0.300781 -0.106944 122 130 153
-0.031250 0.300781 -0.107371 193 201 224
-0.027344 0.300781 -0.107513 165 173 196
-0.023438 0.300781 -0.107428 160 170 195
-0.019531 0.300781 -0.107118 173 183 208
-0.015625 0.300781 -0.106654 152 162 187
-0.011719 0.300781 -0.105744 168 178 203
-0.007812 0.300781 -0.104510 166 176 201
-0.003906 0.300781 -0.103158 171 182 204
0.000000 0.300781 -0.101703 166 177 199
0.003906 0.300781 -0.100245 168 179 201
0.007812 0.300781 -0.098860 176 187 207
0.011719 0.300781 -0.097531 176 187 207
0.015625 0.300781 -0.096367 168 179 199
0.019531 0.300781 -0.095385 163 174 194
0.023438 0.300781 -0.094711 164 175 193
0.027344 0.300781 -0.094173 163 174 192
0.031250 0.300781 -0.093883 164 175 193
0.035156 0.300781 -0.093834 163 175 191
0.039062 0.300781 -0.094053 164 176 192
0.042969 0.300781 -0.094412 170 182 198
0.046875 0.300781 -0.094883 171 183 199
0.050781 0.300781 -0.095602 153 165 181
0.054688 0.300781 -0.096463 131 143 159
0.058594 0.300781 -0.097467 90 83 91
0.062500 0.300781 -0.098450 80 73 81
0.066406 0.300781 -0.099557 87 81 91
0.070312 0.300781 -0.100656 98 95 104
0.074219 0.300781 -0.101835 161 158 169
0.078125 0.300781 -0.103009 155 153 166
0.082031 0.300781 -0.104185 79 78 92
0.085938 0.300781 -0.105298 104 106 121
0.089844 0.300781 -0.106333 79 85 101
0.093750 0.300781 -0.107275 76 83 101
0.097656 0.300781 -0.108060 137 145 164
0.101562 0.300781 -0.108649 162 173 193
0.105469 0.300781 -0.109088 159 171 193
0.109375 0.300781 -0.109382 169 181 205
0.113281 0.300781 -0.109425 155 170 193
0.117188 0.300781 -0.109246 157 172 195
0.121094 0.300781 -0.108854 157 172 201
0.125000 0.300781 -0.108219 153 168 194
0.128906 0.300781 -0.107257 152 169 195
0.132812 0.300781 -0.105963 156 174 198
0.136719 0.300781 -0.104491 151 169 193
0.140625 0.300781 -0.102821 137 155 177
0.144531 0.300781 -0.100297 127 144 164
0.148438 0.300781 -0.097222 126 141 160
0.152344 0.300781 -0.093366 133 146 162
0.156250 0.300781 -0.089086 157 169 183
0.160156 0.300781 -0.084811 157 165 178
0.164062 0.300781 -0.080346 178 184 196
0.167969 0.300781 -0.074785 170 172 185
0.171875 0.300781 -0.069588 91 91 103
0.175781 0.300781 -0.065711 60 58 71
0.179688 0.300781 -0.061673 96 93 104
0.183594 0.300781 -0.056216 94 82 94
0.187500 0.300781 -0.092888 120 108 120
0.191406 0.300781 -0.106730 139 129 140
0.195312 0.300781 -0.112787 138 132 142
0.199219 0.300781 -0.116358 134 131 138
0.203125 0.300781 -0.118940 126 127 121
0.207031 0.300781 -0.121362 133 118 106
0.210938 0.300781 -0.122323 179 149 130
0.214844 0.300781 -0.122734 197 156 128
0.218750 0.300781 -0.123375 198 151 122
0.222656 0.300781 -0.123615 202 154 118
0.226562 0.300781 -0.122993 207 158 120
0.230469 0.300781 -0.122764 209 158 121
0.234375 0.300781 -0.122255 213 159 122
0.238281 0.300781 -0.121417 219 166 128
0.242188 0.300781 -0.119412 224 170 130
0.246094 0.300781 -0.117366 231 179 138
0.250000 0.300781 -0.114559 234 184 142
0.253906 0.300781 -0.111472 230 177 134
0.257812 0.300781 -0.106062 221 165 123
0.261719 0.300781 -0.099748 221 174 143
-0.191406 0.296875 -0.018241 194 148 119
-0.187500 0.296875 -0.026089 196 133 99
-0.183594 0.296875 -0.031339 213 146 106
-0.179688 0.296875 -0.035908 220 153 111
-0.175781 0.296875 -0.039669 225 158 115
-0.171875 0.296875 -0.043032 228 163 120
-0.167969 0.296875 -0.045432 229 165 123
-0.164062 0.296875 -0.047233 230 168 125
-0.160156 0.296875 -0.048978 231 168 126
-0.156250 0.296875 -0.050461 231 170 127
-0.152344 0.296875 -0.051398 231 171 128
-0.148438 0.296875 -0.051829 231 171 129
-0.144531 0.296875 -0.052218 229 169 128
-0.140625 0.296875 -0.052166 224 165 126
-0.136719 0.296875 -0.051691 217 156 120
-0.132812 0.296875 -0.050462 206 142 109
-0.128906 0.296875 -0.049197 189 127 101
-0.125000 0.296875 -0.046865 171 115 95
-0.121094 0.296875 -0.043198 142 98 86
-0.117188 0.296875 -0.038534 129 101 93
-0.113281 0.296875 -0.023140 127 115 105
-0.093750 0.296875 -0.023263 136 100 86
-0.089844 0.296875 -0.036572 136 98 85
-0.085938 0.296875 -0.051171 149 113 101
-0.082031 0.296875 -0.062684 145 116 108
-0.078125 0.296875 -0.071630 111 87 85
-0.074219 0.296875 -0.077710 104 89 90
-0.070312 0.296875 -0.082690 139 128 132
-0.066406 0.296875 -0.087483 157 165 185
-0.062500 0.296875 -0.092028 160 168 188
-0.058594 0.296875 -0.095538 175 182 202
-0.054688 0.296875 -0.098337 171 179 200
-0.050781 0.296875 -0.100993 156 164 185
-0.046875 0.296875 -0.103062 167 175 196
-0.042969 0.296875 -0.104696 175 183 204
-0.039062 0.296875 -0.105721 155 163 184
-0.035156 0.296875 -0.106528 112 120 141
-0.031250 0.296875 -0.106995 170 181 203
-0.027344 0.296875 -0.107179 162 173 195
-0.023438 0.296875 -0.107134 164 175 197
-0.019531 0.296875 -0.106858 171 182 204
-0.015625 0.296875 -0.106423 155 166 188
-0.011719 0.296875 -0.105541 166 177 199
-0.007812 0.296875 -0.104325 165 176 198
-0.003906 0.296875 -0.102975 177 187 212
0.000000 0.296875 -0.101516 170 181 203
0.003906 0.296875 -0.100048 167 178 200
0.007812 0.296875 -0.098642 171 182 204
0.011719 0.296875 -0.097287 171 182 204
0.015625 0.296875 -0.096101 165 176 198
0.019531 0.296875 -0.095097 160 171 191
0.023438 0.296875 -0.094405 159 170 190
0.027344 0.296875 -0.093855 160 171 191
0.031250 0.296875 -0.093567 151 162 182
0.035156 0.296875 -0.093532 147 158 176
0.039062 0.296875 -0.093768 153 164 182
0.042969 0.296875 -0.094144 164 175 193
0.046875 0.296875 -0.094632 168 179 197
0.050781 0.296875 -0.095369 165 177 193
0.054688 0.296875 -0.096244 160 172 188
0.058594 0.296875 -0.097251 147 145 156
0.062500 0.296875 -0.098227 122 120 131
0.066406 0.296875 -0.099324 116 114 127
0.070312 0.296875 -0.100416 92 92 104
0.074219 0.296875 -0.101576 123 122 136
0.078125 0.296875 -0.102735 137 139 154
0.082031 0.296875 -0.103898 97 100 115
0.085938 0.296875 -0.104983 130 136 152
0.089844 0.296875 -0.105995 139 144 163
0.093750 0.296875 -0.106916 138 145 164
0.097656 0.296875 -0.107690 168 176 197
0.101562 0.296875 -0.108282 163 174 194
0.105469 0.296875 -0.108728 150 161 183
0.109375 0.296875 -0.109019 159 171 192
0.113281 0.296875 -0.109069 157 169 193
0.117188 0.296875 -0.108898 163 175 199
0.121094 0.296875 -0.108514 157 173 199
0.125000 0.296875 -0.107868 156 171 197
0.128906 0.296875 -0.106863 154 170 196
0.132812 0.296875 -0.105507 151 167 192
0.136719 0.296875 -0.103951 147 165 189
0.140625 0.296875 -0.102185 142 158 181
0.144531 0.296875 -0.099569 135 152 172
0.148438 0.296875 -0.096393 131 146 165
0.152344 0.296875 -0.092456 131 144 161
0.156250 0.296875 -0.088134 158 170 186
0.160156 0.296875 -0.083814 148 155 171
0.164062 0.296875 -0.079278 161 167 181
0.167969 0.296875 -0.073744 185 187 200
0.171875 0.296875 -0.068630 146 146 158
0.175781 0.296875 -0.064704 99 97 110
0.179688 0.296875 -0.060319 82 78 92
0.183594 0.296875 -0.054304 107 87 96
0.187500 0.296875 -0.083393 120 103 111
0.191406 0.296875 -0.105507 145 129 136
0.195312 0.296875 -0.111258 151 138 145
0.199219 0.296875 -0.115142 147 138 141
0.203125 0.296875 -0.118131 128 127 120
0.207031 0.296875 -0.120491 132 121 111
0.210938 0.296875 -0.121581 175 145 128
0.214844 0.296875 -0.122162 195 152 127
0.218750 0.296875 -0.123116 200 152 124
0.222656 0.296875 -0.123398 203 155 120
0.226562 0.296875 -0.122882 207 158 121
0.230469 0.296875 -0.122758 208 158 122
0.234375 0.296875 -0.122323 212 159 122
0.238281 0.296875 -0.121562 219 166 128
0.242188 0.296875 -0.119663 224 169 130
0.246094 0.296875 -0.117658 231 179 138
0.250000 0.296875 -0.114858 235 185 143
0.253906 0.296875 -0.112010 231 178 136
0.257812 0.296875 -0.106923 224 167 125
0.261719 0.296875 -0.099837 214 170 139
-0.191406 0.292969 -0.020493 185 132 101
-0.187500 0.292969 -0.026885 196 131 96
-0.183594 0.292969 -0.031820 215 149 108
-0.179688 0.292969 -0.036341 222 155 113
-0.175781 0.292969 -0.039964 225 159 117
-0.171875 0.292969 -0.043260 228 163 121
-0.167969 0.292969 -0.045547 229 165 124
-0.164062 0.292969 -0.047218 231 168 126
-0.160156 0.292969 -0.048836 231 169 127
-0.156250 0.292969 -0.050197 232 170 128
-0.152344 0.292969 -0.051031 232 171 129
-0.148438 0.292969 -0.051356 231 171 130
-0.144531 0.292969 -0.051636 229 170 129
-0.140625 0.292969 -0.051477 224 165 127
-0.136719 0.292969 -0.050872 216 155 119
-0.132812 0.292969 -0.049451 205 140 108
-0.128906 0.292969 -0.048160 186 124 100
-0.125000 0.292969 -0.045571 167 113 94
-0.121094 0.292969 -0.041683 138 97 85
-0.117188 0.292969 -0.035700 147 126 114
-0.093750 0.292969 -0.022151 123 87 75
-0.089844 0.292969 -0.036019 124 86 73
-0.085938 0.292969 -0.050714 136 100 88
-0.082031 0.292969 -0.062166 134 104 96
-0.078125 0.292969 -0.071122 105 81 79
-0.074219 0.292969 -0.077174 104 85 87
-0.070312 0.292969 -0.082196 138 124 129
-0.066406 0.292969 -0.087023 144 155 176
-0.062500 0.292969 -0.091600 156 167 188
-0.058594 0.292969 -0.095108 153 164 185
-0.054688 0.292969 -0.097882 154 166 187
-0.050781 0.292969 -0.100546 164 176 198
-0.046875 0.292969 -0.102623 155 165 187
-0.042969 0.292969 -0.104267 145 156 178
-0.039062 0.292969 -0.105316 161 172 192
-0.035156 0.292969 -0.106150 112 123 143
-0.031250 0.292969 -0.106637 122 133 153
-0.027344 0.292969 -0.106860 151 162 182
-0.023438 0.292969 -0.106857 168 179 199
-0.019531 0.292969 -0.106613 166 177 197
-0.015625 0.292969 -0.106210 165 176 196
-0.011719 0.292969 -0.105352 168 179 199
-0.007812 0.292969 -0.104149 173 184 204
-0.003906 0.292969 -0.102809 178 188 213
0.000000 0.292969 -0.101353 171 181 206
0.003906 0.292969 -0.099882 166 176 201
0.007812 0.292969 -0.098465 167 177 202
0.011719 0.292969 -0.097091 168 178 203
0.015625 0.292969 -0.095892 167 177 202
0.019531 0.292969 -0.094873 165 176 198
0.023438 0.292969 -0.094159 164 175 197
0.027344 0.292969 -0.093597 158 169 191
0.031250 0.292969 -0.093314 154 165 185
0.035156 0.292969 -0.093291 156 167 187
0.039062 0.292969 -0.093531 165 176 196
0.042969 0.292969 -0.093928 167 178 198
0.046875 0.292969 -0.094450 161 172 190
0.050781 0.292969 -0.095197 158 169 187
0.054688 0.292969 -0.096081 161 172 190
0.058594 0.292969 -0.097089 157 159 174
0.062500 0.292969 -0.098054 128 130 145
0.066406 0.292969 -0.099144 106 109 124
0.070312 0.292969 -0.100228 80 82 99
0.074219 0.292969 -0.101366 65 67 84
0.078125 0.292969 -0.102493 81 87 103
0.082031 0.292969 -0.103632 107 112 131
0.085938 0.292969 -0.104689 122 129 147
0.089844 0.292969 -0.105665 135 142 161
0.093750 0.292969 -0.106569 146 154 173
0.097656 0.292969 -0.107328 169 177 198
0.101562 0.292969 -0.107909 162 173 193
0.105469 0.292969 -0.108359 153 164 186
0.109375 0.292969 -0.108646 159 170 191
0.113281 0.292969 -0.108704 158 169 191
0.117188 0.292969 -0.108547 158 170 192
0.121094 0.292969 -0.108167 158 174 200
0.125000 0.292969 -0.107508 164 179 205
0.128906 0.292969 -0.106462 155 171 197
0.132812 0.292969 -0.105041 137 153 178
0.136719 0.292969 -0.103401 136 152 175
0.140625 0.292969 -0.101539 151 167 190
0.144531 0.292969 -0.098820 155 172 192
0.148438 0.292969 -0.095535 146 161 180
0.152344 0.292969 -0.091505 140 153 170
0.156250 0.292969 -0.087148 157 169 185
0.160156 0.292969 -0.082784 154 163 178
0.164062 0.292969 -0.078168 163 169 183
0.167969 0.292969 -0.072692 174 177 192
0.171875 0.292969 -0.067715 166 165 179
0.175781 0.292969 -0.063692 131 129 143
0.179688 0.292969 -0.059074 76 73 86
0.183594 0.292969 -0.053368 122 97 101
0.187500 0.292969 -0.073175 157 132 138
0.191406 0.292969 -0.105090 169 146 152
0.195312 0.292969 -0.109717 143 124 128
0.199219 0.292969 -0.114047 142 127 129
0.203125 0.292969 -0.117197 132 127 121
0.207031 0.292969 -0.119466 137 127 120
0.210938 0.292969 -0.120940 178 148 135
0.214844 0.292969 -0.121634 196 154 131
0.218750 0.292969 -0.122815 201 153 126
0.222656 0.292969 -0.123189 205 157 122
0.226562 0.292969 -0.122805 208 159 122
0.230469 0.292969 -0.122767 208 158 122
0.234375 0.292969 -0.122411 212 158 122
0.238281 0.292969 -0.121697 219 165 128
0.242188 0.292969 -0.119860 224 168 130
0.246094 0.292969 -0.117876 232 179 139
0.250000 0.292969 -0.115050 235 186 145
0.253906 0.292969 -0.112247 233 180 139
0.257812 0.292969 -0.107864 228 173 132
0.261719 0.292969 -0.100971 219 175 144
-0.195312 0.289062 -0.014176 174 119 96
-0.191406 0.289062 -0.021708 183 124 93
-0.187500 0.289062 -0.027641 198 131 95
-0.183594 0.289062 -0.032517 216 150 109
-0.179688 0.289062 -0.036763 223 157 114
-0.175781 0.289062 -0.040285 226 160 117
-0.171875 0.289062 -0.043495 228 164 122
-0.167969 0.289062 -0.045669 230 166 124
-0.164062 0.289062 -0.047213 231 169 127
-0.160156 0.289062 -0.048700 232 170 128
-0.156250 0.289062 -0.049944 232 171 129
-0.152344 0.289062 -0.050668 232 172 130
-0.148438 0.289062 -0.050868 231 172 131
-0.144531 0.289062 -0.051029 230 171 131
-0.140625 0.289062 -0.050711 225 166 128
-0.136719 0.289062 -0.049996 216 155 120
-0.132812 0.289062 -0.048504 203 140 109
-0.128906 0.289062 -0.047012 182 122 99
-0.125000 0.289062 -0.043999 162 111 93
-0.121094 0.289062 -0.040058 134 101 89
-0.117188 0.289062 -0.031617 171 163 145
-0.093750 0.289062 -0.020815 123 89 77
-0.089844 0.289062 -0.035557 127 91 77
-0.085938 0.289062 -0.050287 126 92 82
-0.082031 0.289062 -0.061661 110 81 73
-0.078125 0.289062 -0.070632 92 69 67
-0.074219 0.289062 -0.076687 111 93 95
-0.070312 0.289062 -0.081757 148 135 139
-0.066406 0.289062 -0.086617 136 150 171
-0.062500 0.289062 -0.091223 151 166 187
-0.058594 0.289062 -0.094740 139 155 176
-0.054688 0.289062 -0.097492 144 159 181
-0.050781 0.289062 -0.100164 167 182 204
-0.046875 0.289062 -0.102243 144 159 180
-0.042969 0.289062 -0.103890 127 139 161
-0.039062 0.289062 -0.104959 160 172 194
-0.035156 0.289062 -0.105815 140 153 172
-0.031250 0.289062 -0.106321 117 128 148
-0.027344 0.289062 -0.106581 149 160 180
-0.023438 0.289062 -0.106609 172 183 201
-0.019531 0.289062 -0.106388 167 178 196
-0.015625 0.289062 -0.106006 169 177 196
-0.011719 0.289062 -0.105169 168 176 195
-0.007812 0.289062 -0.103982 179 187 206
-0.003906 0.289062 -0.102648 174 184 211
0.000000 0.289062 -0.101200 171 181 208
0.003906 0.289062 -0.099732 169 179 206
0.007812 0.289062 -0.098305 168 178 205
0.011719 0.289062 -0.096919 170 180 207
0.015625 0.289062 -0.095709 172 182 207
0.019531 0.289062 -0.094673 173 183 208
0.023438 0.289062 -0.093948 174 184 209
0.027344 0.289062 -0.093380 161 172 194
0.031250 0.289062 -0.093095 158 169 191
0.035156 0.289062 -0.093076 157 168 190
0.039062 0.289062 -0.093328 156 167 189
0.042969 0.289062 -0.093738 148 159 179
0.046875 0.289062 -0.094270 139 150 170
0.050781 0.289062 -0.095025 140 151 171
0.054688 0.289062 -0.095914 148 159 179
0.058594 0.289062 -0.096923 148 155 174
0.062500 0.289062 -0.097882 137 144 163
0.066406 0.289062 -0.098963 130 137 156
0.070312 0.289062 -0.100037 133 140 159
0.074219 0.289062 -0.101155 103 110 129
0.078125 0.289062 -0.102258 97 105 124
0.082031 0.289062 -0.103359 123 131 150
0.085938 0.289062 -0.104376 98 106 127
0.089844 0.289062 -0.105329 131 139 160
0.093750 0.289062 -0.106210 147 155 176
0.097656 0.289062 -0.106946 158 169 189
0.101562 0.289062 -0.107516 157 168 188
0.105469 0.289062 -0.107959 157 168 190
0.109375 0.289062 -0.108239 160 171 193
0.113281 0.289062 -0.108306 160 171 193
0.117188 0.289062 -0.108156 159 170 191
0.121094 0.289062 -0.107780 162 175 202
0.125000 0.289062 -0.107115 171 185 211
0.128906 0.289062 -0.106028 158 174 200
0.132812 0.289062 -0.104538 132 148 173
0.136719 0.289062 -0.102816 132 148 171
0.140625 0.289062 -0.100858 155 171 194
0.144531 0.289062 -0.098035 163 180 200
0.148438 0.289062 -0.094654 151 166 185
0.152344 0.289062 -0.090550 151 164 181
0.156250 0.289062 -0.086158 143 155 171
0.160156 0.289062 -0.081734 147 156 173
0.164062 0.289062 -0.077057 173 179 195
0.167969 0.289062 -0.071630 177 180 195
0.171875 0.289062 -0.066747 166 168 183
0.175781 0.289062 -0.062583 140 139 153
0.179688 0.289062 -0.057733 77 74 88
0.183594 0.289062 -0.052866 102 70 73
0.187500 0.289062 -0.061649 158 128 130
0.191406 0.289062 -0.104876 175 146 148
0.195312 0.289062 -0.108185 122 96 97
0.199219 0.289062 -0.113123 126 106 104
0.203125 0.289062 -0.116442 148 134 129
0.207031 0.289062 -0.118171 132 122 120
0.210938 0.289062 -0.120205 172 144 135
0.214844 0.289062 -0.121039 193 152 130
0.218750 0.289062 -0.122395 199 152 125
0.222656 0.289062 -0.122927 204 156 122
0.226562 0.289062 -0.122677 208 159 123
0.230469 0.289062 -0.122730 208 157 122
0.234375 0.289062 -0.122476 212 158 123
0.238281 0.289062 -0.121822 220 166 129
0.242188 0.289062 -0.120093 224 169 131
0.246094 0.289062 -0.118149 232 180 140
0.250000 0.289062 -0.115483 236 186 146
0.253906 0.289062 -0.112548 235 182 142
0.257812 0.289062 -0.109017 231 179 138
0.261719 0.289062 -0.102599 221 174 143
-0.195312 0.285156 -0.014561 178 119 93
-0.191406 0.285156 -0.022512 193 133 100
-0.187500 0.285156 -0.028643 202 133 97
-0.183594 0.285156 -0.033198 217 149 108
-0.179688 0.285156 -0.037214 223 156 114
-0.175781 0.285156 -0.040683 226 159 117
-0.171875 0.285156 -0.043769 229 164 122
-0.167969 0.285156 -0.045821 230 166 124
-0.164062 0.285156 -0.047222 231 169 127
-0.160156 0.285156 -0.048592 232 170 128
-0.156250 0.285156 -0.049727 232 171 129
-0.152344 0.285156 -0.050325 233 173 131
-0.148438 0.285156 -0.050386 232 173 132
-0.144531 0.285156 -0.050415 230 171 132
-0.140625 0.285156 -0.049926 225 166 129
-0.136719 0.285156 -0.049127 215 154 120
-0.132812 0.285156 -0.047492 202 139 110
-0.128906 0.285156 -0.045885 180 122 100
-0.125000 0.285156 -0.042136 161 114 97
-0.121094 0.285156 -0.037156 126 99 92
-0.117188 0.285156 -0.024088 161 157 145
-0.093750 0.285156 -0.019657 127 95 84
-0.089844 0.285156 -0.035215 131 97 85
-0.085938 0.285156 -0.049869 125 92 83
-0.082031 0.285156 -0.061254 103 76 72
-0.078125 0.285156 -0.070182 101 81 80
-0.074219 0.285156 -0.076226 128 113 116
-0.070312 0.285156 -0.081375 151 140 146
-0.066406 0.285156 -0.086268 135 150 171
-0.062500 0.285156 -0.090889 148 165 186
-0.058594 0.285156 -0.094407 145 161 184
-0.054688 0.285156 -0.097133 150 167 188
-0.050781 0.285156 -0.099807 165 181 203
-0.046875 0.285156 -0.101893 153 169 191
-0.042969 0.285156 -0.103536 142 157 178
-0.039062 0.285156 -0.104613 159 174 195
-0.035156 0.285156 -0.105488 163 176 195
-0.031250 0.285156 -0.106022 152 165 184
-0.027344 0.285156 -0.106302 145 156 174
-0.023438 0.285156 -0.106348 164 175 193
-0.019531 0.285156 -0.106151 171 180 197
-0.015625 0.285156 -0.105787 156 165 182
-0.011719 0.285156 -0.104977 162 171 188
-0.007812 0.285156 -0.103822 177 186 203
-0.003906 0.285156 -0.102497 170 179 208
0.000000 0.285156 -0.101056 173 182 211
0.003906 0.285156 -0.099597 174 183 212
0.007812 0.285156 -0.098170 173 183 210
0.011719 0.285156 -0.096782 171 181 208
0.015625 0.285156 -0.095571 171 181 208
0.019531 0.285156 -0.094529 172 182 209
0.023438 0.285156 -0.093803 172 182 207
0.027344 0.285156 -0.093232 166 176 201
0.031250 0.285156 -0.092947 162 172 197
0.035156 0.285156 -0.092935 154 165 187
0.039062 0.285156 -0.093201 144 155 177
0.042969 0.285156 -0.093616 134 145 167
0.046875 0.285156 -0.094140 132 143 165
0.050781 0.285156 -0.094896 140 151 173
0.054688 0.285156 -0.095788 151 162 184
0.058594 0.285156 -0.096793 168 179 201
0.062500 0.285156 -0.097743 168 179 201
0.066406 0.285156 -0.098813 164 175 197
0.070312 0.285156 -0.099877 174 185 207
0.074219 0.285156 -0.100971 167 178 200
0.078125 0.285156 -0.102047 165 176 198
0.082031 0.285156 -0.103110 185 196 218
0.085938 0.285156 -0.104084 175 186 208
0.089844 0.285156 -0.105009 166 177 199
0.093750 0.285156 -0.105866 171 181 201
0.097656 0.285156 -0.106593 162 172 192
0.101562 0.285156 -0.107159 157 168 187
0.105469 0.285156 -0.107587 159 170 190
0.109375 0.285156 -0.107853 158 169 189
0.113281 0.285156 -0.107924 161 172 192
0.117188 0.285156 -0.107775 163 174 194
0.121094 0.285156 -0.107404 161 175 202
0.125000 0.285156 -0.106732 168 182 209
0.128906 0.285156 -0.105603 163 177 203
0.132812 0.285156 -0.104037 148 162 188
0.136719 0.285156 -0.102224 146 162 185
0.140625 0.285156 -0.100163 157 173 196
0.144531 0.285156 -0.097236 157 174 194
0.148438 0.285156 -0.093756 146 161 180
0.152344 0.285156 -0.089573 154 167 186
0.156250 0.285156 -0.085142 144 155 173
0.160156 0.285156 -0.080666 140 149 166
0.164062 0.285156 -0.075962 164 171 187
0.167969 0.285156 -0.070589 178 181 198
0.171875 0.285156 -0.065784 171 173 188
0.175781 0.285156 -0.061484 153 152 168
0.179688 0.285156 -0.056408 103 102 118
0.183594 0.285156 -0.052258 105 69 69
0.187500 0.285156 -0.053900 137 103 102
0.191406 0.285156 -0.103689 170 139 137
0.195312 0.285156 -0.106694 130 100 98
0.199219 0.285156 -0.112321 115 90 86
0.203125 0.285156 -0.115851 138 120 113
0.207031 0.285156 -0.117453 131 120 115
0.210938 0.285156 -0.119121 171 142 137
0.214844 0.285156 -0.120390 191 151 131
0.218750 0.285156 -0.122104 199 153 125
0.222656 0.285156 -0.122821 205 156 122
0.226562 0.285156 -0.122593 209 161 125
0.230469 0.285156 -0.122722 209 159 124
0.234375 0.285156 -0.122576 213 160 124
0.238281 0.285156 -0.121932 220 167 131
0.242188 0.285156 -0.120279 225 170 132
0.246094 0.285156 -0.118346 232 180 141
0.250000 0.285156 -0.116076 236 186 147
0.253906 0.285156 -0.112574 235 182 142
0.257812 0.285156 -0.110158 231 177 137
0.261719 0.285156 -0.104736 215 162 133
-0.195312 0.281250 -0.016581 171 121 101
-0.191406 0.281250 -0.023804 194 131 97
-0.187500 0.281250 -0.029353 205 134 98
-0.183594 0.281250 -0.033808 218 149 109
-0.179688 0.281250 -0.037738 224 156 115
-0.175781 0.281250 -0.041081 227 160 118
-0.171875 0.281250 -0.044018 229 164 122
-0.167969 0.281250 -0.045965 230 166 124
-0.164062 0.281250 -0.047237 232 169 127
-0.160156 0.281250 -0.048497 232 170 128
-0.156250 0.281250 -0.049520 233 171 130
-0.152344 0.281250 -0.049988 233 173 132
-0.148438 0.281250 -0.049905 232 173 133
-0.144531 0.281250 -0.049796 230 172 133
-0.140625 0.281250 -0.049115 225 166 130
-0.136719 0.281250 -0.048192 214 153 121
-0.132812 0.281250 -0.046486 202 138 112
-0.128906 0.281250 -0.044792 182 124 103
-0.125000 0.281250 -0.040356 169 122 106
-0.121094 0.281250 -0.034134 124 93 97
-0.093750 0.281250 -0.018056 113 86 75
-0.089844 0.281250 -0.034931 117 87 77
-0.085938 0.281250 -0.049556 120 91 83
-0.082031 0.281250 -0.060901 109 85 81
-0.078125 0.281250 -0.069745 114 97 99
-0.074219 0.281250 -0.075827 127 117 122
-0.070312 0.281250 -0.081030 138 129 136
-0.066406 0.281250 -0.085957 131 147 168
-0.062500 0.281250 -0.090606 141 158 179
-0.058594 0.281250 -0.094124 150 168 190
-0.054688 0.281250 -0.096832 156 173 196
-0.050781 0.281250 -0.099504 154 171 193
-0.046875 0.281250 -0.101600 155 170 193
-0.042969 0.281250 -0.103236 153 170 190
-0.039062 0.281250 -0.104319 146 161 182
-0.035156 0.281250 -0.105196 154 169 188
-0.031250 0.281250 -0.105740 176 189 206
-0.027344 0.281250 -0.106032 129 140 158
-0.023438 0.281250 -0.106087 144 156 172
-0.019531 0.281250 -0.105905 169 178 195
-0.015625 0.281250 -0.105551 141 150 167
-0.011719 0.281250 -0.104759 159 168 183
-0.007812 0.281250 -0.103627 178 187 202
