ply
    format ascii 1.0
    element vertex 34586
    property float x
    property float y
    property float z
    property uchar red
    property uchar green
    property uchar blue
    end_header
-0.082031 0.054688 -0.113969 76 42 32
-0.078125 0.054688 -0.116891 79 39 29
-0.074219 0.054688 -0.119490 114 67 57
-0.070312 0.054688 -0.121856 148 100 88
-0.066406 0.054688 -0.123994 154 148 152
-0.062500 0.054688 -0.125827 140 135 139
-0.058594 0.054688 -0.127483 141 136 140
-0.054688 0.054688 -0.128918 155 153 158
-0.050781 0.054688 -0.130101 152 149 156
-0.046875 0.054688 -0.130993 132 129 136
-0.042969 0.054688 -0.131709 124 123 131
-0.039062 0.054688 -0.132201 134 132 143
-0.035156 0.054688 -0.132441 162 162 174
-0.031250 0.054688 -0.132459 165 164 180
-0.027344 0.054688 -0.132204 156 158 173
-0.023438 0.054688 -0.131624 138 139 157
-0.019531 0.054688 -0.130925 126 129 148
-0.015625 0.054688 -0.130007 133 135 156
-0.011719 0.054688 -0.128973 149 151 172
-0.007812 0.054688 -0.127912 160 162 183
-0.003906 0.054688 -0.126551 126 121 125
0.000000 0.054688 -0.125177 103 98 102
0.003906 0.054688 -0.123558 101 99 104
0.007812 0.054688 -0.121892 121 119 124
0.011719 0.054688 -0.120210 110 109 115
0.015625 0.054688 -0.118390 77 76 84
0.019531 0.054688 -0.116648 78 78 90
0.023438 0.054688 -0.114847 112 114 127
0.027344 0.054688 -0.112669 150 153 168
0.031250 0.054688 -0.110396 159 164 183
0.035156 0.054688 -0.107931 171 176 196
0.039062 0.054688 -0.105338 171 177 199
0.042969 0.054688 -0.101174 162 170 193
0.046875 0.054688 -0.096540 153 160 186
0.050781 0.054688 -0.094398 154 161 187
0.054688 0.054688 -0.105953 156 166 193
0.058594 0.054688 -0.122100 150 163 180
0.062500 0.054688 -0.127396 149 162 179
0.066406 0.054688 -0.130926 163 176 193
0.070312 0.054688 -0.132636 157 170 187
0.074219 0.054688 -0.135460 160 173 190
0.078125 0.054688 -0.139513 153 166 183
0.082031 0.054688 -0.142127 158 171 187
0.085938 0.054688 -0.143112 147 160 177
0.089844 0.054688 -0.144991 152 164 181
0.093750 0.054688 -0.146126 170 183 200
0.097656 0.054688 -0.146497 167 180 196
0.101562 0.054688 -0.145003 148 161 178
0.105469 0.054688 -0.144119 147 160 172
0.109375 0.054688 -0.142981 190 192 184
0.113281 0.054688 -0.141755 204 186 170
0.117188 0.054688 -0.138688 200 164 142
0.121094 0.054688 -0.136240 200 166 140
-0.226562 0.050781 -0.119014 188 165 134
-0.222656 0.050781 -0.122463 176 141 110
-0.218750 0.050781 -0.122282 155 109 79
-0.214844 0.050781 -0.122702 175 124 88
-0.210938 0.050781 -0.124200 180 129 93
-0.207031 0.050781 -0.126190 179 128 94
-0.203125 0.050781 -0.127656 183 133 99
-0.199219 0.050781 -0.129094 187 138 103
-0.195312 0.050781 -0.129438 189 141 107
-0.191406 0.050781 -0.129496 195 148 114
-0.187500 0.050781 -0.128557 189 144 112
-0.183594 0.050781 -0.124456 180 136 110
-0.179688 0.050781 -0.121792 178 137 115
-0.175781 0.050781 -0.111836 164 133 116
-0.171875 0.050781 -0.105929 146 122 121
-0.160156 0.050781 -0.019517 226 225 225
-0.156250 0.050781 -0.025158 226 226 226
-0.152344 0.050781 -0.034108 213 213 213
-0.148438 0.050781 -0.042194 205 204 204
-0.144531 0.050781 -0.049898 210 209 209
-0.140625 0.050781 -0.056633 218 217 217
-0.136719 0.050781 -0.062637 223 223 223
-0.132812 0.050781 -0.067393 227 227 227
-0.128906 0.050781 -0.072253 230 228 226
-0.125000 0.050781 -0.076935 232 231 228
-0.121094 0.050781 -0.080954 233 232 231
-0.117188 0.050781 -0.084405 233 232 230
-0.113281 0.050781 -0.088063 231 230 229
-0.109375 0.050781 -0.091722 228 225 224
-0.105469 0.050781 -0.095189 221 215 213
-0.101562 0.050781 -0.098407 209 197 200
-0.097656 0.050781 -0.101627 202 188 192
-0.093750 0.050781 -0.104793 197 183 183
-0.089844 0.050781 -0.107919 172 156 149
-0.085938 0.050781 -0.111074 120 96 89
-0.082031 0.050781 -0.114057 104 74 64
-0.078125 0.050781 -0.116905 107 70 61
-0.074219 0.050781 -0.119376 100 59 50
-0.070312 0.050781 -0.121583 118 75 63
-0.066406 0.050781 -0.123575 133 124 125
-0.062500 0.050781 -0.125258 127 118 119
-0.058594 0.050781 -0.126744 119 110 111
-0.054688 0.050781 -0.127996 115 109 111
-0.050781 0.050781 -0.129016 124 118 120
-0.046875 0.050781 -0.129775 143 137 141
-0.042969 0.050781 -0.130397 165 158 165
-0.039062 0.050781 -0.130795 178 173 180
-0.035156 0.050781 -0.130961 169 164 171
-0.031250 0.050781 -0.130927 173 167 177
-0.027344 0.050781 -0.130642 165 162 173
-0.023438 0.050781 -0.130046 153 149 163
-0.019531 0.050781 -0.129338 152 148 162
-0.015625 0.050781 -0.128437 160 158 172
-0.011719 0.050781 -0.127375 161 159 173
-0.007812 0.050781 -0.126303 153 151 165
-0.003906 0.050781 -0.124970 111 101 100
0.000000 0.050781 -0.123625 89 79 80
0.003906 0.050781 -0.122055 74 65 66
0.007812 0.050781 -0.120438 98 89 92
0.011719 0.050781 -0.118814 121 115 117
0.015625 0.050781 -0.117075 106 100 104
0.019531 0.050781 -0.115386 102 97 103
0.023438 0.050781 -0.113559 132 129 138
0.027344 0.050781 -0.111362 138 136 147
0.031250 0.050781 -0.109067 152 150 163
0.035156 0.050781 -0.106580 168 167 181
0.039062 0.050781 -0.103966 175 177 192
0.042969 0.050781 -0.099643 174 175 193
0.046875 0.050781 -0.094852 165 168 185
0.050781 0.050781 -0.092620 157 160 179
0.054688 0.050781 -0.100153 152 155 174
0.058594 0.050781 -0.122783 163 168 187
0.062500 0.050781 -0.127566 157 162 181
0.066406 0.050781 -0.131466 162 167 186
0.070312 0.050781 -0.133584 156 161 180
0.074219 0.050781 -0.136669 173 178 197
0.078125 0.050781 -0.140901 170 175 194
0.082031 0.050781 -0.143761 175 179 198
0.085938 0.050781 -0.144944 165 169 188
0.089844 0.050781 -0.147044 158 162 181
0.093750 0.050781 -0.148464 163 168 187
0.097656 0.050781 -0.149088 159 164 183
0.101562 0.050781 -0.147825 157 162 180
0.105469 0.050781 -0.146999 165 170 187
0.109375 0.050781 -0.146510 175 181 181
0.113281 0.050781 -0.144234 190 172 160
0.117188 0.050781 -0.141976 195 157 144
0.121094 0.050781 -0.142558 209 178 153
-0.230469 0.046875 -0.056624 154 107 77
-0.226562 0.046875 -0.124398 182 153 121
-0.222656 0.046875 -0.123845 164 123 94
-0.218750 0.046875 -0.124371 154 107 77
-0.214844 0.046875 -0.125164 175 126 90
-0.210938 0.046875 -0.126143 181 131 95
-0.207031 0.046875 -0.128361 182 131 97
-0.203125 0.046875 -0.129762 186 136 102
-0.199219 0.046875 -0.131206 191 141 106
-0.195312 0.046875 -0.131358 192 143 108
-0.191406 0.046875 -0.131398 196 150 116
-0.187500 0.046875 -0.130882 189 144 113
-0.183594 0.046875 -0.126200 174 130 105
-0.179688 0.046875 -0.123049 169 129 110
-0.175781 0.046875 -0.113242 162 136 121
-0.171875 0.046875 -0.105333 138 120 123
-0.160156 0.046875 -0.017101 228 227 228
-0.156250 0.046875 -0.023746 222 222 222
-0.152344 0.046875 -0.032960 207 207 207
-0.148438 0.046875 -0.041224 202 201 201
-0.144531 0.046875 -0.049098 210 209 209
-0.140625 0.046875 -0.055777 218 218 218
-0.136719 0.046875 -0.061812 222 222 222
-0.132812 0.046875 -0.066646 225 224 225
-0.128906 0.046875 -0.071591 227 225 225
-0.125000 0.046875 -0.076387 229 228 227
-0.121094 0.046875 -0.080547 231 229 229
-0.117188 0.046875 -0.084147 232 230 231
-0.113281 0.046875 -0.087953 231 230 230
-0.109375 0.046875 -0.091728 229 226 227
-0.105469 0.046875 -0.095268 223 218 218
-0.101562 0.046875 -0.098553 215 206 210
-0.097656 0.046875 -0.101835 213 202 207
-0.093750 0.046875 -0.105040 213 200 201
-0.089844 0.046875 -0.108163 197 183 180
-0.085938 0.046875 -0.111262 137 118 112
-0.082031 0.046875 -0.114166 101 75 66
-0.078125 0.046875 -0.116932 97 67 57
-0.074219 0.046875 -0.119288 93 59 49
-0.070312 0.046875 -0.121355 128 90 82
-0.066406 0.046875 -0.123178 107 95 93
-0.062500 0.046875 -0.124689 113 101 99
-0.058594 0.046875 -0.126007 107 95 93
-0.054688 0.046875 -0.127078 83 71 71
-0.050781 0.046875 -0.127946 67 57 56
-0.046875 0.046875 -0.128564 82 72 71
-0.042969 0.046875 -0.129072 117 107 108
-0.039062 0.046875 -0.129381 146 136 137
-0.035156 0.046875 -0.129485 152 141 145
-0.031250 0.046875 -0.129398 158 147 151
-0.027344 0.046875 -0.129084 161 150 156
-0.023438 0.046875 -0.128469 166 155 161
-0.019531 0.046875 -0.127736 179 168 176
-0.015625 0.046875 -0.126855 181 170 178
-0.011719 0.046875 -0.125800 149 139 147
-0.007812 0.046875 -0.124733 110 100 108
-0.003906 0.046875 -0.123451 122 107 104
0.000000 0.046875 -0.122161 138 123 120
0.003906 0.046875 -0.120655 117 102 99
0.007812 0.046875 -0.119084 93 77 77
0.011719 0.046875 -0.117513 100 86 85
0.015625 0.046875 -0.115839 105 93 93
0.019531 0.046875 -0.114160 118 106 108
0.023438 0.046875 -0.112292 153 142 146
0.027344 0.046875 -0.110084 158 149 152
0.031250 0.046875 -0.107762 167 158 163
0.035156 0.046875 -0.105256 173 166 173
0.039062 0.046875 -0.102606 173 168 175
0.042969 0.046875 -0.098183 172 167 174
0.046875 0.046875 -0.093277 169 166 175
0.050781 0.046875 -0.091230 168 165 174
0.054688 0.046875 -0.092684 166 163 172
0.058594 0.046875 -0.122872 178 175 192
0.062500 0.046875 -0.127489 159 156 173
0.066406 0.046875 -0.131850 136 133 150
0.070312 0.046875 -0.134371 143 140 157
0.074219 0.046875 -0.137757 154 151 168
0.078125 0.046875 -0.142253 162 159 176
0.082031 0.046875 -0.145387 159 156 173
0.085938 0.046875 -0.146688 169 166 182
0.089844 0.046875 -0.149151 170 167 184
0.093750 0.046875 -0.150841 167 164 181
0.097656 0.046875 -0.151633 158 155 172
0.101562 0.046875 -0.150652 161 158 175
0.105469 0.046875 -0.149928 173 170 186
0.109375 0.046875 -0.149825 167 166 175
0.113281 0.046875 -0.146956 156 135 136
0.117188 0.046875 -0.145783 187 147 149
0.121094 0.046875 -0.147294 209 180 162
-0.230469 0.042969 -0.121250 160 112 81
-0.226562 0.042969 -0.124886 186 164 136
-0.222656 0.042969 -0.125696 180 139 103
-0.218750 0.042969 -0.126425 160 112 81
-0.214844 0.042969 -0.127111 177 127 92
-0.210938 0.042969 -0.128113 183 133 97
-0.207031 0.042969 -0.130376 185 134 99
-0.203125 0.042969 -0.131770 190 140 105
-0.199219 0.042969 -0.133191 194 145 109
-0.195312 0.042969 -0.133223 195 146 110
-0.191406 0.042969 -0.133385 196 150 115
-0.187500 0.042969 -0.133015 188 144 112
-0.183594 0.042969 -0.128029 167 124 101
-0.179688 0.042969 -0.123823 161 123 107
-0.175781 0.042969 -0.112972 160 139 130
-0.160156 0.042969 -0.012966 219 217 218
-0.156250 0.042969 -0.022859 221 221 221
-0.152344 0.042969 -0.032044 206 205 206
-0.148438 0.042969 -0.040124 201 201 201
-0.144531 0.042969 -0.048189 209 208 208
-0.140625 0.042969 -0.054872 217 217 217
-0.136719 0.042969 -0.060938 220 220 220
-0.132812 0.042969 -0.065877 222 222 222
-0.128906 0.042969 -0.070904 224 223 224
-0.125000 0.042969 -0.075809 227 225 227
-0.121094 0.042969 -0.080119 229 228 229
-0.117188 0.042969 -0.083888 231 229 230
-0.113281 0.042969 -0.087864 231 230 230
-0.109375 0.042969 -0.091781 230 228 229
-0.105469 0.042969 -0.095414 227 223 224
-0.101562 0.042969 -0.098770 221 214 219
-0.097656 0.042969 -0.102100 220 211 216
-0.093750 0.042969 -0.105331 220 214 217
-0.089844 0.042969 -0.108448 216 210 208
-0.085938 0.042969 -0.111498 167 153 150
-0.082031 0.042969 -0.114346 123 105 99
-0.078125 0.042969 -0.117042 109 84 77
-0.074219 0.042969 -0.119287 90 62 54
-0.070312 0.042969 -0.121200 110 82 71
-0.066406 0.042969 -0.122850 80 66 63
-0.062500 0.042969 -0.124172 85 70 68
-0.058594 0.042969 -0.125309 90 75 73
-0.054688 0.042969 -0.126216 90 75 72
-0.050781 0.042969 -0.126923 82 68 65
-0.046875 0.042969 -0.127376 80 66 63
-0.042969 0.042969 -0.127772 91 77 76
-0.039062 0.042969 -0.128013 105 91 90
-0.035156 0.042969 -0.128067 90 76 75
-0.031250 0.042969 -0.127932 114 98 98
-0.027344 0.042969 -0.127573 135 119 119
-0.023438 0.042969 -0.126943 141 125 126
-0.019531 0.042969 -0.126179 139 123 124
-0.015625 0.042969 -0.125297 130 114 115
-0.011719 0.042969 -0.124269 105 89 90
-0.007812 0.042969 -0.123217 79 63 64
-0.003906 0.042969 -0.121981 108 87 82
0.000000 0.042969 -0.120745 118 97 92
0.003906 0.042969 -0.119289 104 83 78
0.007812 0.042969 -0.117750 95 76 70
0.011719 0.042969 -0.116244 101 82 78
0.015625 0.042969 -0.114633 91 73 69
0.019531 0.042969 -0.112954 107 89 87
0.023438 0.042969 -0.111077 158 143 140
0.027344 0.042969 -0.108858 176 160 160
0.031250 0.042969 -0.106494 181 167 166
0.035156 0.042969 -0.103973 178 166 166
0.039062 0.042969 -0.101278 167 155 155
0.042969 0.042969 -0.096777 159 149 150
0.046875 0.042969 -0.091887 163 153 154
0.050781 0.042969 -0.089751 170 160 161
0.054688 0.042969 -0.087000 174 164 165
0.058594 0.042969 -0.121117 181 170 186
0.062500 0.042969 -0.127651 161 150 166
0.066406 0.042969 -0.132152 123 112 128
0.070312 0.042969 -0.135118 158 147 163
0.074219 0.042969 -0.138829 157 146 162
0.078125 0.042969 -0.143574 162 151 167
0.082031 0.042969 -0.146938 139 128 143
0.085938 0.042969 -0.148248 165 154 170
0.089844 0.042969 -0.151083 174 163 179
0.093750 0.042969 -0.153049 181 170 186
0.097656 0.042969 -0.154104 177 166 182
0.101562 0.042969 -0.153551 167 156 172
0.105469 0.042969 -0.153068 158 148 163
0.109375 0.042969 -0.153151 145 135 149
0.113281 0.042969 -0.150848 121 105 117
0.117188 0.042969 -0.150080 177 141 153
0.121094 0.042969 -0.146947 215 191 179
0.125000 0.042969 -0.143420 234 224 208
-0.230469 0.039062 -0.129761 166 116 84
-0.226562 0.039062 -0.125523 188 165 134
-0.222656 0.039062 -0.127536 183 140 103
-0.218750 0.039062 -0.128115 166 116 84
-0.214844 0.039062 -0.128695 179 129 94
-0.210938 0.039062 -0.129937 185 135 100
-0.207031 0.039062 -0.132182 188 137 103
-0.203125 0.039062 -0.133582 193 143 108
-0.199219 0.039062 -0.134911 198 148 112
-0.195312 0.039062 -0.134785 197 149 112
-0.191406 0.039062 -0.134969 196 150 115
-0.187500 0.039062 -0.134667 187 144 112
-0.183594 0.039062 -0.130051 165 123 101
-0.179688 0.039062 -0.124083 158 123 110
-0.175781 0.039062 -0.115719 158 138 137
-0.160156 0.039062 -0.007875 226 225 225
-0.156250 0.039062 -0.022054 221 220 220
-0.152344 0.039062 -0.031080 207 206 206
-0.148438 0.039062 -0.039116 202 201 201
-0.144531 0.039062 -0.047391 208 207 207
-0.140625 0.039062 -0.054027 215 215 215
-0.136719 0.039062 -0.060093 218 218 218
-0.132812 0.039062 -0.065152 220 220 220
-0.128906 0.039062 -0.070246 222 220 222
-0.125000 0.039062 -0.075260 224 222 224
-0.121094 0.039062 -0.079725 227 225 226
-0.117188 0.039062 -0.083657 229 227 228
-0.113281 0.039062 -0.087778 230 228 229
-0.109375 0.039062 -0.091834 230 229 229
-0.105469 0.039062 -0.095561 228 226 228
-0.101562 0.039062 -0.098991 225 221 226
-0.097656 0.039062 -0.102377 219 213 218
-0.093750 0.039062 -0.105645 215 209 213
-0.089844 0.039062 -0.108766 205 201 202
-0.085938 0.039062 -0.111782 174 167 166
-0.082031 0.039062 -0.114569 153 144 142
-0.078125 0.039062 -0.117184 163 148 146
-0.074219 0.039062 -0.119304 157 136 134
-0.070312 0.039062 -0.121045 143 121 115
-0.066406 0.039062 -0.122527 134 118 117
-0.062500 0.039062 -0.123677 121 106 104
-0.058594 0.039062 -0.124636 108 94 91
-0.054688 0.039062 -0.125384 98 84 81
-0.050781 0.039062 -0.125938 84 70 67
-0.046875 0.039062 -0.126246 74 59 56
-0.042969 0.039062 -0.126537 80 65 60
-0.039062 0.039062 -0.126708 94 79 74
-0.035156 0.039062 -0.126712 58 40 36
-0.031250 0.039062 -0.126530 73 55 51
-0.027344 0.039062 -0.126132 87 69 65
-0.023438 0.039062 -0.125489 91 72 68
-0.019531 0.039062 -0.124713 88 69 65
-0.015625 0.039062 -0.123844 87 68 64
-0.011719 0.039062 -0.122856 85 66 62
-0.007812 0.039062 -0.121845 83 64 60
-0.003906 0.039062 -0.120652 81 58 52
0.000000 0.039062 -0.119458 80 57 51
0.003906 0.039062 -0.118029 77 54 48
0.007812 0.039062 -0.116502 94 71 65
0.011719 0.039062 -0.115028 114 94 87
0.015625 0.039062 -0.113452 106 85 80
0.019531 0.039062 -0.111764 98 79 73
0.023438 0.039062 -0.109867 117 98 92
0.027344 0.039062 -0.107624 140 123 116
0.031250 0.039062 -0.105216 149 132 125
0.035156 0.039062 -0.102658 146 131 126
0.039062 0.039062 -0.099903 135 120 115
0.042969 0.039062 -0.095365 125 112 106
0.046875 0.039062 -0.090484 128 115 109
0.050781 0.039062 -0.087995 132 119 113
0.054688 0.039062 -0.083820 132 119 113
0.058594 0.039062 -0.117361 142 129 139
0.062500 0.039062 -0.127896 136 123 133
0.066406 0.039062 -0.132324 113 100 110
0.070312 0.039062 -0.135715 159 146 156
0.074219 0.039062 -0.139790 162 150 159
0.078125 0.039062 -0.144829 153 141 151
0.082031 0.039062 -0.148442 114 102 111
0.085938 0.039062 -0.149788 138 125 135
0.089844 0.039062 -0.153047 155 142 152
0.093750 0.039062 -0.155198 156 143 153
0.097656 0.039062 -0.156479 142 130 139
0.101562 0.039062 -0.156276 129 116 126
0.105469 0.039062 -0.155995 123 110 120
0.109375 0.039062 -0.155874 117 105 114
0.113281 0.039062 -0.153967 116 104 112
0.117188 0.039062 -0.153271 179 152 159
0.121094 0.039062 -0.148450 219 194 188
0.125000 0.039062 -0.144289 236 222 212
-0.230469 0.035156 -0.125024 181 151 130
-0.226562 0.035156 -0.127529 182 153 121
-0.222656 0.035156 -0.127925 183 138 99
-0.218750 0.035156 -0.129520 171 121 87
-0.214844 0.035156 -0.129911 181 131 96
-0.210938 0.035156 -0.131375 187 138 102
-0.207031 0.035156 -0.133613 191 140 106
-0.203125 0.035156 -0.135109 196 147 112
-0.199219 0.035156 -0.136331 201 151 115
-0.195312 0.035156 -0.136060 200 151 114
-0.191406 0.035156 -0.136243 196 150 115
-0.187500 0.035156 -0.135802 186 143 112
-0.183594 0.035156 -0.131782 160 122 100
-0.179688 0.035156 -0.126176 149 119 106
-0.175781 0.035156 -0.120146 151 132 133
-0.160156 0.035156 -0.004076 228 227 228
-0.156250 0.035156 -0.021787 217 216 216
-0.152344 0.035156 -0.030275 207 206 206
-0.148438 0.035156 -0.038268 202 202 202
-0.144531 0.035156 -0.046651 206 206 206
-0.140625 0.035156 -0.053205 213 213 213
-0.136719 0.035156 -0.059291 216 216 216
-0.132812 0.035156 -0.064438 218 218 218
-0.128906 0.035156 -0.069596 221 218 221
-0.125000 0.035156 -0.074722 223 221 223
-0.121094 0.035156 -0.079342 225 223 225
-0.117188 0.035156 -0.083446 228 226 227
-0.113281 0.035156 -0.087707 229 227 229
-0.109375 0.035156 -0.091906 230 229 229
-0.105469 0.035156 -0.095731 229 227 229
-0.101562 0.035156 -0.099246 227 224 228
-0.097656 0.035156 -0.102697 224 219 225
-0.093750 0.035156 -0.106002 222 217 222
-0.089844 0.035156 -0.109135 201 198 200
-0.085938 0.035156 -0.112117 161 158 160
-0.082031 0.035156 -0.114836 127 125 125
-0.078125 0.035156 -0.117362 127 124 125
-0.074219 0.035156 -0.119355 155 150 151
-0.070312 0.035156 -0.120944 187 179 180
-0.066406 0.035156 -0.122274 206 194 197
-0.062500 0.035156 -0.123264 205 195 194
-0.058594 0.035156 -0.124059 182 172 170
-0.054688 0.035156 -0.124644 148 137 135
-0.050781 0.035156 -0.125052 111 100 98
-0.046875 0.035156 -0.125229 86 75 71
-0.042969 0.035156 -0.125426 83 69 66
-0.039062 0.035156 -0.125527 89 75 72
-0.035156 0.035156 -0.125464 99 84 79
-0.031250 0.035156 -0.125215 89 71 67
-0.027344 0.035156 -0.124771 80 62 58
-0.023438 0.035156 -0.124117 81 64 57
-0.019531 0.035156 -0.123318 85 66 60
-0.015625 0.035156 -0.122455 85 66 60
-0.011719 0.035156 -0.121493 87 68 62
-0.007812 0.035156 -0.120499 90 71 65
-0.003906 0.035156 -0.119351 93 69 65
0.000000 0.035156 -0.118205 97 73 69
0.003906 0.035156 -0.116799 98 74 70
0.007812 0.035156 -0.115294 99 78 73
0.011719 0.035156 -0.113856 107 86 81
0.015625 0.035156 -0.112315 105 84 79
0.019531 0.035156 -0.110614 86 67 61
0.023438 0.035156 -0.108670 68 49 43
0.027344 0.035156 -0.106390 94 77 70
0.031250 0.035156 -0.103939 105 88 81
0.035156 0.035156 -0.101346 107 92 85
0.039062 0.035156 -0.098541 103 89 80
0.042969 0.035156 -0.093989 100 86 77
0.046875 0.035156 -0.089168 101 88 79
0.050781 0.035156 -0.086255 97 84 75
0.054688 0.035156 -0.081565 87 74 65
0.058594 0.035156 -0.112405 91 78 85
0.062500 0.035156 -0.128324 98 85 92
0.066406 0.035156 -0.132348 96 83 90
0.070312 0.035156 -0.136199 111 98 105
0.074219 0.035156 -0.140657 140 127 134
0.078125 0.035156 -0.146010 120 107 114
0.082031 0.035156 -0.149835 97 84 91
0.085938 0.035156 -0.151168 105 93 100
0.089844 0.035156 -0.154712 121 108 115
0.093750 0.035156 -0.157068 114 101 108
0.097656 0.035156 -0.158621 94 81 88
0.101562 0.035156 -0.158727 86 73 80
0.105469 0.035156 -0.158791 97 84 91
0.109375 0.035156 -0.158771 101 88 95
0.113281 0.035156 -0.157191 93 80 86
0.117188 0.035156 -0.155589 143 130 127
0.121094 0.035156 -0.153603 222 198 191
0.125000 0.035156 -0.145276 237 220 214
-0.230469 0.031250 -0.129018 188 155 132
-0.226562 0.031250 -0.128162 180 146 112
-0.222656 0.031250 -0.129129 187 142 100
-0.218750 0.031250 -0.130575 177 126 91
-0.214844 0.031250 -0.131182 183 132 97
-0.210938 0.031250 -0.132728 189 139 104
-0.207031 0.031250 -0.134929 194 143 108
-0.203125 0.031250 -0.136388 199 150 115
-0.199219 0.031250 -0.137466 203 154 117
-0.195312 0.031250 -0.137182 201 152 116
-0.191406 0.031250 -0.137323 196 150 115
-0.187500 0.031250 -0.136384 185 144 113
-0.183594 0.031250 -0.132651 153 118 97
-0.179688 0.031250 -0.127422 136 109 98
-0.175781 0.031250 -0.121741 149 132 129
-0.160156 0.031250 -0.001425 200 200 200
-0.156250 0.031250 -0.021430 209 208 208
-0.152344 0.031250 -0.029480 203 202 203
-0.148438 0.031250 -0.037469 200 200 200
-0.144531 0.031250 -0.045946 204 204 204
-0.140625 0.031250 -0.052476 211 211 211
-0.136719 0.031250 -0.058604 214 214 214
-0.132812 0.031250 -0.063803 216 216 216
-0.128906 0.031250 -0.069052 219 217 219
-0.125000 0.031250 -0.074297 221 219 221
-0.121094 0.031250 -0.079060 224 222 224
-0.117188 0.031250 -0.083322 227 224 226
-0.113281 0.031250 -0.087716 228 226 227
-0.109375 0.031250 -0.092033 228 228 228
-0.105469 0.031250 -0.095969 227 227 229
-0.101562 0.031250 -0.099577 226 225 229
-0.097656 0.031250 -0.103082 227 225 228
-0.093750 0.031250 -0.106417 223 220 223
-0.089844 0.031250 -0.109550 198 196 198
-0.085938 0.031250 -0.112497 175 174 175
-0.082031 0.031250 -0.115157 138 134 135
-0.078125 0.031250 -0.117586 115 112 112
-0.074219 0.031250 -0.119452 114 112 113
-0.070312 0.031250 -0.120890 116 111 112
-0.066406 0.031250 -0.122054 129 125 130
-0.062500 0.031250 -0.122875 147 144 148
-0.058594 0.031250 -0.123504 163 159 161
-0.054688 0.031250 -0.123932 171 167 167
-0.050781 0.031250 -0.124189 183 176 177
-0.046875 0.031250 -0.124240 193 187 185
-0.042969 0.031250 -0.124357 188 179 178
-0.039062 0.031250 -0.124402 174 165 163
-0.035156 0.031250 -0.124275 153 142 140
-0.031250 0.031250 -0.123968 137 123 120
-0.027344 0.031250 -0.123499 121 108 102
-0.023438 0.031250 -0.122850 112 97 92
-0.019531 0.031250 -0.122054 99 84 79
-0.015625 0.031250 -0.121197 84 67 60
-0.011719 0.031250 -0.120246 79 62 55
-0.007812 0.031250 -0.119262 86 69 62
-0.003906 0.031250 -0.118147 87 67 66
0.000000 0.031250 -0.117037 85 65 64
0.003906 0.031250 -0.115646 98 80 78
0.007812 0.031250 -0.114148 108 90 88
0.011719 0.031250 -0.112723 97 79 77
0.015625 0.031250 -0.111201 87 69 65
0.019531 0.031250 -0.109479 90 75 70
0.023438 0.031250 -0.107479 96 81 76
0.027344 0.031250 -0.105147 84 69 64
0.031250 0.031250 -0.102624 93 80 72
0.035156 0.031250 -0.099970 100 87 79
0.039062 0.031250 -0.097113 101 88 80
0.042969 0.031250 -0.092570 104 94 85
0.046875 0.031250 -0.087854 108 98 89
0.050781 0.031250 -0.084653 98 88 78
0.054688 0.031250 -0.079670 81 71 61
0.058594 0.031250 -0.106291 91 80 84
0.062500 0.031250 -0.128967 100 89 93
0.066406 0.031250 -0.132202 106 95 99
0.070312 0.031250 -0.136690 81 70 74
0.074219 0.031250 -0.141557 133 122 126
0.078125 0.031250 -0.147216 112 101 105
0.082031 0.031250 -0.151117 115 104 108
0.085938 0.031250 -0.152675 115 104 108
0.089844 0.031250 -0.156309 92 81 85
0.093750 0.031250 -0.158834 100 89 93
0.097656 0.031250 -0.160592 95 84 88
0.101562 0.031250 -0.160978 87 76 80
0.105469 0.031250 -0.161330 94 83 87
0.109375 0.031250 -0.161432 96 85 89
0.113281 0.031250 -0.160163 89 78 82
0.117188 0.031250 -0.157736 105 95 94
0.121094 0.031250 -0.156659 212 191 180
0.125000 0.031250 -0.155378 235 218 210
-0.234375 0.027344 -0.111490 185 136 97
-0.230469 0.027344 -0.133972 189 155 128
-0.226562 0.027344 -0.129824 169 124 97
-0.222656 0.027344 -0.130209 185 136 97
-0.218750 0.027344 -0.131597 181 129 93
-0.214844 0.027344 -0.132420 184 134 98
-0.210938 0.027344 -0.133912 190 141 105
-0.207031 0.027344 -0.136031 196 146 110
-0.203125 0.027344 -0.137421 201 152 117
-0.199219 0.027344 -0.138386 205 156 119
-0.195312 0.027344 -0.138122 203 153 117
-0.191406 0.027344 -0.138154 196 149 116
-0.187500 0.027344 -0.137343 184 143 112
-0.183594 0.027344 -0.133242 145 111 92
-0.179688 0.027344 -0.129420 120 96 91
-0.160156 0.027344 0.001551 195 194 194
-0.156250 0.027344 -0.021148 199 197 198
-0.152344 0.027344 -0.028722 196 194 195
-0.148438 0.027344 -0.036661 195 194 194
-0.144531 0.027344 -0.045287 199 199 199
-0.140625 0.027344 -0.051915 207 207 207
-0.136719 0.027344 -0.057999 212 211 211
-0.132812 0.027344 -0.063253 214 214 214
-0.128906 0.027344 -0.068639 218 216 218
-0.125000 0.027344 -0.073984 220 218 220
-0.121094 0.027344 -0.078880 223 221 223
-0.117188 0.027344 -0.083300 225 224 225
-0.113281 0.027344 -0.087814 226 224 225
-0.109375 0.027344 -0.092220 226 224 226
-0.105469 0.027344 -0.096255 225 226 227
-0.101562 0.027344 -0.099945 225 225 227
-0.097656 0.027344 -0.103497 222 222 225
-0.093750 0.027344 -0.106860 217 218 221
-0.089844 0.027344 -0.109990 204 206 208
-0.085938 0.027344 -0.112903 183 183 184
-0.082031 0.027344 -0.115509 154 153 153
-0.078125 0.027344 -0.117833 131 131 130
-0.074219 0.027344 -0.119584 118 116 117
-0.070312 0.027344 -0.120864 112 110 110
-0.066406 0.027344 -0.121864 112 110 115
-0.062500 0.027344 -0.122521 117 116 120
-0.058594 0.027344 -0.122997 122 121 124
-0.054688 0.027344 -0.123293 123 122 125
-0.050781 0.027344 -0.123416 134 133 135
-0.046875 0.027344 -0.123356 157 156 158
-0.042969 0.027344 -0.123398 185 182 183
-0.039062 0.027344 -0.123384 207 203 203
-0.035156 0.027344 -0.123207 223 218 218
-0.031250 0.027344 -0.122858 234 227 225
-0.027344 0.027344 -0.122368 235 227 224
-0.023438 0.027344 -0.121721 229 219 217
-0.019531 0.027344 -0.120925 217 208 204
-0.015625 0.027344 -0.120064 204 193 189
-0.011719 0.027344 -0.119135 191 181 177
-0.007812 0.027344 -0.118173 184 173 169
-0.003906 0.027344 -0.117077 167 155 157
0.000000 0.027344 -0.115985 160 148 150
0.003906 0.027344 -0.114601 150 138 140
0.007812 0.027344 -0.113099 139 127 127
0.011719 0.027344 -0.111672 130 118 118
0.015625 0.027344 -0.110149 126 114 114
0.019531 0.027344 -0.108391 124 114 112
0.023438 0.027344 -0.106340 125 115 113
0.027344 0.027344 -0.103963 126 116 114
0.031250 0.027344 -0.101367 123 114 109
0.035156 0.027344 -0.098648 117 110 104
0.039062 0.027344 -0.095733 109 102 96
0.042969 0.027344 -0.091224 102 95 87
0.046875 0.027344 -0.086671 95 88 80
0.050781 0.027344 -0.083248 89 82 74
0.054688 0.027344 -0.078378 86 79 71
0.058594 0.027344 -0.098487 85 79 79
0.062500 0.027344 -0.129968 87 81 81
0.066406 0.027344 -0.131803 90 84 84
0.070312 0.027344 -0.137155 93 87 87
0.074219 0.027344 -0.142369 97 91 91
0.078125 0.027344 -0.148313 100 95 95
0.082031 0.027344 -0.151938 104 98 98
0.085938 0.027344 -0.154221 107 101 101
0.089844 0.027344 -0.157885 93 87 87
0.093750 0.027344 -0.160554 93 87 87
0.097656 0.027344 -0.162472 94 88 88
0.101562 0.027344 -0.163091 95 89 89
0.105469 0.027344 -0.163547 96 90 90
0.109375 0.027344 -0.163372 97 91 91
0.113281 0.027344 -0.162282 97 92 91
0.117188 0.027344 -0.159868 120 114 106
0.121094 0.027344 -0.158644 215 191 179
0.125000 0.027344 -0.155039 231 209 202
0.128906 0.027344 -0.152573 187 154 152
-0.234375 0.023438 -0.137453 183 131 95
-0.230469 0.023438 -0.132219 181 151 130
-0.226562 0.023438 -0.130866 169 121 93
-0.222656 0.023438 -0.131249 183 131 95
-0.218750 0.023438 -0.132135 185 132 96
-0.214844 0.023438 -0.133269 186 135 99
-0.210938 0.023438 -0.134726 192 143 106
-0.207031 0.023438 -0.136788 198 148 111
-0.203125 0.023438 -0.138101 203 154 118
-0.199219 0.023438 -0.138943 207 157 120
-0.195312 0.023438 -0.138767 204 154 118
-0.191406 0.023438 -0.138621 195 146 114
-0.187500 0.023438 -0.138567 181 138 110
-0.183594 0.023438 -0.133938 141 108 93
-0.179688 0.023438 -0.127207 114 97 97
-0.160156 0.023438 0.003057 194 194 194
-0.156250 0.023438 -0.020856 193 190 192
-0.152344 0.023438 -0.028036 193 192 192
-0.148438 0.023438 -0.036004 194 194 194
-0.144531 0.023438 -0.044738 199 199 199
-0.140625 0.023438 -0.051416 206 206 206
-0.136719 0.023438 -0.057540 210 210 210
-0.132812 0.023438 -0.062913 214 214 214
-0.128906 0.023438 -0.068437 217 216 217
-0.125000 0.023438 -0.073890 220 219 220
-0.121094 0.023438 -0.078923 223 221 222
-0.117188 0.023438 -0.083486 225 223 224
-0.113281 0.023438 -0.088107 225 223 224
-0.109375 0.023438 -0.092599 224 222 224
-0.105469 0.023438 -0.096710 222 222 223
-0.101562 0.023438 -0.100468 220 221 222
-0.097656 0.023438 -0.104055 217 217 221
-0.093750 0.023438 -0.107442 213 214 217
-0.089844 0.023438 -0.110571 205 207 209
-0.085938 0.023438 -0.113448 192 194 195
-0.082031 0.023438 -0.116004 178 181 180
-0.078125 0.023438 -0.118256 171 172 170
-0.074219 0.023438 -0.119891 167 167 166
-0.070312 0.023438 -0.121009 167 167 166
-0.066406 0.023438 -0.121844 168 168 173
-0.062500 0.023438 -0.122329 172 173 177
-0.058594 0.023438 -0.122635 176 178 181
-0.054688 0.023438 -0.122776 179 181 184
-0.050781 0.023438 -0.122755 186 187 190
-0.046875 0.023438 -0.122561 195 196 199
-0.042969 0.023438 -0.122496 201 202 205
-0.039062 0.023438 -0.122419 207 207 208
-0.035156 0.023438 -0.122192 212 211 213
-0.031250 0.023438 -0.121800 221 219 220
-0.027344 0.023438 -0.121287 228 226 225
-0.023438 0.023438 -0.120633 232 231 230
-0.019531 0.023438 -0.119828 233 231 228
-0.015625 0.023438 -0.118966 234 229 227
-0.011719 0.023438 -0.118059 232 228 225
-0.007812 0.023438 -0.117118 229 225 222
-0.003906 0.023438 -0.116047 235 234 235
0.000000 0.023438 -0.114968 237 235 237
0.003906 0.023438 -0.113589 240 237 240
0.007812 0.023438 -0.112069 245 240 244
0.011719 0.023438 -0.110624 248 244 246
0.015625 0.023438 -0.109085 250 248 249
0.019531 0.023438 -0.107274 251 250 251
0.023438 0.023438 -0.105159 252 251 250
0.027344 0.023438 -0.102738 246 242 241
0.031250 0.023438 -0.100097 244 240 239
0.035156 0.023438 -0.097322 241 237 234
0.039062 0.023438 -0.094353 236 232 229
0.042969 0.023438 -0.089872 229 228 224
0.046875 0.023438 -0.085480 224 223 219
0.050781 0.023438 -0.081999 220 219 214
0.054688 0.023438 -0.077841 218 217 212
0.058594 0.023438 -0.089778 216 215 211
0.062500 0.023438 -0.130702 215 214 210
0.066406 0.023438 -0.131336 213 212 208
0.070312 0.023438 -0.137554 209 208 204
0.074219 0.023438 -0.143083 205 204 201
0.078125 0.023438 -0.149266 206 205 201
0.082031 0.023438 -0.152717 211 210 207
0.085938 0.023438 -0.155726 219 218 214
0.089844 0.023438 -0.159027 227 226 222
0.093750 0.023438 -0.161790 230 229 225
0.097656 0.023438 -0.163909 233 232 228
0.101562 0.023438 -0.164808 234 233 229
0.105469 0.023438 -0.165448 236 235 231
0.109375 0.023438 -0.165191 236 235 231
0.113281 0.023438 -0.164353 230 231 224
0.117188 0.023438 -0.162070 216 208 190
0.121094 0.023438 -0.160508 223 199 187
0.125000 0.023438 -0.155788 228 203 194
0.128906 0.023438 -0.152391 184 148 148
-0.234375 0.019531 -0.133461 182 130 93
-0.230469 0.019531 -0.130837 188 155 132
-0.226562 0.019531 -0.131818 164 115 86
-0.222656 0.019531 -0.131835 182 130 93
-0.218750 0.019531 -0.132659 187 135 98
-0.214844 0.019531 -0.134108 187 136 99
-0.210938 0.019531 -0.135370 193 143 106
-0.207031 0.019531 -0.137356 199 150 112
-0.203125 0.019531 -0.138596 205 156 118
-0.199219 0.019531 -0.139441 208 158 121
-0.195312 0.019531 -0.139517 206 154 119
-0.191406 0.019531 -0.138869 195 144 114
-0.187500 0.019531 -0.139520 182 139 112
-0.183594 0.019531 -0.133989 137 105 97
-0.179688 0.019531 -0.130557 101 92 92
-0.160156 0.019531 0.002366 198 197 198
-0.156250 0.019531 -0.019866 196 191 195
-0.152344 0.019531 -0.027326 196 194 195
-0.148438 0.019531 -0.035553 198 197 198
-0.144531 0.019531 -0.044223 201 201 201
-0.140625 0.019531 -0.051042 207 207 207
-0.136719 0.019531 -0.057276 211 211 211
-0.132812 0.019531 -0.062791 214 214 214
-0.128906 0.019531 -0.068438 217 216 217
-0.125000 0.019531 -0.074003 220 219 220
-0.121094 0.019531 -0.079168 223 221 222
-0.117188 0.019531 -0.083849 225 223 224
-0.113281 0.019531 -0.088563 224 223 224
-0.109375 0.019531 -0.093136 222 221 222
-0.105469 0.019531 -0.097297 221 219 221
-0.101562 0.019531 -0.101121 217 218 219
-0.097656 0.019531 -0.104736 214 215 218
-0.093750 0.019531 -0.108134 212 213 216
-0.089844 0.019531 -0.111257 209 211 213
-0.085938 0.019531 -0.114102 203 205 207
-0.082031 0.019531 -0.116629 198 200 201
-0.078125 0.019531 -0.118821 196 199 197
-0.074219 0.019531 -0.120352 195 198 195
-0.070312 0.019531 -0.121308 196 199 196
-0.066406 0.019531 -0.121977 197 199 202
-0.062500 0.019531 -0.122288 200 202 205
-0.058594 0.019531 -0.122414 202 205 207
-0.054688 0.019531 -0.122383 204 207 210
-0.050781 0.019531 -0.122203 208 212 213
-0.046875 0.019531 -0.121858 212 214 216
-0.042969 0.019531 -0.121684 213 215 217
-0.039062 0.019531 -0.121547 213 215 217
-0.035156 0.019531 -0.121255 207 208 211
-0.031250 0.019531 -0.120810 211 212 214
-0.027344 0.019531 -0.120269 217 218 219
-0.023438 0.019531 -0.119618 221 221 221
-0.019531 0.019531 -0.118816 222 222 222
-0.015625 0.019531 -0.117958 220 220 220
-0.011719 0.019531 -0.117061 218 218 216
-0.007812 0.019531 -0.116132 216 216 214
-0.003906 0.019531 -0.115072 205 204 209
0.000000 0.019531 -0.114005 207 206 211
0.003906 0.019531 -0.112609 211 210 214
0.007812 0.019531 -0.111053 219 218 222
0.011719 0.019531 -0.109585 226 225 229
0.015625 0.019531 -0.108026 230 229 233
0.019531 0.019531 -0.106168 234 233 236
0.023438 0.019531 -0.103964 237 237 238
0.027344 0.019531 -0.101481 242 242 242
0.031250 0.019531 -0.098799 244 244 245
0.035156 0.019531 -0.095959 245 247 246
0.039062 0.019531 -0.092929 244 246 245
0.042969 0.019531 -0.088513 242 244 243
0.046875 0.019531 -0.084324 239 241 240
0.050781 0.019531 -0.080775 236 238 237
0.054688 0.019531 -0.077098 233 235 234
0.058594 0.019531 -0.082581 233 234 232
0.062500 0.019531 -0.130166 225 227 224
0.066406 0.019531 -0.130838 215 216 214
0.070312 0.019531 -0.137840 208 209 207
0.074219 0.019531 -0.143661 201 203 201
0.078125 0.019531 -0.149837 196 199 195
0.082031 0.019531 -0.153520 198 203 198
0.085938 0.019531 -0.156808 211 216 210
0.089844 0.019531 -0.159968 226 229 225
0.093750 0.019531 -0.162955 238 241 237
0.097656 0.019531 -0.165198 243 245 242
0.101562 0.019531 -0.166153 245 247 244
0.105469 0.019531 -0.166982 244 246 243
0.109375 0.019531 -0.166847 236 241 235
0.113281 0.019531 -0.166088 209 210 198
0.117188 0.019531 -0.163557 214 192 182
0.121094 0.019531 -0.162346 223 195 184
0.125000 0.019531 -0.157145 222 195 181
0.128906 0.019531 -0.152722 181 148 145
-0.234375 0.015625 -0.129829 184 132 94
-0.230469 0.015625 -0.132003 189 155 128
-0.226562 0.015625 -0.132435 166 118 88
-0.222656 0.015625 -0.131666 184 132 94
-0.218750 0.015625 -0.132996 189 137 99
-0.214844 0.015625 -0.134528 189 138 100
-0.210938 0.015625 -0.135637 195 145 107
-0.207031 0.015625 -0.137602 201 152 112
-0.203125 0.015625 -0.138707 207 157 118
-0.199219 0.015625 -0.139594 209 158 120
-0.195312 0.015625 -0.139835 206 154 118
-0.191406 0.015625 -0.139068 196 145 113
-0.187500 0.015625 -0.140473 185 143 117
-0.183594 0.015625 -0.134020 128 96 96
-0.179688 0.015625 -0.130676 64 56 61
-0.160156 0.015625 0.001302 201 200 200
-0.156250 0.015625 -0.018731 197 190 196
-0.152344 0.015625 -0.026816 197 194 196
-0.148438 0.015625 -0.035017 201 200 200
-0.144531 0.015625 -0.043769 204 203 204
-0.140625 0.015625 -0.050820 208 208 208
-0.136719 0.015625 -0.057216 211 211 211
-0.132812 0.015625 -0.062877 214 214 214
-0.128906 0.015625 -0.068670 218 217 218
-0.125000 0.015625 -0.074364 220 220 220
-0.121094 0.015625 -0.079648 222 222 222
-0.117188 0.015625 -0.084433 224 222 223
-0.113281 0.015625 -0.089232 223 222 223
-0.109375 0.015625 -0.093858 221 220 221
-0.105469 0.015625 -0.098053 219 218 219
-0.101562 0.015625 -0.101924 217 215 217
-0.097656 0.015625 -0.105568 215 214 216
-0.093750 0.015625 -0.108974 214 214 216
-0.089844 0.015625 -0.112089 211 213 215
-0.085938 0.015625 -0.114924 210 212 213
-0.082031 0.015625 -0.117406 209 211 211
-0.078125 0.015625 -0.119536 209 211 210
-0.074219 0.015625 -0.120966 210 212 209
-0.070312 0.015625 -0.121767 211 213 210
-0.066406 0.015625 -0.122280 211 214 216
-0.062500 0.015625 -0.122419 213 216 217
-0.058594 0.015625 -0.122377 214 218 218
-0.054688 0.015625 -0.122182 215 219 220
-0.050781 0.015625 -0.121849 218 220 222
-0.046875 0.015625 -0.121372 220 223 224
-0.042969 0.015625 -0.121102 221 224 225
-0.039062 0.015625 -0.120901 222 224 225
-0.035156 0.015625 -0.120542 222 225 226
-0.031250 0.015625 -0.120036 222 226 227
-0.027344 0.015625 -0.119458 223 226 227
-0.023438 0.015625 -0.118796 221 225 226
-0.019531 0.015625 -0.117981 218 222 221
-0.015625 0.015625 -0.117124 214 217 217
-0.011719 0.015625 -0.116242 210 214 213
-0.007812 0.015625 -0.115334 208 209 208
-0.003906 0.015625 -0.114257 207 209 209
0.000000 0.015625 -0.113183 204 206 206
0.003906 0.015625 -0.111749 201 203 203
0.007812 0.015625 -0.110131 200 203 203
0.011719 0.015625 -0.108606 202 204 204
0.015625 0.015625 -0.106986 202 206 206
0.019531 0.015625 -0.105070 203 207 209
0.023438 0.015625 -0.102779 207 210 213
0.027344 0.015625 -0.100232 216 219 219
0.031250 0.015625 -0.097510 221 224 224
0.035156 0.015625 -0.094625 224 227 227
0.039062 0.015625 -0.091578 225 228 228
0.042969 0.015625 -0.087251 223 226 226
0.046875 0.015625 -0.083226 216 219 219
0.050781 0.015625 -0.079776 206 209 209
0.054688 0.015625 -0.076572 199 202 202
0.058594 0.015625 -0.077595 198 200 200
0.062500 0.015625 -0.128164 195 197 197
0.066406 0.015625 -0.130573 191 193 193
0.070312 0.015625 -0.138226 187 189 190
0.074219 0.015625 -0.144374 177 180 180
0.078125 0.015625 -0.150188 162 165 164
0.082031 0.015625 -0.154301 160 166 163
0.085938 0.015625 -0.157598 176 183 179
0.089844 0.015625 -0.160521 207 212 210
0.093750 0.015625 -0.163755 233 237 236
0.097656 0.015625 -0.166176 240 244 243
0.101562 0.015625 -0.167243 237 242 240
0.105469 0.015625 -0.168119 223 233 225
0.109375 0.015625 -0.168068 196 203 184
0.113281 0.015625 -0.167483 202 181 168
0.117188 0.015625 -0.165071 217 181 169
0.121094 0.015625 -0.163938 223 188 168
0.125000 0.015625 -0.158956 221 188 162
0.128906 0.015625 -0.155929 199 168 155
-0.234375 0.011719 -0.131356 187 136 97
-0.230469 0.011719 -0.132258 188 156 122
-0.226562 0.011719 -0.131912 170 124 90
-0.222656 0.011719 -0.131299 187 136 97
-0.218750 0.011719 -0.133145 191 140 101
-0.214844 0.011719 -0.134661 191 140 102
-0.210938 0.011719 -0.135613 197 147 108
-0.207031 0.011719 -0.137593 203 153 113
-0.203125 0.011719 -0.138560 208 158 118
-0.199219 0.011719 -0.139537 209 157 119
-0.195312 0.011719 -0.139355 206 152 117
-0.191406 0.011719 -0.139768 194 143 112
-0.187500 0.011719 -0.141470 187 145 120
-0.183594 0.011719 -0.133507 131 102 104
-0.160156 0.011719 -0.000832 231 229 233
-0.156250 0.011719 -0.017898 200 193 200
-0.152344 0.011719 -0.026260 200 196 199
-0.148438 0.011719 -0.034606 204 203 203
-0.144531 0.011719 -0.043512 206 206 206
-0.140625 0.011719 -0.050787 210 210 210
-0.136719 0.011719 -0.057346 213 212 213
-0.132812 0.011719 -0.063156 215 215 215
-0.128906 0.011719 -0.069106 217 218 218
-0.125000 0.011719 -0.074939 219 220 220
-0.121094 0.011719 -0.080341 221 221 221
-0.117188 0.011719 -0.085235 222 222 222
-0.113281 0.011719 -0.090090 222 221 222
-0.109375 0.011719 -0.094754 220 219 220
-0.105469 0.011719 -0.098984 218 217 218
-0.101562 0.011719 -0.102892 216 215 216
-0.097656 0.011719 -0.106562 214 213 215
-0.093750 0.011719 -0.109967 213 213 215
-0.089844 0.011719 -0.113096 214 213 215
-0.085938 0.011719 -0.115915 214 214 216
-0.082031 0.011719 -0.118353 215 216 216
-0.078125 0.011719 -0.120416 215 217 215
-0.074219 0.011719 -0.121737 215 218 214
-0.070312 0.011719 -0.122376 216 219 215
-0.066406 0.011719 -0.122720 218 219 220
-0.062500 0.011719 -0.122673 219 219 221
-0.058594 0.011719 -0.122447 219 220 221
-0.054688 0.011719 -0.122072 220 221 222
-0.050781 0.011719 -0.121588 222 222 223
-0.046875 0.011719 -0.120978 223 224 225
-0.042969 0.011719 -0.120602 225 226 226
-0.039062 0.011719 -0.120336 226 226 227
-0.035156 0.011719 -0.119909 227 228 228
-0.031250 0.011719 -0.119346 226 229 229
-0.027344 0.011719 -0.118731 227 229 229
-0.023438 0.011719 -0.118058 225 229 228
-0.019531 0.011719 -0.117237 223 227 226
-0.015625 0.011719 -0.116388 220 224 223
-0.011719 0.011719 -0.115539 216 220 219
-0.007812 0.011719 -0.114593 212 214 214
-0.003906 0.011719 -0.113488 206 208 209
0.000000 0.011719 -0.112387 199 202 202
0.003906 0.011719 -0.110915 191 193 193
0.007812 0.011719 -0.109235 185 187 187
0.011719 0.011719 -0.107633 181 183 183
0.015625 0.011719 -0.105934 179 181 181
0.019531 0.011719 -0.103930 181 183 183
0.023438 0.011719 -0.101563 184 187 187
0.027344 0.011719 -0.098960 187 190 191
0.031250 0.011719 -0.096208 192 195 196
0.035156 0.011719 -0.093284 194 197 198
0.039062 0.011719 -0.090224 194 195 196
0.042969 0.011719 -0.086022 188 189 190
0.046875 0.011719 -0.082144 178 178 179
0.050781 0.011719 -0.078879 167 168 168
0.054688 0.011719 -0.076057 162 163 163
0.058594 0.011719 -0.074147 163 165 166
0.062500 0.011719 -0.124740 169 171 172
0.066406 0.011719 -0.130746 171 174 174
0.070312 0.011719 -0.138509 166 169 170
0.074219 0.011719 -0.144961 154 157 157
0.078125 0.011719 -0.150243 140 142 142
0.082031 0.011719 -0.155016 141 147 144
0.085938 0.011719 -0.158279 151 160 155
0.089844 0.011719 -0.161070 171 178 173
0.093750 0.011719 -0.164275 195 203 198
0.097656 0.011719 -0.166794 194 203 197
0.101562 0.011719 -0.168105 164 177 165
0.105469 0.011719 -0.169038 175 180 160
0.109375 0.011719 -0.169021 204 191 171
0.113281 0.011719 -0.168550 214 183 165
0.117188 0.011719 -0.166313 220 180 156
0.121094 0.011719 -0.164945 224 184 152
0.125000 0.011719 -0.161462 222 180 145
0.128906 0.011719 -0.157805 210 177 157
-0.234375 0.007812 -0.132348 188 137 97
-0.230469 0.007812 -0.130156 177 140 106
-0.226562 0.007812 -0.130779 170 123 88
-0.222656 0.007812 -0.131443 188 137 97
-0.218750 0.007812 -0.132901 193 141 102
-0.214844 0.007812 -0.134504 193 142 103
-0.210938 0.007812 -0.135347 199 149 109
-0.207031 0.007812 -0.137299 205 154 113
-0.203125 0.007812 -0.138175 208 158 117
-0.199219 0.007812 -0.139325 208 155 117
-0.195312 0.007812 -0.139033 204 150 116
-0.191406 0.007812 -0.140105 190 139 110
-0.187500 0.007812 -0.139644 182 140 117
-0.183594 0.007812 -0.130473 135 108 109
-0.160156 0.007812 -0.002370 225 223 227
-0.156250 0.007812 -0.016916 201 194 201
-0.152344 0.007812 -0.025784 201 197 200
-0.148438 0.007812 -0.034268 204 203 204
-0.144531 0.007812 -0.043302 207 207 207
-0.140625 0.007812 -0.050862 211 211 211
-0.136719 0.007812 -0.057635 213 213 213
-0.132812 0.007812 -0.063650 215 215 215
-0.128906 0.007812 -0.069774 215 217 216
-0.125000 0.007812 -0.075761 217 219 217
-0.121094 0.007812 -0.081294 219 219 220
-0.117188 0.007812 -0.086274 220 220 221
-0.113281 0.007812 -0.091159 220 219 220
-0.109375 0.007812 -0.095836 220 217 219
-0.105469 0.007812 -0.100079 218 216 218
-0.101562 0.007812 -0.103997 217 214 216
-0.097656 0.007812 -0.107663 215 213 215
-0.093750 0.007812 -0.111064 215 213 214
-0.089844 0.007812 -0.114179 215 214 214
-0.085938 0.007812 -0.116979 214 214 215
-0.082031 0.007812 -0.119381 214 214 215
-0.078125 0.007812 -0.121383 214 214 213
-0.074219 0.007812 -0.122605 214 214 211
-0.070312 0.007812 -0.123088 213 213 210
-0.066406 0.007812 -0.123263 213 212 213
-0.062500 0.007812 -0.123035 212 211 212
-0.058594 0.007812 -0.122632 213 212 213
-0.054688 0.007812 -0.122091 214 213 214
-0.050781 0.007812 -0.121461 216 215 216
-0.046875 0.007812 -0.120734 219 218 219
-0.042969 0.007812 -0.120250 222 221 222
-0.039062 0.007812 -0.119929 224 224 222
-0.035156 0.007812 -0.119438 223 223 221
-0.031250 0.007812 -0.118817 224 224 223
-0.027344 0.007812 -0.118175 224 225 223
-0.023438 0.007812 -0.117517 224 226 224
-0.019531 0.007812 -0.116725 224 226 223
-0.015625 0.007812 -0.115903 221 225 222
-0.011719 0.007812 -0.115029 219 222 220
-0.007812 0.007812 -0.114060 215 217 216
-0.003906 0.007812 -0.112923 207 211 210
0.000000 0.007812 -0.111778 200 203 202
0.003906 0.007812 -0.110248 190 193 192
0.007812 0.007812 -0.108483 181 184 183
0.011719 0.007812 -0.106789 175 178 178
0.015625 0.007812 -0.105002 175 175 175
0.019531 0.007812 -0.102887 175 175 175
0.023438 0.007812 -0.100449 177 177 177
0.027344 0.007812 -0.097788 180 181 181
0.031250 0.007812 -0.095015 183 184 184
0.035156 0.007812 -0.092070 184 185 185
0.039062 0.007812 -0.089030 181 182 182
0.042969 0.007812 -0.084965 176 176 176
0.046875 0.007812 -0.081227 170 170 170
0.050781 0.007812 -0.078177 167 167 167
0.054688 0.007812 -0.075525 169 169 169
0.058594 0.007812 -0.072650 175 175 175
0.062500 0.007812 -0.120189 181 182 182
0.066406 0.007812 -0.130682 181 181 181
0.070312 0.007812 -0.138684 172 172 172
0.074219 0.007812 -0.145465 159 160 160
0.078125 0.007812 -0.150106 154 154 154
0.082031 0.007812 -0.155385 163 167 164
0.085938 0.007812 -0.158613 163 175 164
0.089844 0.007812 -0.161514 149 164 150
0.093750 0.007812 -0.164662 158 174 152
0.097656 0.007812 -0.167168 160 164 144
0.101562 0.007812 -0.168646 160 147 132
0.105469 0.007812 -0.169735 191 167 151
0.109375 0.007812 -0.169732 210 178 160
0.113281 0.007812 -0.169170 216 174 151
0.117188 0.007812 -0.167209 221 174 143
0.121094 0.007812 -0.165406 223 177 139
0.125000 0.007812 -0.163757 219 173 132
0.128906 0.007812 -0.159892 210 176 149
-0.234375 0.003906 -0.129739 169 143 116
-0.230469 0.003906 -0.129049 188 151 112
-0.226562 0.003906 -0.130019 176 128 90
-0.222656 0.003906 -0.131242 189 137 96
-0.218750 0.003906 -0.132213 193 141 101
-0.214844 0.003906 -0.133990 195 144 104
-0.210938 0.003906 -0.134852 201 150 110
-0.207031 0.003906 -0.136772 207 155 114
-0.203125 0.003906 -0.137502 209 157 117
-0.199219 0.003906 -0.138733 208 154 116
-0.195312 0.003906 -0.138831 202 148 115
-0.191406 0.003906 -0.139436 184 134 106
-0.187500 0.003906 -0.135441 170 132 110
-0.183594 0.003906 -0.134010 135 109 107
-0.160156 0.003906 -0.003642 219 216 219
-0.156250 0.003906 -0.015908 196 190 196
-0.152344 0.003906 -0.025282 197 192 195
-0.148438 0.003906 -0.033910 201 200 201
-0.144531 0.003906 -0.043152 205 205 205
-0.140625 0.003906 -0.051047 210 210 210
-0.136719 0.003906 -0.058095 212 212 212
-0.132812 0.003906 -0.064359 214 214 214
-0.128906 0.003906 -0.070691 213 215 214
-0.125000 0.003906 -0.076866 215 217 215
-0.121094 0.003906 -0.082488 216 217 216
-0.117188 0.003906 -0.087514 219 218 219
-0.113281 0.003906 -0.092408 219 218 219
-0.109375 0.003906 -0.097064 219 216 218
-0.105469 0.003906 -0.101298 218 215 217
-0.101562 0.003906 -0.105205 217 214 216
-0.097656 0.003906 -0.108855 215 213 215
-0.093750 0.003906 -0.112252 215 213 214
-0.089844 0.003906 -0.115356 214 213 214
-0.085938 0.003906 -0.118144 214 213 214
-0.082031 0.003906 -0.120511 214 213 212
-0.078125 0.003906 -0.122456 212 213 211
-0.074219 0.003906 -0.123577 211 211 208
-0.070312 0.003906 -0.123897 209 210 207
-0.066406 0.003906 -0.123890 210 208 206
-0.062500 0.003906 -0.123482 209 208 205
-0.058594 0.003906 -0.122907 210 208 206
-0.054688 0.003906 -0.122204 212 210 208
-0.050781 0.003906 -0.121436 214 213 211
-0.046875 0.003906 -0.120599 217 216 214
-0.042969 0.003906 -0.120022 221 220 217
-0.039062 0.003906 -0.119636 224 223 220
-0.035156 0.003906 -0.119085 225 225 222
-0.031250 0.003906 -0.118417 227 227 223
-0.027344 0.003906 -0.117767 228 227 224
-0.023438 0.003906 -0.117139 227 227 224
-0.019531 0.003906 -0.116346 227 227 223
-0.015625 0.003906 -0.115486 224 225 221
-0.011719 0.003906 -0.114590 222 222 219
-0.007812 0.003906 -0.113607 218 219 215
-0.003906 0.003906 -0.112451 213 214 210
0.000000 0.003906 -0.111269 206 207 204
0.003906 0.003906 -0.109681 198 199 196
0.007812 0.003906 -0.107821 190 191 188
0.011719 0.003906 -0.106017 184 185 182
0.015625 0.003906 -0.104127 181 181 180
0.019531 0.003906 -0.101893 180 180 179
0.023438 0.003906 -0.099365 181 181 179
0.027344 0.003906 -0.096650 179 179 178
0.031250 0.003906 -0.093868 181 181 181
