ply
    format ascii 1.0
    element vertex 85132
    property float x
    property float y
    property float z
    property uchar red
    property uchar green
    property uchar blue
    end_header
0.152344 0.136719 -0.099081 106 109 128
0.156250 0.136719 -0.094929 117 118 136
0.160156 0.136719 -0.090274 156 157 167
0.164062 0.136719 -0.085054 136 136 140
0.167969 0.136719 -0.079017 137 137 138
0.171875 0.136719 -0.072338 142 141 140
0.175781 0.136719 -0.064540 134 135 131
0.179688 0.136719 -0.055495 128 128 124
0.183594 0.136719 -0.047022 123 122 122
0.187500 0.136719 -0.039728 122 121 120
0.191406 0.136719 -0.034207 130 127 127
0.195312 0.136719 -0.028601 131 125 125
0.199219 0.136719 -0.015303 102 95 92
-0.179688 0.132812 -0.022002 91 84 91
-0.175781 0.132812 -0.036833 181 178 179
-0.171875 0.132812 -0.047823 198 197 197
-0.167969 0.132812 -0.056638 208 207 208
-0.164062 0.132812 -0.064523 213 213 213
-0.160156 0.132812 -0.070682 214 214 214
-0.156250 0.132812 -0.076550 214 214 214
-0.152344 0.132812 -0.081611 213 213 213
-0.148438 0.132812 -0.086176 211 211 211
-0.144531 0.132812 -0.090617 211 211 211
-0.140625 0.132812 -0.094650 212 212 212
-0.136719 0.132812 -0.098009 214 214 214
-0.132812 0.132812 -0.100503 217 216 217
-0.128906 0.132812 -0.102968 214 213 218
-0.125000 0.132812 -0.105435 213 212 214
-0.121094 0.132812 -0.107660 224 224 224
-0.117188 0.132812 -0.110005 220 219 217
-0.113281 0.132812 -0.112267 218 218 213
-0.109375 0.132812 -0.114415 218 217 210
-0.105469 0.132812 -0.116402 206 207 196
-0.101562 0.132812 -0.118378 196 196 186
-0.097656 0.132812 -0.120292 194 192 184
-0.093750 0.132812 -0.122054 193 189 180
-0.089844 0.132812 -0.123823 183 177 170
-0.085938 0.132812 -0.125637 163 159 155
-0.082031 0.132812 -0.127262 139 138 133
-0.078125 0.132812 -0.128923 121 119 119
-0.074219 0.132812 -0.130322 104 103 105
-0.070312 0.132812 -0.131563 91 90 95
-0.066406 0.132812 -0.132689 110 107 100
-0.062500 0.132812 -0.133759 108 105 98
-0.058594 0.132812 -0.134905 105 105 97
-0.054688 0.132812 -0.136009 106 106 98
-0.050781 0.132812 -0.137187 107 108 102
-0.046875 0.132812 -0.138342 107 109 104
-0.042969 0.132812 -0.139553 105 110 104
-0.039062 0.132812 -0.140821 105 110 106
-0.035156 0.132812 -0.142147 112 116 115
-0.031250 0.132812 -0.143505 116 120 121
-0.027344 0.132812 -0.144872 123 124 126
-0.023438 0.132812 -0.146263 126 125 130
-0.019531 0.132812 -0.147611 127 124 131
-0.015625 0.132812 -0.148873 126 123 130
-0.011719 0.132812 -0.150074 127 122 129
-0.007812 0.132812 -0.151182 126 120 130
-0.003906 0.132812 -0.152188 132 134 133
0.000000 0.132812 -0.153057 128 128 128
0.003906 0.132812 -0.153836 121 121 121
0.007812 0.132812 -0.154485 118 118 118
0.011719 0.132812 -0.155034 119 119 119
0.015625 0.132812 -0.155481 125 123 124
0.019531 0.132812 -0.155829 128 128 128
0.023438 0.132812 -0.156092 131 131 133
0.027344 0.132812 -0.156250 120 121 125
0.031250 0.132812 -0.156335 123 126 131
0.035156 0.132812 -0.156336 124 128 137
0.039062 0.132812 -0.156287 117 125 136
0.042969 0.132812 -0.156157 111 121 133
0.046875 0.132812 -0.155990 106 118 134
0.050781 0.132812 -0.155680 101 114 131
0.054688 0.132812 -0.155215 94 110 126
0.058594 0.132812 -0.154644 102 115 147
0.062500 0.132812 -0.153987 103 117 146
0.066406 0.132812 -0.153216 108 122 149
0.070312 0.132812 -0.152311 117 129 153
0.074219 0.132812 -0.151224 120 131 149
0.078125 0.132812 -0.149978 118 130 144
0.082031 0.132812 -0.148565 119 129 139
0.085938 0.132812 -0.146976 121 130 135
0.089844 0.132812 -0.145455 125 133 136
0.093750 0.132812 -0.143656 135 141 141
0.097656 0.132812 -0.141795 136 140 141
0.101562 0.132812 -0.139811 128 130 129
0.105469 0.132812 -0.137692 125 125 125
0.109375 0.132812 -0.135562 130 130 130
0.113281 0.132812 -0.133274 133 133 133
0.117188 0.132812 -0.130903 130 128 129
0.121094 0.132812 -0.128366 125 130 123
0.125000 0.132812 -0.125729 127 132 126
0.128906 0.132812 -0.122664 126 130 131
0.132812 0.132812 -0.119221 121 124 131
0.136719 0.132812 -0.115676 116 120 132
0.140625 0.132812 -0.111972 114 117 136
0.144531 0.132812 -0.108275 110 112 135
0.148438 0.132812 -0.104386 105 107 132
0.152344 0.132812 -0.100471 103 105 130
0.156250 0.132812 -0.096406 116 117 138
0.160156 0.132812 -0.091909 157 158 171
0.164062 0.132812 -0.086955 130 130 135
0.167969 0.132812 -0.081323 136 136 136
0.171875 0.132812 -0.075151 141 141 139
0.175781 0.132812 -0.067966 136 138 133
0.179688 0.132812 -0.059586 135 136 130
0.183594 0.132812 -0.051072 134 133 133
0.187500 0.132812 -0.043248 136 135 134
0.191406 0.132812 -0.037825 143 141 140
0.195312 0.132812 -0.032690 142 137 136
0.199219 0.132812 -0.025679 144 136 133
-0.179688 0.128906 -0.021969 182 180 181
-0.175781 0.128906 -0.037127 182 178 180
-0.171875 0.128906 -0.048851 200 199 199
-0.167969 0.128906 -0.057495 210 210 210
-0.164062 0.128906 -0.065694 216 216 216
-0.160156 0.128906 -0.071730 216 216 216
-0.156250 0.128906 -0.077696 216 216 216
-0.152344 0.128906 -0.082813 214 214 214
-0.148438 0.128906 -0.087441 212 212 212
-0.144531 0.128906 -0.091993 211 211 211
-0.140625 0.128906 -0.096135 212 212 212
-0.136719 0.128906 -0.099569 213 213 213
-0.132812 0.128906 -0.102123 215 215 215
-0.128906 0.128906 -0.104654 218 217 218
-0.125000 0.128906 -0.107171 220 218 220
-0.121094 0.128906 -0.109459 223 223 223
-0.117188 0.128906 -0.111798 222 222 220
-0.113281 0.128906 -0.114056 212 212 208
-0.109375 0.128906 -0.116190 210 210 203
-0.105469 0.128906 -0.118167 191 191 183
-0.101562 0.128906 -0.120212 166 166 158
-0.097656 0.128906 -0.122121 134 133 126
-0.093750 0.128906 -0.123895 131 129 123
-0.089844 0.128906 -0.125661 149 143 140
-0.085938 0.128906 -0.127479 176 171 167
-0.082031 0.128906 -0.129094 196 193 190
-0.078125 0.128906 -0.130747 198 195 194
-0.074219 0.128906 -0.132133 188 186 186
-0.070312 0.128906 -0.133359 174 173 175
-0.066406 0.128906 -0.134447 134 129 118
-0.062500 0.128906 -0.135472 128 124 113
-0.058594 0.128906 -0.136563 120 118 106
-0.054688 0.128906 -0.137600 115 113 101
-0.050781 0.128906 -0.138701 112 112 102
-0.046875 0.128906 -0.139772 111 112 104
-0.042969 0.128906 -0.140890 111 112 104
-0.039062 0.128906 -0.142065 109 112 105
-0.035156 0.128906 -0.143298 99 100 95
-0.031250 0.128906 -0.144567 103 103 101
-0.027344 0.128906 -0.145866 109 109 109
-0.023438 0.128906 -0.147205 114 112 113
-0.019531 0.128906 -0.148511 116 111 115
-0.015625 0.128906 -0.149741 115 110 114
-0.011719 0.128906 -0.150921 117 110 117
-0.007812 0.128906 -0.152008 119 112 119
-0.003906 0.128906 -0.152998 131 131 129
0.000000 0.128906 -0.153848 128 128 126
0.003906 0.128906 -0.154603 123 122 120
0.007812 0.128906 -0.155221 116 115 111
0.011719 0.128906 -0.155743 110 109 105
0.015625 0.128906 -0.156171 106 105 103
0.019531 0.128906 -0.156499 104 103 101
0.023438 0.128906 -0.156752 103 103 103
0.027344 0.128906 -0.156905 112 112 114
0.031250 0.128906 -0.156995 122 123 127
0.035156 0.128906 -0.157004 128 133 139
0.039062 0.128906 -0.156968 127 134 144
0.042969 0.128906 -0.156852 123 133 143
0.046875 0.128906 -0.156698 120 132 146
0.050781 0.128906 -0.156405 115 128 144
0.054688 0.128906 -0.155951 108 121 137
0.058594 0.128906 -0.155404 106 118 156
0.062500 0.128906 -0.154764 104 117 152
0.066406 0.128906 -0.154023 106 119 151
0.070312 0.128906 -0.153159 113 124 152
0.074219 0.128906 -0.152104 114 124 149
0.078125 0.128906 -0.150878 108 119 137
0.082031 0.128906 -0.149472 108 118 130
0.085938 0.128906 -0.147899 112 121 130
0.089844 0.128906 -0.146337 114 121 127
0.093750 0.128906 -0.144537 126 131 135
0.097656 0.128906 -0.142634 132 136 139
0.101562 0.128906 -0.140599 130 131 135
0.105469 0.128906 -0.138480 128 127 132
0.109375 0.128906 -0.136364 131 129 134
0.113281 0.128906 -0.134118 131 129 134
0.117188 0.128906 -0.131799 129 127 132
0.121094 0.128906 -0.129282 122 126 112
0.125000 0.128906 -0.126669 126 129 120
0.128906 0.128906 -0.123638 127 129 126
0.132812 0.128906 -0.120231 120 123 128
0.136719 0.128906 -0.116729 116 118 131
0.140625 0.128906 -0.113070 114 116 137
0.144531 0.128906 -0.109423 108 109 137
0.148438 0.128906 -0.105635 99 103 132
0.152344 0.128906 -0.101814 95 99 128
0.156250 0.128906 -0.097876 110 114 140
0.160156 0.128906 -0.093548 154 156 170
0.164062 0.128906 -0.088823 124 125 131
0.167969 0.128906 -0.083515 133 133 134
0.171875 0.128906 -0.077730 139 140 138
0.175781 0.128906 -0.071029 137 140 134
0.179688 0.128906 -0.063350 138 140 133
0.183594 0.128906 -0.055277 139 139 139
0.187500 0.128906 -0.047243 142 141 141
0.191406 0.128906 -0.041860 147 146 145
0.195312 0.128906 -0.035943 143 140 139
0.199219 0.128906 -0.029679 152 146 144
0.203125 0.128906 -0.017979 171 172 162
-0.175781 0.125000 -0.037188 214 208 210
-0.171875 0.125000 -0.049471 215 213 213
-0.167969 0.125000 -0.058245 218 217 217
-0.164062 0.125000 -0.066651 221 220 220
-0.160156 0.125000 -0.072690 220 220 220
-0.156250 0.125000 -0.078794 219 219 219
-0.152344 0.125000 -0.083998 216 216 216
-0.148438 0.125000 -0.088675 213 213 213
-0.144531 0.125000 -0.093296 212 212 212
-0.140625 0.125000 -0.097525 212 212 212
-0.136719 0.125000 -0.101027 213 213 213
-0.132812 0.125000 -0.103621 215 214 214
-0.128906 0.125000 -0.106225 215 214 216
-0.125000 0.125000 -0.108804 206 205 210
-0.121094 0.125000 -0.111140 220 219 220
-0.117188 0.125000 -0.113453 222 221 221
-0.113281 0.125000 -0.115718 217 218 214
-0.109375 0.125000 -0.117817 214 214 208
-0.105469 0.125000 -0.119834 198 199 190
-0.101562 0.125000 -0.121887 176 175 168
-0.097656 0.125000 -0.123756 149 148 141
-0.093750 0.125000 -0.125500 129 128 123
-0.089844 0.125000 -0.127245 121 120 115
-0.085938 0.125000 -0.129034 122 120 117
-0.082031 0.125000 -0.130632 129 127 125
-0.078125 0.125000 -0.132263 138 136 135
-0.074219 0.125000 -0.133616 154 152 153
-0.070312 0.125000 -0.134820 175 173 173
-0.066406 0.125000 -0.135877 199 197 187
-0.062500 0.125000 -0.136869 211 204 194
-0.058594 0.125000 -0.137916 198 192 182
-0.054688 0.125000 -0.138900 178 175 163
-0.050781 0.125000 -0.139946 152 150 139
-0.046875 0.125000 -0.140956 127 126 116
-0.042969 0.125000 -0.142007 105 107 96
-0.039062 0.125000 -0.143119 93 94 86
-0.035156 0.125000 -0.144284 95 95 89
-0.031250 0.125000 -0.145490 97 97 92
-0.027344 0.125000 -0.146736 102 100 98
-0.023438 0.125000 -0.148030 104 102 100
-0.019531 0.125000 -0.149296 106 101 102
-0.015625 0.125000 -0.150490 107 100 104
-0.011719 0.125000 -0.151643 112 102 107
-0.007812 0.125000 -0.152707 116 107 112
-0.003906 0.125000 -0.153683 119 120 115
0.000000 0.125000 -0.154513 124 123 119
0.003906 0.125000 -0.155248 129 128 124
0.007812 0.125000 -0.155843 127 126 122
0.011719 0.125000 -0.156342 119 118 114
0.015625 0.125000 -0.156751 107 106 102
0.019531 0.125000 -0.157065 96 95 91
0.023438 0.125000 -0.157314 90 89 87
0.027344 0.125000 -0.157470 99 99 99
0.031250 0.125000 -0.157577 110 111 115
0.035156 0.125000 -0.157605 117 122 128
0.039062 0.125000 -0.157583 118 125 133
0.042969 0.125000 -0.157479 118 128 138
0.046875 0.125000 -0.157338 122 134 146
0.050781 0.125000 -0.157060 122 136 149
0.054688 0.125000 -0.156617 119 132 148
0.058594 0.125000 -0.156092 111 123 163
0.062500 0.125000 -0.155463 106 118 158
0.066406 0.125000 -0.154740 106 119 154
0.070312 0.125000 -0.153903 112 123 155
0.074219 0.125000 -0.152880 113 125 151
0.078125 0.125000 -0.151687 111 122 142
0.082031 0.125000 -0.150274 114 123 140
0.085938 0.125000 -0.148699 120 128 139
0.089844 0.125000 -0.147107 123 127 136
0.093750 0.125000 -0.145270 121 124 131
0.097656 0.125000 -0.143335 123 124 129
0.101562 0.125000 -0.141262 129 130 135
0.105469 0.125000 -0.139104 135 134 139
0.109375 0.125000 -0.137004 132 129 136
0.113281 0.125000 -0.134779 121 118 125
0.117188 0.125000 -0.132514 111 108 115
0.121094 0.125000 -0.130034 114 117 100
0.125000 0.125000 -0.127447 120 122 109
0.128906 0.125000 -0.124457 119 121 116
0.132812 0.125000 -0.121097 114 115 119
0.136719 0.125000 -0.117637 108 110 123
0.140625 0.125000 -0.114027 107 109 130
0.144531 0.125000 -0.110435 101 102 132
0.148438 0.125000 -0.106732 91 94 127
0.152344 0.125000 -0.102987 90 93 126
0.156250 0.125000 -0.099138 105 109 137
0.160156 0.125000 -0.094945 148 150 164
0.164062 0.125000 -0.090416 114 115 121
0.167969 0.125000 -0.085413 122 123 123
0.171875 0.125000 -0.080064 127 129 127
0.175781 0.125000 -0.073907 127 130 123
0.179688 0.125000 -0.066861 130 132 125
0.183594 0.125000 -0.059294 132 132 132
0.187500 0.125000 -0.051411 134 133 133
0.191406 0.125000 -0.045811 138 137 137
0.195312 0.125000 -0.039636 133 131 131
0.199219 0.125000 -0.033449 137 133 132
0.203125 0.125000 -0.026644 149 148 143
-0.175781 0.121094 -0.036974 181 178 179
-0.171875 0.121094 -0.049804 217 215 216
-0.167969 0.121094 -0.058618 222 221 221
-0.164062 0.121094 -0.067194 224 224 224
-0.160156 0.121094 -0.073434 223 223 223
-0.156250 0.121094 -0.079613 222 221 221
-0.152344 0.121094 -0.084855 218 218 218
-0.148438 0.121094 -0.089631 215 215 215
-0.144531 0.121094 -0.094335 214 214 214
-0.140625 0.121094 -0.098649 213 213 213
-0.136719 0.121094 -0.102207 213 213 213
-0.132812 0.121094 -0.104825 214 214 214
-0.128906 0.121094 -0.107489 215 215 215
-0.125000 0.121094 -0.110114 216 215 215
-0.121094 0.121094 -0.112495 217 217 217
-0.117188 0.121094 -0.114810 218 218 218
-0.113281 0.121094 -0.117076 216 216 216
-0.109375 0.121094 -0.119208 212 212 212
-0.105469 0.121094 -0.121273 202 201 201
-0.101562 0.121094 -0.123313 184 184 184
-0.097656 0.121094 -0.125178 163 163 163
-0.093750 0.121094 -0.126904 146 145 145
-0.089844 0.121094 -0.128642 134 133 134
-0.085938 0.121094 -0.130413 127 126 127
-0.082031 0.121094 -0.132000 122 121 121
-0.078125 0.121094 -0.133599 119 118 118
-0.074219 0.121094 -0.134915 123 122 122
-0.070312 0.121094 -0.136095 136 135 135
-0.066406 0.121094 -0.137128 150 148 148
-0.062500 0.121094 -0.138106 163 161 161
-0.058594 0.121094 -0.139130 181 178 178
-0.054688 0.121094 -0.140078 203 200 201
-0.050781 0.121094 -0.141088 220 217 217
-0.046875 0.121094 -0.142054 220 217 218
-0.042969 0.121094 -0.143055 200 198 198
-0.039062 0.121094 -0.144108 175 174 174
-0.035156 0.121094 -0.145205 129 128 128
-0.031250 0.121094 -0.146346 120 120 120
-0.027344 0.121094 -0.147530 108 107 107
-0.023438 0.121094 -0.148775 100 99 99
-0.019531 0.121094 -0.149998 99 98 98
-0.015625 0.121094 -0.151150 103 102 102
-0.011719 0.121094 -0.152271 107 106 106
-0.007812 0.121094 -0.153306 109 108 108
-0.003906 0.121094 -0.154258 108 107 107
0.000000 0.121094 -0.155059 113 112 112
0.003906 0.121094 -0.155775 113 112 112
0.007812 0.121094 -0.156360 109 108 108
0.011719 0.121094 -0.156853 108 108 108
0.015625 0.121094 -0.157254 114 114 114
0.019531 0.121094 -0.157572 118 118 118
0.023438 0.121094 -0.157835 117 117 117
0.027344 0.121094 -0.158002 109 109 109
0.031250 0.121094 -0.158128 116 116 116
0.035156 0.121094 -0.158169 121 121 121
0.039062 0.121094 -0.158155 119 119 119
0.042969 0.121094 -0.158060 115 115 115
0.046875 0.121094 -0.157923 116 116 116
0.050781 0.121094 -0.157653 118 118 118
0.054688 0.121094 -0.157215 119 119 119
0.058594 0.121094 -0.156694 116 118 166
0.062500 0.121094 -0.156061 114 117 162
0.066406 0.121094 -0.155347 107 111 156
0.070312 0.121094 -0.154516 106 110 155
0.074219 0.121094 -0.153501 112 119 163
0.078125 0.121094 -0.152320 120 129 172
0.082031 0.121094 -0.150894 116 125 166
0.085938 0.121094 -0.149313 104 116 156
0.089844 0.121094 -0.147703 109 123 160
0.093750 0.121094 -0.145875 109 125 161
0.097656 0.121094 -0.143962 108 126 162
0.101562 0.121094 -0.141776 109 128 161
0.105469 0.121094 -0.139612 109 129 162
0.109375 0.121094 -0.137466 109 129 162
0.113281 0.121094 -0.135258 107 130 162
0.117188 0.121094 -0.133049 108 131 163
0.121094 0.121094 -0.130619 91 114 108
0.125000 0.121094 -0.128065 112 133 126
0.128906 0.121094 -0.125118 116 133 125
0.132812 0.121094 -0.121821 106 119 110
0.136719 0.121094 -0.118412 108 116 105
0.140625 0.121094 -0.114858 112 114 103
0.144531 0.121094 -0.111317 108 105 96
0.148438 0.121094 -0.107698 106 99 91
0.152344 0.121094 -0.104026 98 89 84
0.156250 0.121094 -0.100273 121 112 111
0.160156 0.121094 -0.096234 149 143 145
0.164062 0.121094 -0.091866 109 105 109
0.167969 0.121094 -0.087131 110 108 111
0.171875 0.121094 -0.082109 117 114 116
0.175781 0.121094 -0.076330 117 115 118
0.179688 0.121094 -0.069766 122 122 123
0.183594 0.121094 -0.062707 126 125 125
0.187500 0.121094 -0.055304 128 128 128
0.191406 0.121094 -0.049356 133 132 132
0.195312 0.121094 -0.043485 133 131 131
0.199219 0.121094 -0.037020 141 137 137
0.203125 0.121094 -0.029834 154 151 146
0.207031 0.121094 -0.013874 112 103 99
-0.175781 0.117188 -0.034123 182 178 180
-0.171875 0.117188 -0.048969 200 199 199
-0.167969 0.117188 -0.058610 223 222 222
-0.164062 0.117188 -0.067433 225 224 224
-0.160156 0.117188 -0.073922 224 224 224
-0.156250 0.117188 -0.080220 223 223 223
-0.152344 0.117188 -0.085584 220 220 220
-0.148438 0.117188 -0.090486 217 217 217
-0.144531 0.117188 -0.095274 215 215 215
-0.140625 0.117188 -0.099673 214 214 214
-0.136719 0.117188 -0.103294 213 213 213
-0.132812 0.117188 -0.105943 213 213 213
-0.128906 0.117188 -0.108659 213 213 213
-0.125000 0.117188 -0.111303 213 213 213
-0.121094 0.117188 -0.113708 213 213 213
-0.117188 0.117188 -0.116010 214 214 214
-0.113281 0.117188 -0.118272 213 213 213
-0.109375 0.117188 -0.120417 210 210 210
-0.105469 0.117188 -0.122482 205 205 205
-0.101562 0.117188 -0.124493 196 196 196
-0.097656 0.117188 -0.126317 185 185 185
-0.093750 0.117188 -0.128018 176 175 175
-0.089844 0.117188 -0.129729 168 168 168
-0.085938 0.117188 -0.131474 162 161 161
-0.082031 0.117188 -0.133042 155 154 154
-0.078125 0.117188 -0.134614 150 149 150
-0.074219 0.117188 -0.135925 150 149 149
-0.070312 0.117188 -0.137117 156 155 155
-0.066406 0.117188 -0.138155 161 159 159
-0.062500 0.117188 -0.139142 165 163 164
-0.058594 0.117188 -0.140157 169 167 167
-0.054688 0.117188 -0.141085 176 173 174
-0.050781 0.117188 -0.142072 186 182 183
-0.046875 0.117188 -0.143001 196 191 192
-0.042969 0.117188 -0.143953 206 202 202
-0.039062 0.117188 -0.144947 211 207 207
-0.035156 0.117188 -0.145972 235 231 232
-0.031250 0.117188 -0.147042 225 221 221
-0.027344 0.117188 -0.148159 193 190 190
-0.023438 0.117188 -0.149353 163 160 161
-0.019531 0.117188 -0.150531 139 138 138
-0.015625 0.117188 -0.151650 119 119 119
-0.011719 0.117188 -0.152743 103 102 102
-0.007812 0.117188 -0.153755 93 92 92
-0.003906 0.117188 -0.154686 95 94 94
0.000000 0.117188 -0.155460 98 97 97
0.003906 0.117188 -0.156160 103 102 102
0.007812 0.117188 -0.156728 110 109 109
0.011719 0.117188 -0.157214 114 114 114
0.015625 0.117188 -0.157616 117 117 117
0.019531 0.117188 -0.157946 118 118 118
0.023438 0.117188 -0.158235 119 119 119
0.027344 0.117188 -0.158427 121 121 121
0.031250 0.117188 -0.158586 114 114 114
0.035156 0.117188 -0.158649 107 107 107
0.039062 0.117188 -0.158647 107 107 107
0.042969 0.117188 -0.158562 111 111 111
0.046875 0.117188 -0.158434 113 113 113
0.050781 0.117188 -0.158180 113 113 113
0.054688 0.117188 -0.157751 113 113 113
0.058594 0.117188 -0.157238 117 121 156
0.062500 0.117188 -0.156614 117 121 156
0.066406 0.117188 -0.155913 114 118 153
0.070312 0.117188 -0.155090 111 117 153
0.074219 0.117188 -0.154090 113 119 155
0.078125 0.117188 -0.152922 113 121 157
0.082031 0.117188 -0.151509 104 114 149
0.085938 0.117188 -0.149959 93 103 138
0.089844 0.117188 -0.148324 103 116 150
0.093750 0.117188 -0.146458 102 117 150
0.097656 0.117188 -0.144528 101 117 150
0.101562 0.117188 -0.142298 99 118 150
0.105469 0.117188 -0.140086 101 120 152
0.109375 0.117188 -0.137887 102 123 154
0.113281 0.117188 -0.135653 104 124 157
0.117188 0.117188 -0.133439 105 125 158
0.121094 0.117188 -0.131040 102 122 123
0.125000 0.117188 -0.128495 114 134 133
0.128906 0.117188 -0.125577 113 129 128
0.132812 0.117188 -0.122333 106 117 113
0.136719 0.117188 -0.118965 111 117 113
0.140625 0.117188 -0.115468 115 116 110
0.144531 0.117188 -0.111982 114 111 104
0.148438 0.117188 -0.108448 118 111 105
0.152344 0.117188 -0.104861 108 101 95
0.156250 0.117188 -0.101202 132 125 122
0.160156 0.117188 -0.097307 149 143 144
0.164062 0.117188 -0.093100 107 104 106
0.167969 0.117188 -0.088614 109 106 108
0.171875 0.117188 -0.083883 112 111 111
0.175781 0.117188 -0.078437 113 112 115
0.179688 0.117188 -0.072290 121 122 122
0.183594 0.117188 -0.065669 126 126 126
0.187500 0.117188 -0.058612 128 128 128
0.191406 0.117188 -0.052647 132 131 131
0.195312 0.117188 -0.046656 131 130 130
0.199219 0.117188 -0.039910 138 135 135
0.203125 0.117188 -0.031987 139 133 130
0.207031 0.117188 -0.022696 35 38 30
-0.171875 0.113281 -0.048648 215 213 213
-0.167969 0.113281 -0.058651 222 221 221
-0.164062 0.113281 -0.067570 225 225 225
-0.160156 0.113281 -0.074262 225 225 225
-0.156250 0.113281 -0.080651 224 224 224
-0.152344 0.113281 -0.086091 221 221 221
-0.148438 0.113281 -0.091117 218 218 218
-0.144531 0.113281 -0.095971 217 216 216
-0.140625 0.113281 -0.100451 215 215 215
-0.136719 0.113281 -0.104133 214 213 213
-0.132812 0.113281 -0.106810 213 213 213
-0.128906 0.113281 -0.109573 212 212 212
-0.125000 0.113281 -0.112222 212 212 212
-0.121094 0.113281 -0.114625 212 212 212
-0.117188 0.113281 -0.116921 212 212 212
-0.113281 0.113281 -0.119201 212 211 211
-0.109375 0.113281 -0.121373 210 210 210
-0.105469 0.113281 -0.123425 207 207 207
-0.101562 0.113281 -0.125400 203 203 203
-0.097656 0.113281 -0.127183 197 197 197
-0.093750 0.113281 -0.128860 191 191 191
-0.089844 0.113281 -0.130560 184 184 184
-0.085938 0.113281 -0.132287 177 177 177
-0.082031 0.113281 -0.133830 171 170 170
-0.078125 0.113281 -0.135371 165 164 165
-0.074219 0.113281 -0.136660 162 162 162
-0.070312 0.113281 -0.137844 163 163 163
-0.066406 0.113281 -0.138878 165 165 165
-0.062500 0.113281 -0.139861 166 166 166
-0.058594 0.113281 -0.140866 166 165 165
-0.054688 0.113281 -0.141780 162 161 162
-0.050781 0.113281 -0.142747 161 159 160
-0.046875 0.113281 -0.143643 165 164 164
-0.042969 0.113281 -0.144550 172 170 171
-0.039062 0.113281 -0.145486 182 179 180
-0.035156 0.113281 -0.146446 182 179 179
-0.031250 0.113281 -0.147454 191 187 187
-0.027344 0.113281 -0.148512 207 202 203
-0.023438 0.113281 -0.149658 220 215 216
-0.019531 0.113281 -0.150795 228 224 225
-0.015625 0.113281 -0.151897 210 207 207
-0.011719 0.113281 -0.152979 172 171 171
-0.007812 0.113281 -0.153991 143 141 141
-0.003906 0.113281 -0.154920 113 112 113
0.000000 0.113281 -0.155683 105 104 104
0.003906 0.113281 -0.156384 102 101 101
0.007812 0.113281 -0.156949 108 107 107
0.011719 0.113281 -0.157443 113 112 112
0.015625 0.113281 -0.157858 110 110 110
0.019531 0.113281 -0.158210 111 111 111
0.023438 0.113281 -0.158530 116 116 116
0.027344 0.113281 -0.158751 113 113 113
0.031250 0.113281 -0.158952 110 110 110
0.035156 0.113281 -0.159041 112 112 112
0.039062 0.113281 -0.159052 118 118 118
0.042969 0.113281 -0.158975 119 119 119
0.046875 0.113281 -0.158852 116 116 116
0.050781 0.113281 -0.158598 119 119 119
0.054688 0.113281 -0.158159 127 127 127
0.058594 0.113281 -0.157646 117 120 139
0.062500 0.113281 -0.157018 116 121 140
0.066406 0.113281 -0.156314 116 121 140
0.070312 0.113281 -0.155493 115 120 140
0.074219 0.113281 -0.154513 115 122 141
0.078125 0.113281 -0.153364 116 124 145
0.082031 0.113281 -0.151983 112 120 143
0.085938 0.113281 -0.150478 104 114 139
0.089844 0.113281 -0.148840 102 114 140
0.093750 0.113281 -0.146984 99 113 140
0.097656 0.113281 -0.145037 99 113 142
0.101562 0.113281 -0.142861 98 113 142
0.105469 0.113281 -0.140631 98 115 145
0.109375 0.113281 -0.138355 101 117 150
0.113281 0.113281 -0.136072 103 119 152
0.117188 0.113281 -0.133850 105 121 154
0.121094 0.113281 -0.131423 112 130 142
0.125000 0.113281 -0.128860 117 134 144
0.128906 0.113281 -0.125946 112 125 134
0.132812 0.113281 -0.122737 110 119 126
0.136719 0.113281 -0.119394 116 121 124
0.140625 0.113281 -0.115945 115 115 115
0.144531 0.113281 -0.112513 109 105 102
0.148438 0.113281 -0.109048 113 108 104
0.152344 0.113281 -0.105531 113 106 100
0.156250 0.113281 -0.101948 142 136 130
0.160156 0.113281 -0.098164 145 140 138
0.164062 0.113281 -0.094094 102 100 99
0.167969 0.113281 -0.089797 103 102 102
0.171875 0.113281 -0.085282 104 104 104
0.175781 0.113281 -0.080084 104 104 105
0.179688 0.113281 -0.074218 112 113 113
0.183594 0.113281 -0.067954 119 118 118
0.187500 0.113281 -0.061298 123 123 123
0.191406 0.113281 -0.055341 129 129 129
0.195312 0.113281 -0.048983 133 132 132
0.199219 0.113281 -0.042516 139 136 136
0.203125 0.113281 -0.034236 131 124 123
0.207031 0.113281 -0.025672 45 42 37
-0.171875 0.109375 -0.048240 217 215 216
-0.167969 0.109375 -0.058370 217 216 216
-0.164062 0.109375 -0.067509 220 220 220
-0.160156 0.109375 -0.074406 223 223 223
-0.156250 0.109375 -0.080893 224 224 224
-0.152344 0.109375 -0.086415 223 222 222
-0.148438 0.109375 -0.091570 220 220 220
-0.144531 0.109375 -0.096509 218 218 218
-0.140625 0.109375 -0.101061 217 217 217
-0.136719 0.109375 -0.104806 215 215 215
-0.132812 0.109375 -0.107531 215 214 214
-0.128906 0.109375 -0.110341 214 214 214
-0.125000 0.109375 -0.113004 214 214 214
-0.121094 0.109375 -0.115403 214 214 214
-0.117188 0.109375 -0.117696 214 213 213
-0.113281 0.109375 -0.120000 212 212 212
-0.109375 0.109375 -0.122177 211 211 211
-0.105469 0.109375 -0.124196 208 208 208
-0.101562 0.109375 -0.126123 205 205 205
-0.097656 0.109375 -0.127846 200 200 200
-0.093750 0.109375 -0.129472 195 195 195
-0.089844 0.109375 -0.131150 189 189 189
-0.085938 0.109375 -0.132848 183 183 183
-0.082031 0.109375 -0.134380 177 176 176
-0.078125 0.109375 -0.135911 170 170 170
-0.074219 0.109375 -0.137193 165 165 165
-0.070312 0.109375 -0.138371 163 163 163
-0.066406 0.109375 -0.139410 162 162 162
-0.062500 0.109375 -0.140396 162 162 162
-0.058594 0.109375 -0.141389 161 161 161
-0.054688 0.109375 -0.142290 159 159 159
-0.050781 0.109375 -0.143238 155 154 154
-0.046875 0.109375 -0.144110 153 153 153
-0.042969 0.109375 -0.144976 156 156 156
-0.039062 0.109375 -0.145859 159 158 158
-0.035156 0.109375 -0.146761 160 159 159
-0.031250 0.109375 -0.147712 157 156 156
-0.027344 0.109375 -0.148714 151 149 149
-0.023438 0.109375 -0.149811 152 150 150
-0.019531 0.109375 -0.150903 165 162 162
-0.015625 0.109375 -0.151974 187 184 184
-0.011719 0.109375 -0.153027 210 206 206
-0.007812 0.109375 -0.154017 225 221 221
-0.003906 0.109375 -0.154922 224 220 220
0.000000 0.109375 -0.155667 196 193 193
0.003906 0.109375 -0.156367 157 155 155
0.007812 0.109375 -0.156939 133 132 132
0.011719 0.109375 -0.157461 114 113 113
0.015625 0.109375 -0.157907 99 99 99
0.019531 0.109375 -0.158306 101 101 101
0.023438 0.109375 -0.158679 112 112 112
0.027344 0.109375 -0.158951 114 114 114
0.031250 0.109375 -0.159202 107 107 107
0.035156 0.109375 -0.159317 110 110 110
0.039062 0.109375 -0.159341 122 122 122
0.042969 0.109375 -0.159275 126 126 126
0.046875 0.109375 -0.159150 118 118 118
0.050781 0.109375 -0.158887 113 113 113
0.054688 0.109375 -0.158439 117 117 117
0.058594 0.109375 -0.157924 115 119 118
0.062500 0.109375 -0.157287 115 119 118
0.066406 0.109375 -0.156570 115 119 120
0.070312 0.109375 -0.155744 112 117 120
0.074219 0.109375 -0.154777 112 117 121
0.078125 0.109375 -0.153640 113 120 126
0.082031 0.109375 -0.152276 117 124 134
0.085938 0.109375 -0.150791 118 126 139
0.089844 0.109375 -0.149146 107 116 133
0.093750 0.109375 -0.147320 106 117 135
0.097656 0.109375 -0.145348 106 117 139
0.101562 0.109375 -0.143129 106 118 144
0.105469 0.109375 -0.140890 106 117 145
0.109375 0.109375 -0.138542 104 118 147
0.113281 0.109375 -0.136248 104 117 149
0.117188 0.109375 -0.134005 104 117 149
0.121094 0.109375 -0.131543 106 120 146
0.125000 0.109375 -0.128957 106 121 144
0.128906 0.109375 -0.126043 104 115 135
0.132812 0.109375 -0.122871 110 117 133
0.136719 0.109375 -0.119551 121 125 136
0.140625 0.109375 -0.116152 116 115 121
0.144531 0.109375 -0.112783 107 102 106
0.148438 0.109375 -0.109409 110 105 102
0.152344 0.109375 -0.105990 108 100 97
0.156250 0.109375 -0.102507 143 137 132
0.160156 0.109375 -0.098849 129 127 122
0.164062 0.109375 -0.094926 92 90 88
0.167969 0.109375 -0.090803 98 97 95
0.171875 0.109375 -0.086466 102 102 99
0.175781 0.109375 -0.081492 105 104 103
0.179688 0.109375 -0.075876 112 113 111
0.183594 0.109375 -0.069898 120 120 120
0.187500 0.109375 -0.063579 129 128 128
0.191406 0.109375 -0.057689 139 138 138
0.195312 0.109375 -0.051191 147 146 146
0.199219 0.109375 -0.044839 158 155 155
0.203125 0.109375 -0.036704 164 156 156
0.207031 0.109375 -0.028272 112 103 99
-0.167969 0.105469 -0.057996 222 220 220
-0.164062 0.105469 -0.067275 218 217 217
-0.160156 0.105469 -0.074261 221 221 221
-0.156250 0.105469 -0.080948 224 224 224
-0.152344 0.105469 -0.086578 223 223 223
-0.148438 0.105469 -0.091857 222 222 222
-0.144531 0.105469 -0.096866 220 220 220
-0.140625 0.105469 -0.101485 219 219 219
-0.136719 0.105469 -0.105305 218 218 218
-0.132812 0.105469 -0.108065 218 218 218
-0.128906 0.105469 -0.110900 217 217 217
-0.125000 0.105469 -0.113573 217 217 217
-0.121094 0.105469 -0.115977 217 217 217
-0.117188 0.105469 -0.118315 216 216 216
-0.113281 0.105469 -0.120619 215 215 215
-0.109375 0.105469 -0.122782 213 213 213
-0.105469 0.105469 -0.124757 210 210 210
-0.101562 0.105469 -0.126625 207 207 207
-0.097656 0.105469 -0.128300 203 203 203
-0.093750 0.105469 -0.129893 198 198 198
-0.089844 0.105469 -0.131552 192 192 192
-0.085938 0.105469 -0.133215 186 186 186
-0.082031 0.105469 -0.134731 179 179 179
-0.078125 0.105469 -0.136229 172 172 172
-0.074219 0.105469 -0.137497 166 166 166
-0.070312 0.105469 -0.138669 161 161 161
-0.066406 0.105469 -0.139700 157 157 157
-0.062500 0.105469 -0.140681 155 155 155
-0.058594 0.105469 -0.141656 155 155 155
-0.054688 0.105469 -0.142546 153 153 153
-0.050781 0.105469 -0.143474 151 151 151
-0.046875 0.105469 -0.144329 150 150 150
-0.042969 0.105469 -0.145176 148 148 148
-0.039062 0.105469 -0.146023 144 144 144
-0.035156 0.105469 -0.146892 142 141 141
-0.031250 0.105469 -0.147807 140 139 139
-0.027344 0.105469 -0.148772 136 135 135
-0.023438 0.105469 -0.149847 133 133 133
-0.019531 0.105469 -0.150915 134 133 133
-0.015625 0.105469 -0.151974 142 141 141
-0.011719 0.105469 -0.153006 152 150 150
-0.007812 0.105469 -0.153977 161 159 159
-0.003906 0.105469 -0.154861 182 180 180
0.000000 0.105469 -0.155586 196 193 193
0.003906 0.105469 -0.156280 209 206 206
0.007812 0.105469 -0.156857 219 217 217
0.011719 0.105469 -0.157404 208 207 207
0.015625 0.105469 -0.157879 173 172 172
0.019531 0.105469 -0.158324 136 135 135
0.023438 0.105469 -0.158748 118 118 118
0.027344 0.105469 -0.159072 101 101 101
0.031250 0.105469 -0.159374 100 100 100
0.035156 0.105469 -0.159518 103 103 103
0.039062 0.105469 -0.159550 104 104 104
0.042969 0.105469 -0.159488 97 97 97
0.046875 0.105469 -0.159361 93 93 93
0.050781 0.105469 -0.159098 105 105 105
0.054688 0.105469 -0.158660 123 123 123
0.058594 0.105469 -0.158163 111 114 95
0.062500 0.105469 -0.157547 112 115 98
0.066406 0.105469 -0.156848 112 116 101
0.070312 0.105469 -0.156043 111 115 101
0.074219 0.105469 -0.155113 109 112 103
0.078125 0.105469 -0.154009 105 110 104
0.082031 0.105469 -0.152683 107 111 110
0.085938 0.105469 -0.151221 108 113 116
0.089844 0.105469 -0.149579 108 115 123
0.093750 0.105469 -0.147773 110 116 128
0.097656 0.105469 -0.145788 111 118 134
0.101562 0.105469 -0.143555 111 119 138
0.105469 0.105469 -0.141301 110 118 141
0.109375 0.105469 -0.138928 108 115 141
0.113281 0.105469 -0.136602 103 113 140
0.117188 0.105469 -0.134291 100 109 138
0.121094 0.105469 -0.131799 97 110 144
0.125000 0.105469 -0.129188 97 108 140
0.128906 0.105469 -0.126270 95 102 131
0.132812 0.105469 -0.123119 101 107 131
0.136719 0.105469 -0.119810 119 120 140
0.140625 0.105469 -0.116429 120 118 131
0.144531 0.105469 -0.113109 115 112 119
0.148438 0.105469 -0.109789 122 116 118
0.152344 0.105469 -0.106404 102 97 93
0.156250 0.105469 -0.102971 144 140 132
0.160156 0.105469 -0.099394 117 115 110
0.164062 0.105469 -0.095606 86 84 81
0.167969 0.105469 -0.091626 98 97 93
0.171875 0.105469 -0.087396 106 106 101
0.175781 0.105469 -0.082570 112 111 106
0.179688 0.105469 -0.077100 119 119 114
0.183594 0.105469 -0.071344 128 127 127
0.187500 0.105469 -0.065307 137 137 137
0.191406 0.105469 -0.059509 148 147 147
0.195312 0.105469 -0.053172 155 154 154
0.199219 0.105469 -0.046871 164 161 162
0.203125 0.105469 -0.038962 173 167 168
0.207031 0.105469 -0.030553 146 139 139
0.210938 0.105469 -0.007683 31 28 42
-0.171875 0.101562 -0.045112 221 221 221
-0.167969 0.101562 -0.057518 218 216 217
-0.164062 0.101562 -0.067060 220 219 219
-0.160156 0.101562 -0.073998 221 221 221
-0.156250 0.101562 -0.080916 224 224 224
-0.152344 0.101562 -0.086634 225 225 225
-0.148438 0.101562 -0.092024 224 224 224
-0.144531 0.101562 -0.097094 223 223 223
-0.140625 0.101562 -0.101763 223 223 223
-0.136719 0.101562 -0.105628 223 223 223
-0.132812 0.101562 -0.108423 223 223 223
-0.128906 0.101562 -0.111299 223 222 222
-0.125000 0.101562 -0.114006 223 222 222
-0.121094 0.101562 -0.116441 222 222 222
-0.117188 0.101562 -0.118802 221 221 221
-0.113281 0.101562 -0.121094 220 220 220
-0.109375 0.101562 -0.123252 217 217 217
-0.105469 0.101562 -0.125191 215 215 215
-0.101562 0.101562 -0.127014 212 211 211
-0.097656 0.101562 -0.128652 207 207 207
-0.093750 0.101562 -0.130211 202 202 202
-0.089844 0.101562 -0.131837 195 195 195
-0.085938 0.101562 -0.133474 187 187 187
-0.082031 0.101562 -0.134978 178 178 178
-0.078125 0.101562 -0.136440 170 170 170
-0.074219 0.101562 -0.137681 162 162 162
-0.070312 0.101562 -0.138822 156 156 156
-0.066406 0.101562 -0.139819 152 152 152
-0.062500 0.101562 -0.140771 147 147 147
-0.058594 0.101562 -0.141716 145 145 145
-0.054688 0.101562 -0.142589 147 147 147
-0.050781 0.101562 -0.143494 147 147 147
-0.046875 0.101562 -0.144331 147 147 147
-0.042969 0.101562 -0.145164 147 147 147
-0.039062 0.101562 -0.145990 146 146 146
-0.035156 0.101562 -0.146842 142 142 142
-0.031250 0.101562 -0.147732 142 142 142
-0.027344 0.101562 -0.148665 143 142 142
-0.023438 0.101562 -0.149710 143 143 143
-0.019531 0.101562 -0.150745 145 144 144
-0.015625 0.101562 -0.151781 150 150 150
-0.011719 0.101562 -0.152785 159 158 158
-0.007812 0.101562 -0.153734 163 163 163
-0.003906 0.101562 -0.154596 167 166 166
0.000000 0.101562 -0.155300 170 169 169
0.003906 0.101562 -0.156001 170 169 169
0.007812 0.101562 -0.156599 169 168 168
0.011719 0.101562 -0.157175 168 167 167
0.015625 0.101562 -0.157686 170 170 170
0.019531 0.101562 -0.158173 186 185 186
0.023438 0.101562 -0.158642 210 210 210
0.027344 0.101562 -0.159013 183 183 183
0.031250 0.101562 -0.159360 149 149 149
0.035156 0.101562 -0.159530 107 107 107
0.039062 0.101562 -0.159575 94 94 94
0.042969 0.101562 -0.159524 106 106 106
0.046875 0.101562 -0.159404 112 112 112
0.050781 0.101562 -0.159151 95 95 95
0.054688 0.101562 -0.158729 74 74 74
0.058594 0.101562 -0.158238 100 103 76
0.062500 0.101562 -0.157631 102 105 78
0.066406 0.101562 -0.156945 109 111 87
0.070312 0.101562 -0.156147 116 118 97
0.074219 0.101562 -0.155241 115 118 99
0.078125 0.101562 -0.154161 110 112 98
0.082031 0.101562 -0.152867 107 110 101
0.085938 0.101562 -0.151439 108 110 105
0.089844 0.101562 -0.149816 106 110 111
0.093750 0.101562 -0.148053 108 111 116
0.097656 0.101562 -0.146090 109 113 122
0.101562 0.101562 -0.143883 110 114 126
0.105469 0.101562 -0.141641 107 113 129
0.109375 0.101562 -0.139252 104 109 129
0.113281 0.101562 -0.136930 100 105 127
0.117188 0.101562 -0.134599 98 103 125
0.121094 0.101562 -0.132104 109 118 157
0.125000 0.101562 -0.129483 108 116 153
0.128906 0.101562 -0.126579 98 104 138
0.132812 0.101562 -0.123446 95 99 128
0.136719 0.101562 -0.120174 109 109 133
0.140625 0.101562 -0.116829 116 113 130
0.144531 0.101562 -0.113542 115 112 121
0.148438 0.101562 -0.110270 122 117 121
0.152344 0.101562 -0.106923 106 101 98
0.156250 0.101562 -0.103534 147 143 138
0.160156 0.101562 -0.100026 97 95 91
0.164062 0.101562 -0.096313 68 67 64
0.167969 0.101562 -0.092402 86 83 81
0.171875 0.101562 -0.088233 102 100 95
0.175781 0.101562 -0.083480 115 113 107
0.179688 0.101562 -0.078118 124 124 118
0.183594 0.101562 -0.072555 134 133 133
0.187500 0.101562 -0.066798 144 144 144
0.191406 0.101562 -0.061047 155 155 155
0.195312 0.101562 -0.054593 160 159 160
0.199219 0.101562 -0.048114 165 163 164
0.203125 0.101562 -0.040234 163 160 162
0.207031 0.101562 -0.031631 124 120 122
0.210938 0.101562 -0.013008 34 32 36
-0.171875 0.097656 -0.042142 109 103 106
-0.167969 0.097656 -0.056699 217 216 216
-0.164062 0.097656 -0.066643 219 219 219
-0.160156 0.097656 -0.073624 220 220 220
-0.156250 0.097656 -0.080755 224 224 224
-0.152344 0.097656 -0.086555 225 224 224
-0.148438 0.097656 -0.092044 224 224 224
-0.144531 0.097656 -0.097161 225 224 224
-0.140625 0.097656 -0.101858 225 225 225
-0.136719 0.097656 -0.105772 225 225 225
-0.132812 0.097656 -0.108602 226 226 226
-0.128906 0.097656 -0.111520 226 226 226
-0.125000 0.097656 -0.114263 227 227 227
-0.121094 0.097656 -0.116711 227 227 227
-0.117188 0.097656 -0.119086 226 226 226
-0.113281 0.097656 -0.121377 225 225 225
-0.109375 0.097656 -0.123532 223 222 222
-0.105469 0.097656 -0.125450 220 220 220
-0.101562 0.097656 -0.127233 217 217 217
-0.097656 0.097656 -0.128832 212 212 212
-0.093750 0.097656 -0.130351 207 207 207
-0.089844 0.097656 -0.131931 199 199 199
-0.085938 0.097656 -0.133527 192 191 191
-0.082031 0.097656 -0.135003 184 184 184
-0.078125 0.097656 -0.136426 176 176 176
-0.074219 0.097656 -0.137636 168 168 168
-0.070312 0.097656 -0.138743 161 161 161
-0.066406 0.097656 -0.139713 155 155 155
-0.062500 0.097656 -0.140648 149 149 149
-0.058594 0.097656 -0.141575 145 145 145
-0.054688 0.097656 -0.142443 147 147 147
-0.050781 0.097656 -0.143342 150 150 150
-0.046875 0.097656 -0.144183 151 151 151
-0.042969 0.097656 -0.145028 154 154 154
-0.039062 0.097656 -0.145852 156 156 156
-0.035156 0.097656 -0.146707 156 156 156
-0.031250 0.097656 -0.147600 157 156 156
-0.027344 0.097656 -0.148518 158 158 158
-0.023438 0.097656 -0.149546 160 160 160
-0.019531 0.097656 -0.150546 163 163 163
-0.015625 0.097656 -0.151548 167 167 167
-0.011719 0.097656 -0.152505 170 170 170
-0.007812 0.097656 -0.153412 172 171 171
-0.003906 0.097656 -0.154231 172 171 171
0.000000 0.097656 -0.154899 169 169 169
0.003906 0.097656 -0.155608 163 163 163
0.007812 0.097656 -0.156236 153 152 152
0.011719 0.097656 -0.156856 142 142 142
0.015625 0.097656 -0.157402 135 135 135
0.019531 0.097656 -0.157921 141 141 141
0.023438 0.097656 -0.158417 160 159 159
0.027344 0.097656 -0.158819 172 172 172
0.031250 0.097656 -0.159193 196 195 195
0.035156 0.097656 -0.159377 203 203 203
0.039062 0.097656 -0.159438 177 177 177
0.042969 0.097656 -0.159407 133 133 133
0.046875 0.097656 -0.159302 106 106 106
0.050781 0.097656 -0.159073 101 101 101
0.054688 0.097656 -0.158686 106 106 106
0.058594 0.097656 -0.158225 105 103 78
0.062500 0.097656 -0.157646 103 101 76
0.066406 0.097656 -0.156979 105 105 81
0.070312 0.097656 -0.156190 113 112 91
0.074219 0.097656 -0.155299 117 116 98
0.078125 0.097656 -0.154248 113 114 98
0.082031 0.097656 -0.152989 114 114 102
0.085938 0.097656 -0.151608 117 117 109
0.089844 0.097656 -0.150035 108 109 104
0.093750 0.097656 -0.148331 108 108 108
0.097656 0.097656 -0.146418 107 108 112
0.101562 0.097656 -0.144246 107 107 115
0.105469 0.097656 -0.142009 105 108 117
0.109375 0.097656 -0.139613 105 107 119
0.113281 0.097656 -0.137277 105 107 120
0.117188 0.097656 -0.134940 105 107 120
0.121094 0.097656 -0.132426 111 117 153
0.125000 0.097656 -0.129768 117 123 157
0.128906 0.097656 -0.126853 107 112 144
0.132812 0.097656 -0.123697 97 101 128
0.136719 0.097656 -0.120451 106 107 128
0.140625 0.097656 -0.117145 113 112 128
0.144531 0.097656 -0.113833 110 107 118
0.148438 0.097656 -0.110567 110 105 111
0.152344 0.097656 -0.107273 107 103 102
0.156250 0.097656 -0.103939 149 147 143
0.160156 0.097656 -0.100483 92 90 88
0.164062 0.097656 -0.096831 62 61 60
0.167969 0.097656 -0.092997 83 79 79
0.171875 0.097656 -0.088971 106 102 100
0.175781 0.097656 -0.084390 128 124 120
0.179688 0.097656 -0.079209 142 142 135
0.183594 0.097656 -0.073883 155 153 154
0.187500 0.097656 -0.068338 164 163 163
0.191406 0.097656 -0.062598 169 169 169
0.195312 0.097656 -0.056216 167 166 166
0.199219 0.097656 -0.049434 164 163 164
0.203125 0.097656 -0.041742 153 151 153
0.207031 0.097656 -0.033387 106 101 105
0.210938 0.097656 -0.018604 40 36 47
-0.171875 0.093750 -0.040409 87 79 82
-0.167969 0.093750 -0.055722 222 220 220
-0.164062 0.093750 -0.065931 220 219 219
-0.160156 0.093750 -0.073170 218 218 218
-0.156250 0.093750 -0.080405 221 220 220
-0.152344 0.093750 -0.086290 221 221 221
-0.148438 0.093750 -0.091877 222 222 222
-0.144531 0.093750 -0.097031 223 223 223
-0.140625 0.093750 -0.101755 224 224 224
-0.136719 0.093750 -0.105698 225 225 225
-0.132812 0.093750 -0.108580 226 226 226
-0.128906 0.093750 -0.111545 227 227 227
-0.125000 0.093750 -0.114310 227 227 227
-0.121094 0.093750 -0.116774 228 228 228
-0.117188 0.093750 -0.119174 227 227 227
-0.113281 0.093750 -0.121467 226 226 226
-0.109375 0.093750 -0.123622 225 224 224
-0.105469 0.093750 -0.125529 222 222 222
-0.101562 0.093750 -0.127296 219 219 219
-0.097656 0.093750 -0.128891 214 214 214
-0.093750 0.093750 -0.130395 209 208 208
-0.089844 0.093750 -0.131961 201 201 201
-0.085938 0.093750 -0.133517 194 194 194
-0.082031 0.093750 -0.134956 187 187 187
-0.078125 0.093750 -0.136326 180 180 180
-0.074219 0.093750 -0.137483 174 174 174
-0.070312 0.093750 -0.138530 167 167 167
-0.066406 0.093750 -0.139446 161 161 161
-0.062500 0.093750 -0.140338 152 152 152
-0.058594 0.093750 -0.141227 150 150 150
-0.054688 0.093750 -0.142079 152 152 152
-0.050781 0.093750 -0.142962 156 156 156
-0.046875 0.093750 -0.143807 159 158 158
-0.042969 0.093750 -0.144669 163 163 163
-0.039062 0.093750 -0.145489 165 165 165
-0.035156 0.093750 -0.146341 165 165 165
-0.031250 0.093750 -0.147228 167 167 167
-0.027344 0.093750 -0.148137 168 168 168
-0.023438 0.093750 -0.149150 172 172 172
-0.019531 0.093750 -0.150119 174 174 174
-0.015625 0.093750 -0.151097 176 176 176
-0.011719 0.093750 -0.152016 176 176 176
-0.007812 0.093750 -0.152896 172 172 172
-0.003906 0.093750 -0.153678 174 174 174
0.000000 0.093750 -0.154324 175 175 175
0.003906 0.093750 -0.155044 172 172 172
0.007812 0.093750 -0.155695 167 167 167
0.011719 0.093750 -0.156357 156 156 156
0.015625 0.093750 -0.156930 146 146 146
0.019531 0.093750 -0.157478 140 140 140
0.023438 0.093750 -0.158000 138 138 138
0.027344 0.093750 -0.158432 139 139 139
0.031250 0.093750 -0.158831 132 132 132
0.035156 0.093750 -0.159031 128 128 128
0.039062 0.093750 -0.159109 135 135 135
0.042969 0.093750 -0.159097 161 161 161
0.046875 0.093750 -0.159009 185 184 184
0.050781 0.093750 -0.158790 173 173 173
0.054688 0.093750 -0.158431 142 142 142
0.058594 0.093750 -0.157993 119 116 100
0.062500 0.093750 -0.157447 110 107 90
0.066406 0.093750 -0.156820 101 98 83
0.070312 0.093750 -0.156065 101 98 83
0.074219 0.093750 -0.155234 103 99 87
0.078125 0.093750 -0.154243 103 101 89
0.082031 0.093750 -0.153048 109 106 97
0.085938 0.093750 -0.151736 116 113 106
0.089844 0.093750 -0.150238 113 112 107
0.093750 0.093750 -0.148615 111 110 106
0.097656 0.093750 -0.146781 109 108 106
0.101562 0.093750 -0.144697 107 107 107
0.105469 0.093750 -0.142511 108 108 110
0.109375 0.093750 -0.140159 111 110 115
0.113281 0.093750 -0.137855 115 114 119
0.117188 0.093750 -0.135517 118 117 122
0.121094 0.093750 -0.133002 90 95 124
0.125000 0.093750 -0.130333 107 113 139
0.128906 0.093750 -0.127429 109 113 138
0.132812 0.093750 -0.124253 104 106 127
0.136719 0.093750 -0.120994 113 114 132
0.140625 0.093750 -0.117673 120 120 132
0.144531 0.093750 -0.114329 112 111 119
0.148438 0.093750 -0.111046 103 101 106
0.152344 0.093750 -0.107690 103 101 102
0.156250 0.093750 -0.104342 163 162 161
0.160156 0.093750 -0.100895 132 131 131
0.164062 0.093750 -0.097235 97 94 96
0.167969 0.093750 -0.093390 114 110 112
0.171875 0.093750 -0.089444 124 121 121
0.175781 0.093750 -0.085041 137 131 132
0.179688 0.093750 -0.080050 144 143 142
0.183594 0.093750 -0.075007 156 153 155
0.187500 0.093750 -0.069724 160 158 159
0.191406 0.093750 -0.064090 152 151 152
0.195312 0.093750 -0.057892 129 127 128
0.199219 0.093750 -0.051076 108 105 107
0.203125 0.093750 -0.043558 88 84 86
0.207031 0.093750 -0.035267 56 51 56
0.210938 0.093750 -0.024239 31 28 42
-0.171875 0.089844 -0.038879 50 40 43
-0.167969 0.089844 -0.054640 218 216 217
-0.164062 0.089844 -0.065221 217 216 216
-0.160156 0.089844 -0.072773 215 215 215
-0.156250 0.089844 -0.080013 217 217 217
-0.152344 0.089844 -0.085981 218 218 218
-0.148438 0.089844 -0.091659 218 218 218
-0.144531 0.089844 -0.096861 220 220 220
-0.140625 0.089844 -0.101587 222 222 222
-0.136719 0.089844 -0.105542 224 224 224
-0.132812 0.089844 -0.108443 226 225 225
-0.128906 0.089844 -0.111417 226 226 226
-0.125000 0.089844 -0.114217 227 227 227
-0.121094 0.089844 -0.116686 227 227 227
-0.117188 0.089844 -0.119091 227 227 227
-0.113281 0.089844 -0.121376 226 226 226
-0.109375 0.089844 -0.123521 224 224 224
-0.105469 0.089844 -0.125421 222 222 222
-0.101562 0.089844 -0.127175 218 218 218
-0.097656 0.089844 -0.128758 214 214 214
-0.093750 0.089844 -0.130232 208 208 208
-0.089844 0.089844 -0.131766 201 201 201
-0.085938 0.089844 -0.133283 194 194 194
-0.082031 0.089844 -0.134692 187 187 187
-0.078125 0.089844 -0.136045 181 181 181
-0.074219 0.089844 -0.137168 175 175 175
-0.070312 0.089844 -0.138184 169 169 169
-0.066406 0.089844 -0.139079 162 162 162
-0.062500 0.089844 -0.139957 155 155 155
-0.058594 0.089844 -0.140839 151 151 151
-0.054688 0.089844 -0.141694 151 151 151
-0.050781 0.089844 -0.142580 155 155 155
-0.046875 0.089844 -0.143419 160 160 160
-0.042969 0.089844 -0.144263 164 164 164
-0.039062 0.089844 -0.145087 166 166 166
-0.035156 0.089844 -0.145964 167 166 166
-0.031250 0.089844 -0.146864 169 169 169
-0.027344 0.089844 -0.147787 173 172 172
-0.023438 0.089844 -0.148808 176 176 176
-0.019531 0.089844 -0.149778 179 178 178
-0.015625 0.089844 -0.150759 181 180 180
-0.011719 0.089844 -0.151673 181 181 181
-0.007812 0.089844 -0.152554 181 180 180
-0.003906 0.089844 -0.153314 181 180 180
0.000000 0.089844 -0.153952 181 181 181
0.003906 0.089844 -0.154685 181 181 181
0.007812 0.089844 -0.155336 180 180 180
0.011719 0.089844 -0.155994 175 175 175
0.015625 0.089844 -0.156548 169 169 169
0.019531 0.089844 -0.157093 163 163 163
0.023438 0.089844 -0.157621 157 157 157
0.027344 0.089844 -0.158078 146 146 146
0.031250 0.089844 -0.158492 133 133 133
0.035156 0.089844 -0.158700 120 120 120
0.039062 0.089844 -0.158792 116 116 116
0.042969 0.089844 -0.158786 125 125 125
0.046875 0.089844 -0.158713 145 145 145
0.050781 0.089844 -0.158491 173 172 172
0.054688 0.089844 -0.158151 202 201 201
0.058594 0.089844 -0.157720 225 220 217
0.062500 0.089844 -0.157189 199 195 191
0.066406 0.089844 -0.156597 150 145 141
0.070312 0.089844 -0.155888 113 108 104
0.074219 0.089844 -0.155125 100 95 91
0.078125 0.089844 -0.154187 102 97 93
0.082031 0.089844 -0.153064 102 97 93
0.085938 0.089844 -0.151804 99 95 92
0.089844 0.089844 -0.150334 116 112 109
0.093750 0.089844 -0.148732 118 114 111
0.097656 0.089844 -0.146923 123 119 116
0.101562 0.089844 -0.144879 119 118 114
0.105469 0.089844 -0.142719 108 107 103
0.109375 0.089844 -0.140424 100 99 95
0.113281 0.089844 -0.138131 108 107 103
0.117188 0.089844 -0.135761 122 121 117
0.121094 0.089844 -0.133258 113 119 135
0.125000 0.089844 -0.130619 113 119 133
0.128906 0.089844 -0.127783 109 113 125
0.132812 0.089844 -0.124666 100 104 115
0.136719 0.089844 -0.121437 103 106 115
0.140625 0.089844 -0.118120 117 117 125
0.144531 0.089844 -0.114884 122 121 127
0.148438 0.089844 -0.111743 118 116 121
0.152344 0.089844 -0.108359 113 111 114
0.156250 0.089844 -0.104998 176 174 176
0.160156 0.089844 -0.101567 146 144 147
0.164062 0.089844 -0.097914 117 115 119
0.167969 0.089844 -0.094103 120 117 121
0.171875 0.089844 -0.090189 109 105 110
