ply
    format ascii 1.0
    element vertex 56670
    property float x
    property float y
    property float z
    property uchar red
    property uchar green
    property uchar blue
    end_header
0.121094 0.273438 0.078507 65 101 151
0.125000 0.273438 0.076863 75 108 159
0.128906 0.273438 0.075210 78 110 161
0.132812 0.273438 0.073456 71 101 151
0.136719 0.273438 0.071740 64 91 138
0.140625 0.273438 0.069632 70 91 134
0.144531 0.273438 0.066931 84 102 138
0.148438 0.273438 0.062800 97 112 141
0.152344 0.273438 0.057558 75 88 107
0.156250 0.273438 0.051173 45 55 67
0.160156 0.273438 0.044084 49 56 64
0.164062 0.273438 0.034143 65 70 74
0.167969 0.273438 0.019798 54 58 61
0.171875 0.273438 0.003553 85 94 91
0.175781 0.273438 -0.025101 47 87 60
0.179688 0.273438 -0.054731 57 106 73
0.183594 0.273438 -0.052923 111 119 105
0.187500 0.273438 -0.053343 176 143 136
0.191406 0.273438 -0.052066 203 150 136
0.195312 0.273438 -0.050944 215 154 133
0.199219 0.273438 -0.050538 224 161 133
0.203125 0.273438 -0.050703 230 166 139
0.207031 0.273438 -0.050969 235 174 147
0.210938 0.273438 -0.052245 237 180 154
0.214844 0.273438 -0.053653 236 183 158
0.218750 0.273438 -0.054495 235 186 161
0.222656 0.273438 -0.055557 232 190 164
0.226562 0.273438 -0.058218 224 185 159
0.230469 0.273438 -0.060686 201 157 142
0.234375 0.273438 -0.064795 187 158 157
-0.191406 0.269531 -0.020793 119 97 101
-0.187500 0.269531 -0.019387 208 170 145
-0.183594 0.269531 -0.010785 223 172 135
-0.179688 0.269531 -0.006557 218 148 112
-0.175781 0.269531 -0.003979 226 156 118
-0.171875 0.269531 -0.002593 230 164 126
-0.167969 0.269531 -0.002195 231 163 126
-0.164062 0.269531 -0.002640 233 168 131
-0.160156 0.269531 -0.003461 235 172 135
-0.156250 0.269531 -0.003987 234 170 134
-0.152344 0.269531 -0.004670 232 166 130
-0.148438 0.269531 -0.005395 225 157 122
-0.144531 0.269531 -0.006044 216 149 118
-0.140625 0.269531 -0.007137 200 137 110
-0.136719 0.269531 -0.010654 166 112 92
-0.132812 0.269531 -0.018648 128 88 83
-0.128906 0.269531 -0.030056 99 78 87
-0.117188 0.269531 0.033411 74 74 75
-0.113281 0.269531 0.043450 85 84 85
-0.109375 0.269531 0.049411 112 112 110
-0.105469 0.269531 0.054348 98 98 91
-0.101562 0.269531 0.058858 93 95 82
-0.097656 0.269531 0.063195 99 103 88
-0.093750 0.269531 0.067198 97 106 89
-0.089844 0.269531 0.071340 91 104 87
-0.085938 0.269531 0.075634 80 98 84
-0.082031 0.269531 0.079973 69 91 78
-0.078125 0.269531 0.084050 65 91 80
-0.074219 0.269531 0.087812 66 96 88
-0.070312 0.269531 0.091076 70 101 93
-0.066406 0.269531 0.093992 58 110 132
-0.062500 0.269531 0.096490 70 120 143
-0.058594 0.269531 0.098616 72 120 143
-0.054688 0.269531 0.100488 76 121 144
-0.050781 0.269531 0.102109 94 135 157
-0.046875 0.269531 0.103688 110 145 167
-0.042969 0.269531 0.104974 121 152 172
-0.039062 0.269531 0.105970 135 160 180
-0.035156 0.269531 0.106929 124 145 164
-0.031250 0.269531 0.107987 102 119 137
-0.027344 0.269531 0.109062 72 88 104
-0.023438 0.269531 0.110169 60 73 89
-0.019531 0.269531 0.111224 71 83 97
-0.015625 0.269531 0.112155 89 99 111
-0.011719 0.269531 0.112921 94 104 116
-0.007812 0.269531 0.113387 90 100 112
-0.003906 0.269531 0.113642 59 111 109
0.000000 0.269531 0.113669 67 117 126
0.003906 0.269531 0.113553 85 128 160
0.007812 0.269531 0.113291 91 126 180
0.011719 0.269531 0.112971 78 104 179
0.015625 0.269531 0.112509 67 87 174
0.019531 0.269531 0.111905 67 80 168
0.023438 0.269531 0.111181 62 75 150
0.027344 0.269531 0.110322 83 95 150
0.031250 0.269531 0.109312 104 118 153
0.035156 0.269531 0.108166 119 136 154
0.039062 0.269531 0.106940 120 139 146
0.042969 0.269531 0.105584 119 140 143
0.046875 0.269531 0.104191 117 141 145
0.050781 0.269531 0.102753 104 127 135
0.054688 0.269531 0.101277 87 109 122
0.058594 0.269531 0.099769 79 107 110
0.062500 0.269531 0.098316 62 90 94
0.066406 0.269531 0.096991 45 72 79
0.070312 0.269531 0.095793 47 75 86
0.074219 0.269531 0.094714 71 98 115
0.078125 0.269531 0.093749 97 124 145
0.082031 0.269531 0.092912 106 134 158
0.085938 0.269531 0.092293 102 132 160
0.089844 0.269531 0.091666 118 147 177
0.093750 0.269531 0.090988 109 140 171
0.097656 0.269531 0.089849 108 139 170
0.101562 0.269531 0.088067 122 155 186
0.105469 0.269531 0.086069 141 175 203
0.109375 0.269531 0.083962 149 183 210
0.113281 0.269531 0.081969 144 180 206
0.117188 0.269531 0.080177 139 175 199
0.121094 0.269531 0.078475 144 177 218
0.125000 0.269531 0.076726 116 149 192
0.128906 0.269531 0.074988 84 115 161
0.132812 0.269531 0.073216 69 96 143
0.136719 0.269531 0.071460 68 92 138
0.140625 0.269531 0.069332 73 94 137
0.144531 0.269531 0.066595 79 97 135
0.148438 0.269531 0.062500 85 100 129
0.152344 0.269531 0.057183 84 97 116
0.156250 0.269531 0.051167 57 67 77
0.160156 0.269531 0.043975 51 60 65
0.164062 0.269531 0.034332 62 70 72
0.167969 0.269531 0.022007 62 66 69
0.171875 0.269531 0.006730 85 98 93
0.175781 0.269531 -0.010805 51 95 67
0.179688 0.269531 -0.051830 72 125 89
0.183594 0.269531 -0.053971 126 132 117
0.187500 0.269531 -0.054071 178 145 137
0.191406 0.269531 -0.052818 201 150 134
0.195312 0.269531 -0.051382 213 155 132
0.199219 0.269531 -0.050511 222 162 133
0.203125 0.269531 -0.050496 228 166 137
0.207031 0.269531 -0.050817 235 176 146
0.210938 0.269531 -0.052101 238 182 152
0.214844 0.269531 -0.053446 238 184 154
0.218750 0.269531 -0.054271 238 185 153
0.222656 0.269531 -0.055210 237 189 158
0.226562 0.269531 -0.057898 234 190 158
0.230469 0.269531 -0.060392 221 176 150
0.234375 0.269531 -0.063832 211 182 168
-0.191406 0.265625 -0.028090 139 96 95
-0.187500 0.265625 -0.015887 201 148 120
-0.183594 0.265625 -0.007753 220 161 121
-0.179688 0.265625 -0.004010 221 151 113
-0.175781 0.265625 -0.001736 228 159 120
-0.171875 0.265625 -0.000537 232 166 128
-0.167969 0.265625 -0.000237 233 166 129
-0.164062 0.265625 -0.000966 234 170 133
-0.160156 0.265625 -0.002049 235 173 136
-0.156250 0.265625 -0.002801 234 171 134
-0.152344 0.265625 -0.003733 231 167 130
-0.148438 0.265625 -0.004646 225 157 122
-0.144531 0.265625 -0.005466 214 147 116
-0.140625 0.265625 -0.006800 196 134 108
-0.136719 0.265625 -0.011176 166 117 98
-0.132812 0.265625 -0.019717 123 91 86
-0.128906 0.265625 -0.032098 74 60 72
-0.117188 0.265625 0.035542 65 64 66
-0.113281 0.265625 0.044621 62 61 63
-0.109375 0.265625 0.049757 94 95 95
-0.105469 0.265625 0.054681 89 91 88
-0.101562 0.265625 0.059345 85 90 84
-0.097656 0.265625 0.063875 91 101 92
-0.093750 0.265625 0.068089 93 105 93
-0.089844 0.265625 0.072356 92 105 95
-0.085938 0.265625 0.076647 85 103 91
-0.082031 0.265625 0.080893 78 98 87
-0.078125 0.265625 0.084865 71 94 84
-0.074219 0.265625 0.088491 64 87 79
-0.070312 0.265625 0.091616 55 81 72
-0.066406 0.265625 0.094399 49 96 114
-0.062500 0.265625 0.096811 62 109 127
-0.058594 0.265625 0.098843 60 105 126
-0.054688 0.265625 0.100621 54 96 118
-0.050781 0.265625 0.102165 58 99 121
-0.046875 0.265625 0.103663 69 107 130
-0.042969 0.265625 0.104896 86 120 145
-0.039062 0.265625 0.105892 108 138 162
-0.035156 0.265625 0.106850 134 160 183
-0.031250 0.265625 0.107889 134 156 177
-0.027344 0.265625 0.108947 112 131 148
-0.023438 0.265625 0.110043 78 94 109
-0.019531 0.265625 0.111098 67 79 91
-0.015625 0.265625 0.112046 81 91 100
-0.011719 0.265625 0.112836 91 100 107
-0.007812 0.265625 0.113324 89 96 102
-0.003906 0.265625 0.113616 58 106 64
0.000000 0.265625 0.113689 64 110 82
0.003906 0.265625 0.113643 91 131 130
0.007812 0.265625 0.113486 105 140 170
0.011719 0.265625 0.113241 96 125 183
0.015625 0.265625 0.112839 95 116 195
0.019531 0.265625 0.112291 86 103 191
0.023438 0.265625 0.111605 61 76 163
0.027344 0.265625 0.110768 79 96 170
0.031250 0.265625 0.109766 90 109 167
0.035156 0.265625 0.108609 98 119 162
0.039062 0.265625 0.107348 99 122 153
0.042969 0.265625 0.105954 103 127 151
0.046875 0.265625 0.104530 113 138 160
0.050781 0.265625 0.103059 119 144 166
0.054688 0.265625 0.101529 119 144 166
0.058594 0.265625 0.099954 99 126 133
0.062500 0.265625 0.098433 90 119 125
0.066406 0.265625 0.097057 72 100 111
0.070312 0.265625 0.095828 56 84 98
0.074219 0.265625 0.094725 56 83 102
0.078125 0.265625 0.093735 69 95 118
0.082031 0.265625 0.092891 79 106 133
0.085938 0.265625 0.092295 81 108 138
0.089844 0.265625 0.091715 71 97 130
0.093750 0.265625 0.091090 84 110 143
0.097656 0.265625 0.090002 101 130 162
0.101562 0.265625 0.088255 108 137 167
0.105469 0.265625 0.086277 97 127 155
0.109375 0.265625 0.084173 92 122 148
0.113281 0.265625 0.082153 110 142 165
0.117188 0.265625 0.080316 138 170 193
0.121094 0.265625 0.078556 131 162 193
0.125000 0.265625 0.076730 135 165 199
0.128906 0.265625 0.074912 138 166 205
0.132812 0.265625 0.073115 131 156 197
0.136719 0.265625 0.071315 106 129 173
0.140625 0.265625 0.069143 80 99 141
0.144531 0.265625 0.066318 68 86 122
0.148438 0.265625 0.062245 73 89 115
0.152344 0.265625 0.056952 85 98 115
0.156250 0.265625 0.051146 64 77 85
0.160156 0.265625 0.043842 54 64 65
0.164062 0.265625 0.034592 63 72 71
0.167969 0.265625 0.023789 77 83 82
0.171875 0.265625 0.010546 87 98 95
0.175781 0.265625 -0.003382 51 90 66
0.179688 0.265625 -0.041072 71 118 89
0.183594 0.265625 -0.056066 119 121 112
0.187500 0.265625 -0.054721 170 135 130
0.191406 0.265625 -0.053666 195 143 128
0.195312 0.265625 -0.051804 210 153 130
0.199219 0.265625 -0.050506 219 161 132
0.203125 0.265625 -0.050191 226 166 136
0.207031 0.265625 -0.050593 234 176 144
0.210938 0.265625 -0.051974 237 180 149
0.214844 0.265625 -0.053374 238 182 149
0.218750 0.265625 -0.054246 238 180 146
0.222656 0.265625 -0.055191 236 180 147
0.226562 0.265625 -0.057759 233 180 146
0.230469 0.265625 -0.060216 226 178 148
0.234375 0.265625 -0.062996 226 201 181
-0.191406 0.261719 -0.022182 171 126 114
-0.187500 0.261719 -0.011281 196 134 108
-0.183594 0.261719 -0.005145 217 150 114
-0.179688 0.261719 -0.001783 223 153 115
-0.175781 0.261719 0.000381 230 161 123
-0.171875 0.261719 0.001535 233 169 130
-0.167969 0.261719 0.001704 234 170 132
-0.164062 0.261719 0.000734 235 172 134
-0.160156 0.261719 -0.000588 235 173 136
-0.156250 0.261719 -0.001577 234 171 134
-0.152344 0.261719 -0.002703 231 167 130
-0.148438 0.261719 -0.003892 224 157 122
-0.144531 0.261719 -0.004911 212 146 115
-0.140625 0.261719 -0.006547 192 133 107
-0.136719 0.261719 -0.011799 166 122 103
-0.132812 0.261719 -0.020591 113 91 86
-0.128906 0.261719 -0.033857 48 46 56
-0.121094 0.261719 0.003272 77 75 79
-0.117188 0.261719 0.037403 55 55 56
-0.113281 0.261719 0.044831 48 49 50
-0.109375 0.261719 0.049877 88 90 92
-0.105469 0.261719 0.055006 88 96 95
-0.101562 0.261719 0.059777 86 96 95
-0.097656 0.261719 0.064514 80 95 92
-0.093750 0.261719 0.068942 79 95 92
-0.089844 0.261719 0.073314 77 93 90
-0.085938 0.261719 0.077610 73 92 88
-0.082031 0.261719 0.081764 75 94 92
-0.078125 0.261719 0.085640 73 92 90
-0.074219 0.261719 0.089136 60 79 77
-0.070312 0.261719 0.092127 45 64 62
-0.066406 0.261719 0.094794 38 77 92
-0.062500 0.261719 0.097093 48 87 104
-0.058594 0.261719 0.099032 44 85 103
-0.054688 0.261719 0.100729 42 83 105
-0.050781 0.261719 0.102208 49 91 116
-0.046875 0.261719 0.103643 51 92 120
-0.042969 0.261719 0.104849 47 86 117
-0.039062 0.261719 0.105849 50 86 118
-0.035156 0.261719 0.106794 74 109 139
-0.031250 0.261719 0.107803 91 122 150
-0.027344 0.261719 0.108845 120 146 171
-0.023438 0.261719 0.109936 134 156 177
-0.019531 0.261719 0.110997 113 132 147
-0.015625 0.261719 0.111955 79 93 104
-0.011719 0.261719 0.112760 71 84 92
-0.007812 0.261719 0.113277 86 97 103
-0.003906 0.261719 0.113621 83 119 75
0.000000 0.261719 0.113737 64 98 65
0.003906 0.261719 0.113744 65 97 82
0.007812 0.261719 0.113664 79 107 118
0.011719 0.261719 0.113487 89 115 150
0.015625 0.261719 0.113139 106 131 185
0.019531 0.261719 0.112649 105 130 197
0.023438 0.261719 0.112011 75 101 175
0.027344 0.261719 0.111207 79 105 176
0.031250 0.261719 0.110212 76 103 168
0.035156 0.261719 0.109028 78 107 163
0.039062 0.261719 0.107722 86 117 164
0.042969 0.261719 0.106276 91 123 164
0.046875 0.261719 0.104802 96 128 166
0.050781 0.261719 0.103280 112 142 178
0.054688 0.261719 0.101697 126 156 192
0.058594 0.261719 0.100061 121 153 166
0.062500 0.261719 0.098482 120 152 167
0.066406 0.261719 0.097057 102 133 151
0.070312 0.261719 0.095795 70 101 122
0.074219 0.261719 0.094672 43 73 99
0.078125 0.261719 0.093661 43 72 104
0.082031 0.261719 0.092809 64 93 127
0.085938 0.261719 0.092238 85 113 152
0.089844 0.261719 0.091716 88 113 153
0.093750 0.261719 0.091151 59 84 124
0.097656 0.261719 0.090136 41 67 104
0.101562 0.261719 0.088451 55 81 116
0.105469 0.261719 0.086510 81 107 140
0.109375 0.261719 0.084430 91 118 147
0.113281 0.261719 0.082409 84 111 138
0.117188 0.261719 0.080552 76 103 130
0.121094 0.261719 0.078762 94 122 143
0.125000 0.261719 0.076885 109 135 158
0.128906 0.261719 0.075003 126 151 181
0.132812 0.261719 0.073179 132 154 191
0.136719 0.261719 0.071303 119 138 178
0.140625 0.261719 0.069053 97 115 155
0.144531 0.261719 0.066144 86 102 136
0.148438 0.261719 0.062047 84 100 125
0.152344 0.261719 0.056837 82 96 109
0.156250 0.261719 0.051163 70 84 87
0.160156 0.261719 0.043926 50 60 59
0.164062 0.261719 0.035052 54 63 60
0.167969 0.261719 0.025516 82 88 87
0.171875 0.261719 0.014218 88 98 96
0.175781 0.261719 0.000166 54 87 68
0.179688 0.261719 -0.026771 72 114 88
0.183594 0.261719 -0.058492 114 115 109
0.187500 0.261719 -0.054994 166 131 126
0.191406 0.261719 -0.054525 191 140 124
0.195312 0.261719 -0.052405 207 151 127
0.199219 0.261719 -0.050768 216 159 129
0.203125 0.261719 -0.050016 223 163 133
0.207031 0.261719 -0.050371 231 173 141
0.210938 0.261719 -0.051861 235 176 144
0.214844 0.261719 -0.053293 237 177 145
0.218750 0.261719 -0.054238 237 175 141
0.222656 0.261719 -0.055291 235 174 140
0.226562 0.261719 -0.057585 233 172 140
0.230469 0.261719 -0.060024 230 180 151
0.234375 0.261719 -0.062538 234 211 188
-0.191406 0.257812 -0.017217 223 197 167
-0.187500 0.257812 -0.007621 209 150 118
-0.183594 0.257812 -0.002789 220 150 115
-0.179688 0.257812 0.000411 226 156 119
-0.175781 0.257812 0.002405 231 164 126
-0.171875 0.257812 0.003563 234 171 132
-0.167969 0.257812 0.003628 235 172 134
-0.164062 0.257812 0.002445 236 174 136
-0.160156 0.257812 0.000930 235 174 136
-0.156250 0.257812 -0.000254 234 172 135
-0.152344 0.257812 -0.001488 231 167 131
-0.148438 0.257812 -0.002972 224 158 123
-0.144531 0.257812 -0.004203 210 145 115
-0.140625 0.257812 -0.006442 188 130 106
-0.136719 0.257812 -0.012591 160 118 102
-0.132812 0.257812 -0.021592 95 76 78
-0.128906 0.257812 -0.034670 32 32 41
-0.121094 0.257812 0.014438 76 75 76
-0.117188 0.257812 0.037708 44 44 44
-0.113281 0.257812 0.044864 38 38 39
-0.109375 0.257812 0.049819 81 86 87
-0.105469 0.257812 0.055077 75 89 91
-0.101562 0.257812 0.060143 72 87 92
-0.097656 0.257812 0.065162 74 92 96
-0.093750 0.257812 0.069792 74 93 99
-0.089844 0.257812 0.074262 71 90 96
-0.085938 0.257812 0.078565 72 89 96
-0.082031 0.257812 0.082660 81 98 105
-0.078125 0.257812 0.086451 92 107 114
-0.074219 0.257812 0.089818 89 102 110
-0.070312 0.257812 0.092680 77 90 98
-0.066406 0.257812 0.095222 62 94 107
-0.062500 0.257812 0.097415 56 89 104
-0.058594 0.257812 0.099277 41 76 95
-0.054688 0.257812 0.100909 41 79 102
-0.050781 0.257812 0.102329 61 102 132
-0.046875 0.257812 0.103711 68 111 146
-0.042969 0.257812 0.104881 54 98 137
-0.039062 0.257812 0.105868 43 88 129
-0.035156 0.257812 0.106801 45 88 130
-0.031250 0.257812 0.107780 50 92 130
-0.027344 0.257812 0.108794 69 105 141
-0.023438 0.257812 0.109878 93 127 155
-0.019531 0.257812 0.110919 111 139 163
-0.015625 0.257812 0.111859 111 133 154
-0.011719 0.257812 0.112652 98 117 132
-0.007812 0.257812 0.113170 86 104 118
-0.003906 0.257812 0.113541 74 86 74
0.000000 0.257812 0.113701 67 79 69
0.003906 0.257812 0.113764 66 82 76
0.007812 0.257812 0.113760 67 87 88
0.011719 0.257812 0.113667 69 92 102
0.015625 0.257812 0.113397 82 110 131
0.019531 0.257812 0.112965 99 133 161
0.023438 0.257812 0.112372 105 140 180
0.027344 0.257812 0.111594 72 110 157
0.031250 0.257812 0.110609 66 105 157
0.035156 0.257812 0.109406 69 109 165
0.039062 0.257812 0.108053 81 122 178
0.042969 0.257812 0.106557 83 124 178
0.046875 0.257812 0.105034 76 116 168
0.050781 0.257812 0.103463 78 118 169
0.054688 0.257812 0.101827 89 129 178
0.058594 0.257812 0.100140 120 156 180
0.062500 0.257812 0.098513 125 161 187
0.066406 0.257812 0.097041 122 157 185
0.070312 0.257812 0.095741 99 132 165
0.074219 0.257812 0.094590 63 95 133
0.078125 0.257812 0.093570 41 73 114
0.082031 0.257812 0.092736 50 78 125
0.085938 0.257812 0.092192 68 96 144
0.089844 0.257812 0.091706 80 108 156
0.093750 0.257812 0.091182 81 108 155
0.097656 0.257812 0.090232 78 105 150
0.101562 0.257812 0.088627 66 93 136
0.105469 0.257812 0.086749 52 77 117
0.109375 0.257812 0.084716 46 72 107
0.113281 0.257812 0.082719 59 85 118
0.117188 0.257812 0.080865 77 104 134
0.121094 0.257812 0.079067 90 114 124
0.125000 0.257812 0.077162 83 106 122
0.128906 0.257812 0.075240 76 98 121
0.132812 0.257812 0.073386 80 101 132
0.136719 0.257812 0.071423 96 114 150
0.140625 0.257812 0.069061 109 125 161
0.144531 0.257812 0.066039 104 121 151
0.148438 0.257812 0.061951 94 109 130
0.152344 0.257812 0.056770 99 113 124
0.156250 0.257812 0.051158 93 107 107
0.160156 0.257812 0.043927 59 72 65
0.164062 0.257812 0.035517 53 62 57
0.167969 0.257812 0.026935 87 92 91
0.171875 0.257812 0.017231 85 94 93
0.175781 0.257812 0.003344 58 87 71
0.179688 0.257812 -0.014415 75 112 90
0.183594 0.257812 -0.059064 113 113 107
0.187500 0.257812 -0.055271 165 130 125
0.191406 0.257812 -0.055200 188 137 121
0.195312 0.257812 -0.053031 203 146 123
0.199219 0.257812 -0.051100 212 155 125
0.203125 0.257812 -0.049822 220 161 130
0.207031 0.257812 -0.050042 229 171 139
0.210938 0.257812 -0.051601 234 176 144
0.214844 0.257812 -0.053040 237 179 146
0.218750 0.257812 -0.054078 237 176 142
0.222656 0.257812 -0.055269 235 173 139
0.226562 0.257812 -0.057433 232 169 135
0.230469 0.257812 -0.059920 228 173 143
0.234375 0.257812 -0.061989 230 200 176
-0.195312 0.253906 -0.022828 119 97 118
-0.191406 0.253906 -0.014010 219 180 152
-0.187500 0.253906 -0.004608 211 148 114
-0.183594 0.253906 -0.000415 222 153 116
-0.179688 0.253906 0.002500 228 161 123
-0.175781 0.253906 0.004374 232 167 129
-0.171875 0.253906 0.005499 235 174 135
-0.167969 0.253906 0.005469 236 175 137
-0.164062 0.253906 0.004126 236 175 137
-0.160156 0.253906 0.002476 236 175 137
-0.156250 0.253906 0.001184 233 172 135
-0.152344 0.253906 -0.000141 230 167 131
-0.148438 0.253906 -0.001963 222 157 123
-0.144531 0.253906 -0.003485 206 143 114
-0.140625 0.253906 -0.006541 180 126 104
-0.136719 0.253906 -0.013291 150 114 102
-0.132812 0.253906 -0.022237 78 65 68
-0.128906 0.253906 -0.035018 37 37 41
-0.121094 0.253906 0.022553 76 76 74
-0.117188 0.253906 0.036839 39 39 39
-0.113281 0.253906 0.044194 36 36 37
-0.109375 0.253906 0.049650 82 88 88
-0.105469 0.253906 0.055199 64 82 85
-0.101562 0.253906 0.060539 57 77 84
-0.097656 0.253906 0.065827 69 91 102
-0.093750 0.253906 0.070626 77 99 112
-0.089844 0.253906 0.075153 82 101 116
-0.085938 0.253906 0.079461 83 100 116
-0.082031 0.253906 0.083496 94 107 123
-0.078125 0.253906 0.087196 107 119 135
-0.074219 0.253906 0.090446 111 120 137
-0.070312 0.253906 0.093191 105 112 128
-0.066406 0.253906 0.095608 95 119 131
-0.062500 0.253906 0.097704 90 116 129
-0.058594 0.253906 0.099490 72 100 121
-0.054688 0.253906 0.101056 62 96 123
-0.050781 0.253906 0.102415 73 113 148
-0.046875 0.253906 0.103743 79 124 165
-0.042969 0.253906 0.104869 73 121 169
-0.039062 0.253906 0.105847 70 122 172
-0.035156 0.253906 0.106789 65 117 167
-0.031250 0.253906 0.107759 61 111 160
-0.027344 0.253906 0.108748 48 95 139
-0.023438 0.253906 0.109820 43 84 124
-0.019531 0.253906 0.110834 69 105 139
-0.015625 0.253906 0.111741 108 139 167
-0.011719 0.253906 0.112517 117 145 167
-0.007812 0.253906 0.113022 101 128 149
-0.003906 0.253906 0.113382 88 78 112
0.000000 0.253906 0.113573 91 87 112
0.003906 0.253906 0.113699 88 90 103
0.007812 0.253906 0.113768 79 90 90
0.011719 0.253906 0.113761 67 89 79
0.015625 0.253906 0.113568 58 89 76
0.019531 0.253906 0.113184 68 109 99
0.023438 0.253906 0.112629 93 139 139
0.027344 0.253906 0.111875 92 141 158
0.031250 0.253906 0.110910 76 129 161
0.035156 0.253906 0.109715 62 113 160
0.039062 0.253906 0.108328 55 105 162
0.042969 0.253906 0.106788 53 102 163
0.046875 0.253906 0.105225 56 105 166
0.050781 0.253906 0.103613 65 113 172
0.054688 0.253906 0.101922 70 119 177
0.058594 0.253906 0.100175 90 131 163
0.062500 0.253906 0.098503 98 136 172
0.066406 0.253906 0.096987 115 153 190
0.070312 0.253906 0.095660 126 163 205
0.074219 0.253906 0.094498 109 143 189
0.078125 0.253906 0.093473 70 103 154
0.082031 0.253906 0.092658 46 77 132
0.085938 0.253906 0.092135 42 73 128
0.089844 0.253906 0.091664 81 110 166
0.093750 0.253906 0.091165 90 116 173
0.097656 0.253906 0.090280 92 119 172
0.101562 0.253906 0.088757 83 109 158
0.105469 0.253906 0.086954 71 98 143
0.109375 0.253906 0.084993 66 91 132
0.113281 0.253906 0.083051 64 89 129
0.117188 0.253906 0.081234 64 90 127
0.121094 0.253906 0.079453 49 73 75
0.125000 0.253906 0.077543 72 95 103
0.128906 0.253906 0.075584 88 109 126
0.132812 0.253906 0.073677 87 107 132
0.136719 0.253906 0.071613 87 103 136
0.140625 0.253906 0.069143 90 106 139
0.144531 0.253906 0.066037 86 101 130
0.148438 0.253906 0.061932 75 90 109
0.152344 0.253906 0.056818 102 117 124
0.156250 0.253906 0.051162 107 122 119
0.160156 0.253906 0.044248 72 85 76
0.164062 0.253906 0.036315 63 73 65
0.167969 0.253906 0.028591 96 102 100
0.171875 0.253906 0.019854 79 87 86
0.175781 0.253906 0.007111 59 86 72
0.179688 0.253906 -0.005056 76 109 91
0.183594 0.253906 -0.053839 110 108 105
0.187500 0.253906 -0.055932 163 127 122
0.191406 0.253906 -0.055297 185 134 118
0.195312 0.253906 -0.053260 199 142 118
0.199219 0.253906 -0.051315 208 151 121
0.203125 0.253906 -0.049773 217 158 128
0.207031 0.253906 -0.049868 227 169 138
0.210938 0.253906 -0.051352 233 176 143
0.214844 0.253906 -0.052738 236 180 147
0.218750 0.253906 -0.053871 237 178 144
0.222656 0.253906 -0.055146 236 174 140
0.226562 0.253906 -0.057217 233 167 134
0.230469 0.253906 -0.059660 228 171 141
0.234375 0.253906 -0.061444 230 197 173
-0.195312 0.250000 -0.025398 148 115 123
-0.191406 0.250000 -0.010001 213 164 137
-0.187500 0.250000 -0.001793 212 145 112
-0.183594 0.250000 0.002035 223 154 116
-0.179688 0.250000 0.004585 229 162 123
-0.175781 0.250000 0.006266 233 168 129
-0.171875 0.250000 0.007341 235 174 135
-0.167969 0.250000 0.007216 236 176 138
-0.164062 0.250000 0.005733 237 177 139
-0.160156 0.250000 0.003983 236 176 138
-0.156250 0.250000 0.002684 233 172 135
-0.152344 0.250000 0.001229 229 166 131
-0.148438 0.250000 -0.000768 221 157 124
-0.144531 0.250000 -0.002780 203 141 112
-0.140625 0.250000 -0.006963 174 121 101
-0.136719 0.250000 -0.014090 143 110 104
-0.132812 0.250000 -0.022889 73 60 66
-0.128906 0.250000 -0.035920 65 64 63
-0.125000 0.250000 -0.015980 109 107 100
-0.121094 0.250000 0.026320 79 79 75
-0.117188 0.250000 0.036069 40 40 39
-0.113281 0.250000 0.043543 39 40 40
-0.109375 0.250000 0.049477 88 95 95
-0.105469 0.250000 0.055279 71 90 95
-0.101562 0.250000 0.060953 65 87 98
-0.097656 0.250000 0.066474 65 88 102
-0.093750 0.250000 0.071422 81 104 120
-0.089844 0.250000 0.076040 91 112 131
-0.085938 0.250000 0.080361 91 108 128
-0.082031 0.250000 0.084332 91 103 125
-0.078125 0.250000 0.087948 98 106 127
-0.074219 0.250000 0.091096 97 103 125
-0.070312 0.250000 0.093710 90 95 117
-0.066406 0.250000 0.096006 94 114 125
-0.062500 0.250000 0.098002 111 133 147
-0.058594 0.250000 0.099715 110 137 156
-0.054688 0.250000 0.101224 93 127 154
-0.050781 0.250000 0.102544 81 121 157
-0.046875 0.250000 0.103823 72 116 161
-0.042969 0.250000 0.104917 67 119 169
-0.039062 0.250000 0.105885 75 130 186
-0.035156 0.250000 0.106817 75 130 187
-0.031250 0.250000 0.107759 80 135 191
-0.027344 0.250000 0.108716 86 138 188
-0.023438 0.250000 0.109757 79 126 172
-0.019531 0.250000 0.110760 59 101 141
-0.015625 0.250000 0.111652 55 90 124
-0.011719 0.250000 0.112423 83 117 145
-0.007812 0.250000 0.112926 122 154 179
-0.003906 0.250000 0.113274 161 139 204
0.000000 0.250000 0.113479 136 119 171
0.003906 0.250000 0.113640 94 88 116
0.007812 0.250000 0.113751 76 83 85
0.011719 0.250000 0.113805 78 99 78
0.015625 0.250000 0.113678 59 92 59
0.019531 0.250000 0.113352 40 85 50
0.023438 0.250000 0.112849 48 101 77
0.027344 0.250000 0.112132 83 140 134
0.031250 0.250000 0.111193 84 143 161
0.035156 0.250000 0.110007 78 136 174
0.039062 0.250000 0.108599 68 124 179
0.042969 0.250000 0.107029 65 119 183
0.046875 0.250000 0.105422 65 119 184
0.050781 0.250000 0.103762 57 110 174
0.054688 0.250000 0.102021 42 95 159
0.058594 0.250000 0.100215 63 105 143
0.062500 0.250000 0.098509 63 105 145
0.066406 0.250000 0.096969 88 129 173
0.070312 0.250000 0.095622 129 167 214
0.074219 0.250000 0.094438 136 173 225
0.078125 0.250000 0.093389 101 136 192
0.082031 0.250000 0.092574 64 96 157
0.085938 0.250000 0.092065 47 79 140
0.089844 0.250000 0.091613 48 78 140
0.093750 0.250000 0.091134 72 101 161
0.097656 0.250000 0.090294 95 121 178
0.101562 0.250000 0.088848 98 125 178
0.105469 0.250000 0.087124 95 121 170
0.109375 0.250000 0.085249 90 117 162
0.113281 0.250000 0.083382 80 104 148
0.117188 0.250000 0.081624 67 92 133
0.121094 0.250000 0.079887 66 88 86
0.125000 0.250000 0.078000 71 92 97
0.128906 0.250000 0.076013 68 87 101
0.132812 0.250000 0.074034 66 84 108
0.136719 0.250000 0.071862 82 99 129
0.140625 0.250000 0.069261 98 113 146
0.144531 0.250000 0.066097 80 96 122
0.148438 0.250000 0.062030 49 65 81
0.152344 0.250000 0.057104 76 91 98
0.156250 0.250000 0.051327 95 110 107
0.160156 0.250000 0.044963 70 83 74
0.164062 0.250000 0.037055 69 81 71
0.167969 0.250000 0.030025 103 109 107
0.171875 0.250000 0.022037 73 82 81
0.175781 0.250000 0.010725 62 89 75
0.179688 0.250000 -0.000278 79 111 94
0.183594 0.250000 -0.041806 110 108 105
0.187500 0.250000 -0.056967 162 127 121
0.191406 0.250000 -0.054341 183 132 115
0.195312 0.250000 -0.053031 195 138 115
0.199219 0.250000 -0.051255 205 146 117
0.203125 0.250000 -0.049656 213 153 123
0.207031 0.250000 -0.049571 224 165 134
0.210938 0.250000 -0.050828 231 173 141
0.214844 0.250000 -0.052086 235 178 146
0.218750 0.250000 -0.053309 237 178 144
0.222656 0.250000 -0.054674 236 176 142
0.226562 0.250000 -0.056694 234 170 136
0.230469 0.250000 -0.059110 230 174 143
0.234375 0.250000 -0.060865 231 198 173
-0.195312 0.246094 -0.017674 197 169 153
-0.191406 0.246094 -0.005599 220 174 140
-0.187500 0.246094 0.000879 215 150 114
-0.183594 0.246094 0.004472 224 155 116
-0.179688 0.246094 0.006614 229 162 124
-0.175781 0.246094 0.008091 233 168 130
-0.171875 0.246094 0.009068 236 174 136
-0.167969 0.246094 0.008862 237 177 139
-0.164062 0.246094 0.007311 237 178 140
-0.160156 0.246094 0.005482 236 176 138
-0.156250 0.246094 0.004226 233 172 135
-0.152344 0.246094 0.002620 228 166 131
-0.148438 0.246094 0.000426 219 156 125
-0.144531 0.246094 -0.002211 201 141 114
-0.140625 0.246094 -0.007630 169 117 102
-0.136719 0.246094 -0.015004 132 99 102
-0.132812 0.246094 -0.024116 69 53 65
-0.128906 0.246094 -0.035323 100 98 98
-0.125000 0.246094 0.000799 123 121 120
-0.121094 0.246094 0.026084 81 81 81
-0.117188 0.246094 0.035272 43 44 45
-0.113281 0.246094 0.043005 42 45 46
-0.109375 0.246094 0.049488 92 104 112
-0.105469 0.246094 0.055591 74 101 119
-0.101562 0.246094 0.061497 58 93 115
-0.097656 0.246094 0.067137 77 114 140
-0.093750 0.246094 0.072231 90 130 156
-0.089844 0.246094 0.076941 99 139 164
-0.085938 0.246094 0.081266 99 137 160
-0.082031 0.246094 0.085166 98 134 156
-0.078125 0.246094 0.088695 97 132 151
-0.074219 0.246094 0.091736 88 121 138
-0.070312 0.246094 0.094228 76 108 123
-0.066406 0.246094 0.096416 104 98 112
-0.062500 0.246094 0.098306 110 107 124
-0.058594 0.246094 0.099924 106 111 131
-0.054688 0.246094 0.101368 88 102 128
-0.050781 0.246094 0.102634 72 97 127
-0.046875 0.246094 0.103856 68 104 138
-0.042969 0.246094 0.104912 72 117 156
-0.039062 0.246094 0.105853 74 127 169
-0.035156 0.246094 0.106760 73 132 176
-0.031250 0.246094 0.107659 70 131 176
-0.027344 0.246094 0.108579 80 139 183
-0.023438 0.246094 0.109588 91 145 189
-0.019531 0.246094 0.110579 79 128 169
-0.015625 0.246094 0.111473 58 102 143
-0.011719 0.246094 0.112234 58 99 137
-0.007812 0.246094 0.112716 76 115 151
-0.003906 0.246094 0.113053 97 142 171
0.000000 0.246094 0.113259 125 169 196
0.003906 0.246094 0.113443 124 166 188
0.007812 0.246094 0.113604 89 127 144
0.011719 0.246094 0.113722 67 104 113
0.015625 0.246094 0.113670 76 110 114
0.019531 0.246094 0.113425 71 106 106
0.023438 0.246094 0.112982 50 83 84
0.027344 0.246094 0.112300 43 77 79
0.031250 0.246094 0.111384 78 116 123
0.035156 0.246094 0.110204 104 146 162
0.039062 0.246094 0.108785 101 145 170
0.042969 0.246094 0.107202 88 136 172
0.046875 0.246094 0.105561 83 134 179
0.050781 0.246094 0.103856 76 129 181
0.054688 0.246094 0.102077 63 118 174
0.058594 0.246094 0.100228 78 112 175
0.062500 0.246094 0.098488 64 99 153
0.066406 0.246094 0.096933 59 96 138
0.070312 0.246094 0.095560 82 121 150
0.074219 0.246094 0.094338 123 164 184
0.078125 0.246094 0.093273 139 180 200
0.082031 0.246094 0.092465 109 146 175
0.085938 0.246094 0.091955 65 100 142
0.089844 0.246094 0.091503 44 76 135
0.093750 0.246094 0.091021 55 83 156
0.097656 0.246094 0.090210 76 103 180
0.101562 0.246094 0.088846 93 121 195
0.105469 0.246094 0.087228 91 121 185
0.109375 0.246094 0.085458 82 112 162
0.113281 0.246094 0.083682 86 119 154
0.117188 0.246094 0.082012 101 135 162
0.121094 0.246094 0.080349 78 100 141
0.125000 0.246094 0.078515 70 92 129
0.128906 0.246094 0.076521 58 82 110
0.132812 0.246094 0.074452 57 80 96
0.136719 0.246094 0.072155 70 93 99
0.140625 0.246094 0.069431 84 104 105
0.144531 0.246094 0.066215 80 99 97
0.148438 0.246094 0.062169 69 85 84
0.152344 0.246094 0.057453 68 79 81
0.156250 0.246094 0.051720 68 77 82
0.160156 0.246094 0.045676 65 69 78
0.164062 0.246094 0.037893 72 75 83
0.167969 0.246094 0.031594 111 112 119
0.171875 0.246094 0.023903 67 76 74
0.175781 0.246094 0.013774 62 90 76
0.179688 0.246094 0.002511 82 112 97
0.183594 0.246094 -0.024827 111 107 105
0.187500 0.246094 -0.057588 160 124 119
0.191406 0.246094 -0.053241 181 130 112
0.195312 0.246094 -0.052305 193 135 112
0.199219 0.246094 -0.050760 203 145 115
0.203125 0.246094 -0.049310 212 152 122
0.207031 0.246094 -0.049116 223 164 133
0.210938 0.246094 -0.050113 231 173 141
0.214844 0.246094 -0.051209 235 178 145
0.218750 0.246094 -0.052537 237 178 145
0.222656 0.246094 -0.054068 237 177 143
0.226562 0.246094 -0.056148 235 173 138
0.230469 0.246094 -0.058540 231 175 144
0.234375 0.246094 -0.060196 231 197 172
-0.195312 0.242188 -0.011956 192 155 134
-0.191406 0.242188 -0.002086 216 164 128
-0.187500 0.242188 0.003472 216 150 113
-0.183594 0.242188 0.006807 224 155 116
-0.179688 0.242188 0.008662 229 163 124
-0.175781 0.242188 0.009946 233 168 130
-0.171875 0.242188 0.010773 236 174 136
-0.167969 0.242188 0.010456 237 178 140
-0.164062 0.242188 0.008865 237 179 140
-0.160156 0.242188 0.007014 236 176 138
-0.156250 0.242188 0.005713 233 172 135
-0.152344 0.242188 0.004035 227 165 131
-0.148438 0.242188 0.001629 218 156 125
-0.144531 0.242188 -0.001742 200 144 117
-0.140625 0.242188 -0.008500 166 119 105
-0.136719 0.242188 -0.016185 111 83 89
-0.132812 0.242188 -0.025408 71 60 68
-0.128906 0.242188 -0.029238 135 133 130
-0.125000 0.242188 0.010032 137 135 131
-0.121094 0.242188 0.025248 86 86 86
-0.117188 0.242188 0.034573 50 51 51
-0.113281 0.242188 0.042556 51 54 55
-0.109375 0.242188 0.049708 97 108 117
-0.105469 0.242188 0.056070 67 93 112
-0.101562 0.242188 0.062057 51 83 106
-0.097656 0.242188 0.067789 67 103 129
-0.093750 0.242188 0.073026 73 110 139
-0.089844 0.242188 0.077844 83 122 151
-0.085938 0.242188 0.082135 96 133 162
-0.082031 0.242188 0.085944 105 142 169
-0.078125 0.242188 0.089386 110 146 172
-0.074219 0.242188 0.092329 111 145 172
-0.070312 0.242188 0.094716 112 144 169
-0.066406 0.242188 0.096804 135 140 162
-0.062500 0.242188 0.098599 118 124 148
-0.058594 0.242188 0.100128 105 117 143
-0.054688 0.242188 0.101508 97 117 144
-0.050781 0.242188 0.102720 77 104 134
-0.046875 0.242188 0.103894 52 86 121
-0.042969 0.242188 0.104916 47 90 125
-0.039062 0.242188 0.105826 60 108 146
-0.035156 0.242188 0.106704 73 126 166
-0.031250 0.242188 0.107565 66 121 162
-0.027344 0.242188 0.108457 69 123 167
-0.023438 0.242188 0.109444 88 141 185
-0.019531 0.242188 0.110400 105 156 199
-0.015625 0.242188 0.111277 102 151 194
-0.011719 0.242188 0.112006 80 127 171
-0.007812 0.242188 0.112449 62 106 148
-0.003906 0.242188 0.112767 64 108 141
0.000000 0.242188 0.112979 80 123 152
0.003906 0.242188 0.113192 101 143 168
0.007812 0.242188 0.113410 115 153 172
0.011719 0.242188 0.113585 108 146 159
0.015625 0.242188 0.113591 94 127 136
0.019531 0.242188 0.113407 84 117 119
0.023438 0.242188 0.113018 83 116 118
0.027344 0.242188 0.112389 58 92 96
0.031250 0.242188 0.111513 51 87 96
0.035156 0.242188 0.110353 62 100 117
0.039062 0.242188 0.108921 84 126 151
0.042969 0.242188 0.107323 87 133 169
0.046875 0.242188 0.105669 73 122 165
0.050781 0.242188 0.103944 69 121 171
0.054688 0.242188 0.102138 83 134 189
0.058594 0.242188 0.100260 77 111 182
0.062500 0.242188 0.098485 87 122 186
0.066406 0.242188 0.096888 78 115 168
0.070312 0.242188 0.095497 63 100 142
0.074219 0.242188 0.094259 84 123 154
0.078125 0.242188 0.093168 124 164 190
0.082031 0.242188 0.092334 127 167 193
0.085938 0.242188 0.091790 101 137 171
0.089844 0.242188 0.091309 59 93 138
0.093750 0.242188 0.090812 51 84 138
0.097656 0.242188 0.090036 60 90 152
0.101562 0.242188 0.088763 81 111 173
0.105469 0.242188 0.087260 88 118 178
0.109375 0.242188 0.085611 77 108 162
0.113281 0.242188 0.083950 73 105 152
0.117188 0.242188 0.082386 81 114 157
0.121094 0.242188 0.080805 92 115 157
0.125000 0.242188 0.079040 93 117 153
0.128906 0.242188 0.077050 82 106 134
0.132812 0.242188 0.074877 67 90 108
0.136719 0.242188 0.072440 71 94 102
0.140625 0.242188 0.069615 90 111 112
0.144531 0.242188 0.066392 93 113 111
0.148438 0.242188 0.062358 83 99 98
0.152344 0.242188 0.057743 72 84 84
0.156250 0.242188 0.052319 69 78 83
0.160156 0.242188 0.046498 60 67 75
0.164062 0.242188 0.038923 68 71 79
0.167969 0.242188 0.033003 109 111 117
0.171875 0.242188 0.025746 65 76 74
0.175781 0.242188 0.016634 64 94 79
0.179688 0.242188 0.005059 85 116 102
0.183594 0.242188 -0.012446 113 108 108
0.187500 0.242188 -0.053714 159 122 117
0.191406 0.242188 -0.052212 178 127 109
0.195312 0.242188 -0.051137 191 133 109
0.199219 0.242188 -0.049936 202 143 114
0.203125 0.242188 -0.048773 212 152 122
0.207031 0.242188 -0.048578 223 163 132
0.210938 0.242188 -0.049321 231 172 140
0.214844 0.242188 -0.050271 235 177 145
0.218750 0.242188 -0.051694 237 178 144
0.222656 0.242188 -0.053425 237 178 143
0.226562 0.242188 -0.055655 236 174 139
0.230469 0.242188 -0.058104 232 177 146
0.234375 0.242188 -0.059857 232 198 173
-0.199219 0.238281 -0.022619 136 97 97
-0.195312 0.238281 -0.008336 201 157 131
-0.191406 0.238281 0.000864 216 160 122
-0.187500 0.238281 0.005934 217 150 112
-0.183594 0.238281 0.009012 224 155 116
-0.179688 0.238281 0.010735 229 162 124
-0.175781 0.238281 0.011772 233 168 130
-0.171875 0.238281 0.012397 236 174 137
-0.167969 0.238281 0.011977 238 179 140
-0.164062 0.238281 0.010373 238 179 140
-0.160156 0.238281 0.008580 236 177 138
-0.156250 0.238281 0.007186 233 172 135
-0.152344 0.238281 0.005570 227 165 131
-0.148438 0.238281 0.002958 217 155 125
-0.144531 0.238281 -0.001312 200 147 121
-0.140625 0.238281 -0.009397 162 122 107
-0.136719 0.238281 -0.017353 87 69 74
-0.132812 0.238281 -0.027158 86 81 85
-0.128906 0.238281 -0.018939 156 154 148
-0.125000 0.238281 0.012153 140 138 134
-0.121094 0.238281 0.024927 88 88 87
-0.117188 0.238281 0.034101 59 60 60
-0.113281 0.238281 0.042358 66 69 71
-0.109375 0.238281 0.049837 106 118 126
-0.105469 0.238281 0.056424 63 85 103
-0.101562 0.238281 0.062553 48 76 98
-0.097656 0.238281 0.068375 55 86 115
-0.093750 0.238281 0.073741 52 87 119
-0.089844 0.238281 0.078613 60 96 132
-0.085938 0.238281 0.082846 74 109 147
-0.082031 0.238281 0.086579 82 117 157
-0.078125 0.238281 0.089930 85 120 162
-0.074219 0.238281 0.092771 89 124 166
-0.070312 0.238281 0.095049 95 130 172
-0.066406 0.238281 0.097038 123 145 182
-0.062500 0.238281 0.098757 113 135 172
-0.058594 0.238281 0.100224 113 137 173
-0.054688 0.238281 0.101565 119 145 180
-0.050781 0.238281 0.102745 108 137 171
-0.046875 0.238281 0.103893 78 111 144
-0.042969 0.238281 0.104902 58 94 128
-0.039062 0.238281 0.105787 55 96 128
-0.035156 0.238281 0.106625 67 111 146
-0.031250 0.238281 0.107436 73 119 155
-0.027344 0.238281 0.108288 76 125 165
-0.023438 0.238281 0.109234 78 129 172
-0.019531 0.238281 0.110132 88 140 187
-0.015625 0.238281 0.110973 97 150 200
-0.011719 0.238281 0.111664 89 145 196
-0.007812 0.238281 0.112072 76 131 185
-0.003906 0.238281 0.112376 76 120 159
0.000000 0.238281 0.112584 63 106 141
0.003906 0.238281 0.112802 70 112 144
0.007812 0.238281 0.113060 105 145 170
0.011719 0.238281 0.113284 130 167 186
0.015625 0.238281 0.113341 124 160 172
0.019531 0.238281 0.113212 109 142 151
0.023438 0.238281 0.112905 102 135 142
0.027344 0.238281 0.112381 82 114 123
0.031250 0.238281 0.111579 46 79 91
0.035156 0.238281 0.110453 31 67 86
0.039062 0.238281 0.109007 52 91 117
0.042969 0.238281 0.107384 65 108 143
0.046875 0.238281 0.105720 61 106 148
0.050781 0.238281 0.103977 66 112 162
0.054688 0.238281 0.102142 84 131 183
0.058594 0.238281 0.100241 92 124 207
0.062500 0.238281 0.098442 90 123 200
0.066406 0.238281 0.096800 82 117 185
0.070312 0.238281 0.095388 71 107 165
0.074219 0.238281 0.094148 66 104 151
0.078125 0.238281 0.093027 81 119 156
0.082031 0.238281 0.092158 110 149 178
0.085938 0.238281 0.091605 134 174 199
0.089844 0.238281 0.091130 91 128 155
0.093750 0.238281 0.090621 63 100 129
0.097656 0.238281 0.089871 47 83 119
0.101562 0.238281 0.088690 60 94 139
0.105469 0.238281 0.087297 75 107 158
0.109375 0.238281 0.085778 74 105 162
0.113281 0.238281 0.084244 71 101 163
0.117188 0.238281 0.082778 74 103 169
0.121094 0.238281 0.081274 92 116 160
0.125000 0.238281 0.079583 106 132 169
0.128906 0.238281 0.077601 99 124 154
0.132812 0.238281 0.075324 72 98 115
0.136719 0.238281 0.072742 66 91 98
0.140625 0.238281 0.069824 84 108 108
0.144531 0.238281 0.066563 93 113 111
0.148438 0.238281 0.062560 83 102 100
0.152344 0.238281 0.058117 77 91 91
0.156250 0.238281 0.052974 72 82 84
0.160156 0.238281 0.047316 59 67 70
0.164062 0.238281 0.040209 63 66 71
0.167969 0.238281 0.034313 115 118 121
0.171875 0.238281 0.027464 73 85 81
0.175781 0.238281 0.018820 70 102 86
0.179688 0.238281 0.007789 90 122 107
0.183594 0.238281 -0.004725 117 111 112
0.187500 0.238281 -0.045263 159 122 116
0.191406 0.238281 -0.051814 178 126 107
0.195312 0.238281 -0.049727 190 132 108
0.199219 0.238281 -0.048857 202 143 113
0.203125 0.238281 -0.047996 212 152 122
0.207031 0.238281 -0.047890 224 164 132
0.210938 0.238281 -0.048484 232 173 140
0.214844 0.238281 -0.049382 235 178 145
0.218750 0.238281 -0.050811 237 178 144
0.222656 0.238281 -0.052638 237 178 143
0.226562 0.238281 -0.055033 236 175 139
0.230469 0.238281 -0.057763 233 179 146
0.234375 0.238281 -0.059870 232 198 172
-0.199219 0.234375 -0.020004 142 94 93
-0.195312 0.234375 -0.005021 201 150 121
-0.191406 0.234375 0.003317 217 159 118
-0.187500 0.234375 0.008336 219 151 113
-0.183594 0.234375 0.011044 224 154 117
-0.179688 0.234375 0.012596 229 162 124
-0.175781 0.234375 0.013533 233 168 130
-0.171875 0.234375 0.014001 236 175 136
-0.167969 0.234375 0.013468 238 179 140
-0.164062 0.234375 0.011880 238 179 140
-0.160156 0.234375 0.010163 237 178 138
-0.156250 0.234375 0.008745 233 173 135
-0.152344 0.234375 0.007203 226 164 130
-0.148438 0.234375 0.004312 215 153 124
-0.144531 0.234375 -0.001003 200 150 124
-0.140625 0.234375 -0.010131 160 126 110
-0.136719 0.234375 -0.018490 71 62 66
-0.132812 0.234375 -0.027186 100 98 100
-0.128906 0.234375 -0.009904 159 158 150
-0.125000 0.234375 0.013023 132 132 126
-0.121094 0.234375 0.024971 85 85 83
-0.117188 0.234375 0.033936 65 66 66
-0.113281 0.234375 0.042267 80 84 85
-0.109375 0.234375 0.050110 116 126 132
-0.105469 0.234375 0.056976 65 82 98
-0.101562 0.234375 0.063132 56 78 101
-0.097656 0.234375 0.069010 63 88 118
-0.093750 0.234375 0.074463 67 95 132
-0.089844 0.234375 0.079337 71 102 146
-0.085938 0.234375 0.083492 71 105 153
-0.082031 0.234375 0.087139 68 103 157
-0.078125 0.234375 0.090401 67 104 159
-0.074219 0.234375 0.093152 66 105 164
-0.070312 0.234375 0.095326 68 107 166
-0.066406 0.234375 0.097222 72 113 165
-0.062500 0.234375 0.098878 85 125 176
-0.058594 0.234375 0.100301 97 135 182
-0.054688 0.234375 0.101613 105 140 182
-0.050781 0.234375 0.102767 112 146 183
-0.046875 0.234375 0.103878 115 145 179
-0.042969 0.234375 0.104854 98 129 158
-0.039062 0.234375 0.105714 75 106 135
-0.035156 0.234375 0.106510 60 93 124
-0.031250 0.234375 0.107260 71 110 143
-0.027344 0.234375 0.108059 78 122 159
-0.023438 0.234375 0.108965 71 120 163
-0.019531 0.234375 0.109821 62 115 165
-0.015625 0.234375 0.110631 63 122 178
-0.011719 0.234375 0.111293 72 134 195
-0.007812 0.234375 0.111663 77 143 204
-0.003906 0.234375 0.111933 95 142 188
0.000000 0.234375 0.112109 82 126 171
0.003906 0.234375 0.112321 64 108 147
0.007812 0.234375 0.112607 65 105 140
0.011719 0.234375 0.112876 91 128 155
0.015625 0.234375 0.113003 120 155 177
0.019531 0.234375 0.112958 125 158 175
0.023438 0.234375 0.112742 112 144 159
0.027344 0.234375 0.112317 114 146 161
0.031250 0.234375 0.111583 91 124 143
0.035156 0.234375 0.110503 62 96 118
0.039062 0.234375 0.109067 47 81 111
0.042969 0.234375 0.107436 50 87 124
0.046875 0.234375 0.105761 62 100 145
0.050781 0.234375 0.104000 65 107 155
0.054688 0.234375 0.102159 62 103 155
0.058594 0.234375 0.100258 88 122 209
0.062500 0.234375 0.098456 80 115 199
0.066406 0.234375 0.096784 81 116 197
0.070312 0.234375 0.095329 86 120 194
0.074219 0.234375 0.094051 71 106 172
0.078125 0.234375 0.092917 58 95 148
0.082031 0.234375 0.092043 78 117 156
0.085938 0.234375 0.091480 113 153 178
0.089844 0.234375 0.090996 121 163 177
0.093750 0.234375 0.090461 93 135 147
0.097656 0.234375 0.089721 63 102 117
0.101562 0.234375 0.088613 50 87 113
0.105469 0.234375 0.087326 56 91 133
0.109375 0.234375 0.085921 66 98 157
0.113281 0.234375 0.084490 67 97 170
0.117188 0.234375 0.083124 63 91 174
0.121094 0.234375 0.081702 71 100 144
0.125000 0.234375 0.080079 89 118 158
0.128906 0.234375 0.078104 95 124 154
0.132812 0.234375 0.075721 82 110 131
0.136719 0.234375 0.073001 70 98 109
0.140625 0.234375 0.070022 74 99 103
0.144531 0.234375 0.066745 78 100 98
0.148438 0.234375 0.062770 74 94 92
0.152344 0.234375 0.058475 86 102 101
0.156250 0.234375 0.053777 77 88 90
0.160156 0.234375 0.048238 62 70 73
0.164062 0.234375 0.041687 62 67 70
0.167969 0.234375 0.035566 126 130 129
0.171875 0.234375 0.029126 84 97 92
0.175781 0.234375 0.020997 78 108 94
0.179688 0.234375 0.010829 94 125 112
0.183594 0.234375 -0.000477 120 113 115
0.187500 0.234375 -0.036327 159 121 116
0.191406 0.234375 -0.050986 178 126 106
0.195312 0.234375 -0.048204 191 132 107
0.199219 0.234375 -0.047662 204 144 113
0.203125 0.234375 -0.047225 214 154 123
0.207031 0.234375 -0.047248 225 165 133
0.210938 0.234375 -0.047768 233 174 141
0.214844 0.234375 -0.048665 236 178 145
0.218750 0.234375 -0.050048 238 179 144
0.222656 0.234375 -0.051928 238 179 142
0.226562 0.234375 -0.054462 237 176 139
0.230469 0.234375 -0.057419 233 179 145
0.234375 0.234375 -0.060163 232 197 171
-0.199219 0.230469 -0.014954 160 113 106
-0.195312 0.230469 -0.001013 195 134 108
-0.191406 0.230469 0.005708 216 152 114
-0.187500 0.230469 0.010528 221 152 114
-0.183594 0.230469 0.013016 225 154 117
-0.179688 0.230469 0.014403 229 162 124
-0.175781 0.230469 0.015245 233 168 130
-0.171875 0.230469 0.015577 236 175 136
-0.167969 0.230469 0.014932 238 179 139
-0.164062 0.230469 0.013390 238 180 139
-0.160156 0.230469 0.011723 237 178 138
-0.156250 0.230469 0.010325 233 174 136
-0.152344 0.230469 0.008810 226 164 130
-0.148438 0.230469 0.005735 213 152 123
-0.144531 0.230469 -0.000592 199 152 126
-0.140625 0.230469 -0.010457 156 125 108
-0.136719 0.230469 -0.019926 60 56 60
-0.132812 0.230469 -0.024832 111 110 112
-0.128906 0.230469 -0.003484 156 156 148
-0.125000 0.230469 0.014243 126 126 120
-0.121094 0.230469 0.025509 85 85 82
-0.117188 0.230469 0.034329 69 70 69
-0.113281 0.230469 0.042601 87 90 89
-0.109375 0.230469 0.050517 120 128 131
-0.105469 0.230469 0.057437 75 87 99
-0.101562 0.230469 0.063675 75 90 111
-0.097656 0.230469 0.069648 59 78 108
-0.093750 0.230469 0.075166 73 97 135
-0.089844 0.230469 0.080022 80 108 155
-0.085938 0.230469 0.084075 75 106 161
-0.082031 0.230469 0.087628 68 104 166
-0.078125 0.230469 0.090802 68 107 174
-0.074219 0.230469 0.093468 68 108 180
-0.070312 0.230469 0.095543 62 104 178
-0.066406 0.230469 0.097347 49 106 173
-0.062500 0.230469 0.098949 58 112 176
-0.058594 0.230469 0.100339 61 112 169
-0.054688 0.230469 0.101630 66 109 160
-0.050781 0.230469 0.102771 83 120 164
-0.046875 0.230469 0.103858 105 137 175
-0.042969 0.230469 0.104796 107 136 166
-0.039062 0.230469 0.105625 96 123 152
-0.035156 0.230469 0.106384 66 93 122
-0.031250 0.230469 0.107058 57 90 121
-0.027344 0.230469 0.107781 57 95 132
-0.023438 0.230469 0.108645 65 112 156
-0.019531 0.230469 0.109465 69 124 178
-0.015625 0.230469 0.110225 63 125 186
-0.011719 0.230469 0.110840 53 121 186
-0.007812 0.230469 0.111167 49 119 188
-0.003906 0.230469 0.111388 74 123 179
0.000000 0.230469 0.111535 91 138 192
0.003906 0.230469 0.111749 84 130 179
0.007812 0.230469 0.112058 56 99 142
0.011719 0.230469 0.112358 49 88 127
0.015625 0.230469 0.112546 75 111 143
0.019531 0.230469 0.112594 100 135 163
0.023438 0.230469 0.112463 109 141 166
0.027344 0.230469 0.112120 126 158 181
0.031250 0.230469 0.111470 129 161 186
0.035156 0.230469 0.110485 114 145 174
0.039062 0.230469 0.109082 82 115 150
0.042969 0.230469 0.107459 70 105 145
0.046875 0.230469 0.105788 77 114 159
0.050781 0.230469 0.104023 74 112 161
0.054688 0.230469 0.102193 58 95 147
0.058594 0.230469 0.100312 66 102 178
0.062500 0.230469 0.098526 80 115 196
0.066406 0.230469 0.096848 85 120 202
0.070312 0.230469 0.095360 77 112 196
0.074219 0.230469 0.094047 72 107 189
0.078125 0.230469 0.092898 75 112 183
0.082031 0.230469 0.092025 75 112 167
0.085938 0.230469 0.091427 68 108 144
0.089844 0.230469 0.090894 116 159 178
0.093750 0.230469 0.090339 116 159 168
0.097656 0.230469 0.089616 97 140 147
0.101562 0.230469 0.088566 69 111 127
0.105469 0.230469 0.087358 61 100 133
0.109375 0.230469 0.086036 70 103 157
0.113281 0.230469 0.084689 65 95 167
0.117188 0.230469 0.083413 46 74 157
0.121094 0.230469 0.082071 49 81 130
0.125000 0.230469 0.080514 61 92 136
0.128906 0.230469 0.078545 79 112 147
0.132812 0.230469 0.076071 93 123 149
0.136719 0.230469 0.073240 89 118 132
0.140625 0.230469 0.070198 75 102 109
0.144531 0.230469 0.066900 70 94 96
0.148438 0.230469 0.062985 73 93 94
0.152344 0.230469 0.058839 92 108 108
0.156250 0.230469 0.054467 83 94 96
0.160156 0.230469 0.049086 69 79 81
0.164062 0.230469 0.043003 65 70 74
0.167969 0.230469 0.036775 134 138 138
0.171875 0.230469 0.030704 92 105 100
0.175781 0.230469 0.023025 88 118 105
0.179688 0.230469 0.013498 101 130 119
0.183594 0.230469 0.001862 123 115 118
0.187500 0.230469 -0.029444 160 122 116
0.191406 0.230469 -0.049352 179 126 106
0.195312 0.230469 -0.046995 192 133 107
0.199219 0.230469 -0.046637 205 145 113
0.203125 0.230469 -0.046435 216 156 123
0.207031 0.230469 -0.046502 227 167 134
0.210938 0.230469 -0.047006 234 175 141
0.214844 0.230469 -0.047879 237 179 145
