ply
    format ascii 1.0
    element vertex 74078
    property float x
    property float y
    property float z
    property uchar red
    property uchar green
    property uchar blue
    end_header
0.093750 0.058594 -0.144078 66 102 138
0.097656 0.058594 -0.144309 56 91 121
0.101562 0.058594 -0.144563 62 96 121
0.105469 0.058594 -0.144683 78 114 130
0.109375 0.058594 -0.144734 87 121 133
0.113281 0.058594 -0.144830 78 112 121
0.117188 0.058594 -0.144912 65 100 106
0.121094 0.058594 -0.144886 48 81 54
0.125000 0.058594 -0.144690 43 75 54
0.128906 0.058594 -0.144264 41 71 61
0.132812 0.058594 -0.143591 44 72 76
0.136719 0.058594 -0.142715 48 73 95
0.140625 0.058594 -0.141623 52 74 115
0.144531 0.058594 -0.140515 61 80 138
0.148438 0.058594 -0.139359 69 88 157
0.152344 0.058594 -0.138005 67 86 165
0.156250 0.058594 -0.136536 59 81 166
0.160156 0.058594 -0.134674 51 75 163
0.164062 0.058594 -0.132510 45 73 157
0.167969 0.058594 -0.130188 42 75 156
0.171875 0.058594 -0.127768 38 74 152
0.175781 0.058594 -0.125274 32 70 143
0.179688 0.058594 -0.122654 27 67 139
0.183594 0.058594 -0.120078 45 61 146
0.187500 0.058594 -0.117486 51 68 146
0.191406 0.058594 -0.114706 58 76 142
0.195312 0.058594 -0.111827 62 82 132
0.199219 0.058594 -0.109002 65 86 117
0.203125 0.058594 -0.106173 62 84 98
0.207031 0.058594 -0.103309 50 72 70
0.210938 0.058594 -0.100384 37 59 46
0.214844 0.058594 -0.097323 33 55 34
0.218750 0.058594 -0.094110 49 68 46
0.222656 0.058594 -0.090200 55 70 49
0.226562 0.058594 -0.085774 92 101 92
0.230469 0.058594 -0.080754 66 72 82
0.234375 0.058594 -0.075554 100 110 134
0.238281 0.058594 -0.071033 140 150 166
0.242188 0.058594 -0.067288 164 170 178
0.246094 0.058594 -0.064152 191 194 194
0.250000 0.058594 -0.078430 202 204 204
0.253906 0.058594 -0.089386 180 183 185
0.257812 0.058594 -0.096952 112 111 112
0.261719 0.058594 -0.101439 122 97 83
0.265625 0.058594 -0.104864 154 110 87
0.269531 0.058594 -0.106478 182 125 97
0.273438 0.058594 -0.105170 197 139 105
0.277344 0.058594 -0.104374 204 146 107
0.281250 0.058594 -0.103187 208 148 109
0.285156 0.058594 -0.101554 213 158 120
0.289062 0.058594 -0.099075 215 165 130
0.292969 0.058594 -0.094356 197 160 132
0.296875 0.058594 -0.086621 197 186 162
-0.207031 0.054688 0.038580 171 130 98
-0.203125 0.054688 0.033020 171 113 78
-0.199219 0.054688 0.030874 189 122 82
-0.195312 0.054688 0.028705 204 134 88
-0.191406 0.054688 0.027451 215 142 93
-0.187500 0.054688 0.026850 233 171 119
-0.183594 0.054688 0.027888 242 192 143
-0.179688 0.054688 0.030169 243 193 147
-0.175781 0.054688 0.033743 245 204 161
-0.171875 0.054688 0.037259 243 206 167
-0.167969 0.054688 0.041085 230 190 158
-0.164062 0.054688 0.022933 242 226 213
-0.132812 0.054688 -0.048567 235 236 235
-0.128906 0.054688 -0.055489 99 111 139
-0.125000 0.054688 -0.061398 106 115 148
-0.121094 0.054688 -0.067119 105 111 152
-0.117188 0.054688 -0.072339 108 110 150
-0.113281 0.054688 -0.076849 139 139 167
-0.109375 0.054688 -0.081042 159 157 174
-0.105469 0.054688 -0.084770 154 155 169
-0.101562 0.054688 -0.088403 117 124 137
-0.097656 0.054688 -0.091984 82 97 106
-0.093750 0.054688 -0.095428 86 114 112
-0.089844 0.054688 -0.098869 106 127 114
-0.085938 0.054688 -0.102006 75 80 62
-0.082031 0.054688 -0.105113 64 67 47
-0.078125 0.054688 -0.107975 66 70 48
-0.074219 0.054688 -0.110488 73 77 55
-0.070312 0.054688 -0.112807 86 90 68
-0.066406 0.054688 -0.114933 48 74 100
-0.062500 0.054688 -0.116961 55 81 109
-0.058594 0.054688 -0.119086 66 93 123
-0.054688 0.054688 -0.121248 80 106 141
-0.050781 0.054688 -0.123303 88 116 156
-0.046875 0.054688 -0.125238 86 113 160
-0.042969 0.054688 -0.126764 74 101 154
-0.039062 0.054688 -0.127973 63 92 148
-0.035156 0.054688 -0.129102 68 98 158
-0.031250 0.054688 -0.130155 66 97 161
-0.027344 0.054688 -0.131083 64 95 160
-0.023438 0.054688 -0.131920 63 96 163
-0.019531 0.054688 -0.132728 62 97 163
-0.015625 0.054688 -0.133471 61 96 162
-0.011719 0.054688 -0.134210 55 93 158
-0.007812 0.054688 -0.134920 51 89 154
-0.003906 0.054688 -0.135590 55 96 158
0.000000 0.054688 -0.136216 68 109 171
0.003906 0.054688 -0.136874 76 117 179
0.007812 0.054688 -0.137608 67 108 170
0.011719 0.054688 -0.138261 50 92 152
0.015625 0.054688 -0.138869 43 88 147
0.019531 0.054688 -0.139452 56 101 160
0.023438 0.054688 -0.139996 71 116 173
0.027344 0.054688 -0.140484 80 125 180
0.031250 0.054688 -0.140872 80 127 181
0.035156 0.054688 -0.141270 79 126 178
0.039062 0.054688 -0.141594 75 122 174
0.042969 0.054688 -0.141867 67 117 168
0.046875 0.054688 -0.142119 64 114 163
0.050781 0.054688 -0.142275 65 115 164
0.054688 0.054688 -0.142357 68 118 167
0.058594 0.054688 -0.142492 72 118 154
0.062500 0.054688 -0.142744 87 131 170
0.066406 0.054688 -0.142882 97 140 182
0.070312 0.054688 -0.143008 94 137 180
0.074219 0.054688 -0.143176 88 129 175
0.078125 0.054688 -0.143345 84 122 171
0.082031 0.054688 -0.143574 80 118 167
0.085938 0.054688 -0.143804 77 113 161
0.089844 0.054688 -0.144054 85 119 165
0.093750 0.054688 -0.144268 72 105 148
0.097656 0.054688 -0.144492 57 89 127
0.101562 0.054688 -0.144750 54 87 118
0.105469 0.054688 -0.144883 65 97 122
0.109375 0.054688 -0.144952 76 108 129
0.113281 0.054688 -0.145054 83 114 132
0.117188 0.054688 -0.145152 83 115 130
0.121094 0.054688 -0.145129 67 99 78
0.125000 0.054688 -0.144933 50 78 63
0.128906 0.054688 -0.144510 35 62 55
0.132812 0.054688 -0.143832 39 64 68
0.136719 0.054688 -0.142943 54 77 95
0.140625 0.054688 -0.141826 63 84 115
0.144531 0.054688 -0.140699 63 81 127
0.148438 0.054688 -0.139517 59 78 134
0.152344 0.054688 -0.138133 56 75 141
0.156250 0.054688 -0.136642 50 73 143
0.160156 0.054688 -0.134765 44 68 142
0.164062 0.054688 -0.132592 37 65 139
0.167969 0.054688 -0.130290 33 62 138
0.171875 0.054688 -0.127911 32 66 138
0.175781 0.054688 -0.125479 33 70 141
0.179688 0.054688 -0.122941 36 73 144
0.183594 0.054688 -0.120437 32 49 127
0.187500 0.054688 -0.117896 27 45 117
0.191406 0.054688 -0.115152 34 52 114
0.195312 0.054688 -0.112297 54 75 120
0.199219 0.054688 -0.109477 67 88 117
0.203125 0.054688 -0.106661 61 83 96
0.207031 0.054688 -0.103818 49 71 69
0.210938 0.054688 -0.100920 41 63 51
0.214844 0.054688 -0.097921 33 52 33
0.218750 0.054688 -0.094788 47 64 45
0.222656 0.054688 -0.090936 52 67 48
0.226562 0.054688 -0.086599 100 109 99
0.230469 0.054688 -0.081997 68 74 80
0.234375 0.054688 -0.076902 87 96 114
0.238281 0.054688 -0.072361 126 134 147
0.242188 0.054688 -0.068526 152 157 162
0.246094 0.054688 -0.064363 176 178 179
0.250000 0.054688 -0.073382 193 194 194
0.253906 0.054688 -0.086145 191 192 193
0.257812 0.054688 -0.095074 141 144 141
0.261719 0.054688 -0.099882 112 96 82
0.265625 0.054688 -0.103695 148 107 88
0.269531 0.054688 -0.105449 176 122 96
0.273438 0.054688 -0.104297 193 136 103
0.277344 0.054688 -0.103882 202 144 105
0.281250 0.054688 -0.102938 207 149 110
0.285156 0.054688 -0.101588 213 158 120
0.289062 0.054688 -0.099162 213 163 127
0.292969 0.054688 -0.095477 200 160 132
0.296875 0.054688 -0.091762 195 173 152
-0.207031 0.050781 0.039109 177 125 100
-0.203125 0.050781 0.034065 191 122 89
-0.199219 0.050781 0.031997 217 146 107
-0.195312 0.050781 0.030041 222 151 110
-0.191406 0.050781 0.028787 213 132 90
-0.187500 0.050781 0.028176 229 158 107
-0.183594 0.050781 0.029447 242 191 141
-0.179688 0.050781 0.031857 243 192 146
-0.175781 0.050781 0.035614 244 198 154
-0.171875 0.050781 0.039366 241 197 156
-0.167969 0.050781 0.044342 230 190 157
-0.164062 0.050781 0.034502 239 214 197
-0.140625 0.050781 -0.041601 228 230 233
-0.136719 0.050781 -0.049023 230 231 234
-0.132812 0.050781 -0.055423 234 235 237
-0.128906 0.050781 -0.060721 208 214 217
-0.125000 0.050781 -0.065361 217 221 225
-0.121094 0.050781 -0.069984 218 223 228
-0.117188 0.050781 -0.074628 211 216 225
-0.113281 0.050781 -0.078762 209 211 222
-0.109375 0.050781 -0.082589 199 199 213
-0.105469 0.050781 -0.086076 170 174 193
-0.101562 0.050781 -0.089457 110 120 153
-0.097656 0.050781 -0.092833 83 101 135
-0.093750 0.050781 -0.096081 82 121 137
-0.089844 0.050781 -0.099381 90 131 127
-0.085938 0.050781 -0.102533 81 90 77
-0.082031 0.050781 -0.105606 53 56 39
-0.078125 0.050781 -0.108436 70 73 54
-0.074219 0.050781 -0.110999 69 73 54
-0.070312 0.050781 -0.113306 68 72 51
-0.066406 0.050781 -0.115407 79 100 102
-0.062500 0.050781 -0.117401 63 87 88
-0.058594 0.050781 -0.119468 50 74 79
-0.054688 0.050781 -0.121504 51 74 83
-0.050781 0.050781 -0.123422 67 90 104
-0.046875 0.050781 -0.125287 85 111 128
-0.042969 0.050781 -0.126743 99 123 147
-0.039062 0.050781 -0.127900 103 129 156
-0.035156 0.050781 -0.128956 99 126 156
-0.031250 0.050781 -0.129949 96 125 157
-0.027344 0.050781 -0.130878 94 123 157
-0.023438 0.050781 -0.131695 90 120 156
-0.019531 0.050781 -0.132485 83 116 151
-0.015625 0.050781 -0.133200 74 107 142
-0.011719 0.050781 -0.133917 63 96 131
-0.007812 0.050781 -0.134628 56 89 124
-0.003906 0.050781 -0.135289 42 81 130
0.000000 0.050781 -0.135936 47 87 136
0.003906 0.050781 -0.136599 55 95 144
0.007812 0.050781 -0.137331 58 98 147
0.011719 0.050781 -0.137993 58 99 145
0.015625 0.050781 -0.138626 61 102 148
0.019531 0.050781 -0.139244 68 111 156
0.023438 0.050781 -0.139815 76 119 164
0.027344 0.050781 -0.140340 67 110 153
0.031250 0.050781 -0.140781 74 119 161
0.035156 0.050781 -0.141198 83 128 169
0.039062 0.050781 -0.141556 86 131 172
0.042969 0.050781 -0.141859 83 128 169
0.046875 0.050781 -0.142140 74 122 162
0.050781 0.050781 -0.142345 69 117 157
0.054688 0.050781 -0.142449 66 114 154
0.058594 0.050781 -0.142593 72 113 157
0.062500 0.050781 -0.142803 76 117 163
0.066406 0.050781 -0.142930 78 118 167
0.070312 0.050781 -0.143060 80 117 169
0.074219 0.050781 -0.143221 83 120 173
0.078125 0.050781 -0.143405 88 123 179
0.082031 0.050781 -0.143636 91 123 180
0.085938 0.050781 -0.143866 89 120 177
0.089844 0.050781 -0.144134 89 120 175
0.093750 0.050781 -0.144364 89 119 171
0.097656 0.050781 -0.144607 88 116 164
0.101562 0.050781 -0.144893 87 114 157
0.105469 0.050781 -0.145051 84 112 149
0.109375 0.050781 -0.145143 83 109 142
0.113281 0.050781 -0.145262 80 107 136
0.117188 0.050781 -0.145391 78 105 132
0.121094 0.050781 -0.145372 76 103 94
0.125000 0.050781 -0.145171 65 92 85
0.128906 0.050781 -0.144748 56 81 77
0.132812 0.050781 -0.144061 52 76 78
0.136719 0.050781 -0.143150 53 76 84
0.140625 0.050781 -0.141996 56 77 94
0.144531 0.050781 -0.140837 64 84 109
0.148438 0.050781 -0.139618 71 91 124
0.152344 0.050781 -0.138202 73 92 134
0.156250 0.050781 -0.136684 73 94 141
0.160156 0.050781 -0.134794 69 92 146
0.164062 0.050781 -0.132627 62 87 144
0.167969 0.050781 -0.130356 51 79 142
0.171875 0.050781 -0.128023 46 76 140
0.175781 0.050781 -0.125648 47 78 145
0.179688 0.050781 -0.123176 50 81 148
0.183594 0.050781 -0.120719 63 81 147
0.187500 0.050781 -0.118217 43 62 121
0.191406 0.050781 -0.115502 41 61 112
0.195312 0.050781 -0.112655 67 86 126
0.199219 0.050781 -0.109832 82 102 127
0.203125 0.050781 -0.107017 68 87 101
0.207031 0.050781 -0.104184 44 64 65
0.210938 0.050781 -0.101283 32 52 43
0.214844 0.050781 -0.098316 37 55 41
0.218750 0.050781 -0.095252 49 66 48
0.222656 0.050781 -0.091472 53 67 52
0.226562 0.050781 -0.087239 105 115 107
0.230469 0.050781 -0.082856 70 74 78
0.234375 0.050781 -0.078087 80 87 101
0.238281 0.050781 -0.073480 117 124 135
0.242188 0.050781 -0.069599 144 149 152
0.246094 0.050781 -0.065414 166 167 168
0.250000 0.050781 -0.068913 184 184 184
0.253906 0.050781 -0.082571 191 192 192
0.257812 0.050781 -0.092595 161 164 162
0.261719 0.050781 -0.097830 107 96 89
0.265625 0.050781 -0.102159 141 104 90
0.269531 0.050781 -0.104234 172 121 96
0.273438 0.050781 -0.103358 190 134 101
0.277344 0.050781 -0.103470 202 144 104
0.281250 0.050781 -0.102764 208 150 111
0.285156 0.050781 -0.101602 213 158 119
0.289062 0.050781 -0.098970 214 162 126
0.292969 0.050781 -0.095437 206 165 135
0.296875 0.050781 -0.091723 200 174 150
0.300781 0.050781 -0.083034 155 135 113
-0.207031 0.046875 0.039518 199 147 119
-0.203125 0.046875 0.035113 214 146 108
-0.199219 0.046875 0.033005 233 171 128
-0.195312 0.046875 0.031282 235 173 134
-0.191406 0.046875 0.030104 222 148 108
-0.187500 0.046875 0.029516 230 163 117
-0.183594 0.046875 0.030994 243 195 152
-0.179688 0.046875 0.033561 244 198 159
-0.175781 0.046875 0.037276 245 203 166
-0.171875 0.046875 0.041138 242 205 171
-0.167969 0.046875 0.045920 237 208 180
-0.164062 0.046875 0.046532 220 202 181
-0.148438 0.046875 -0.022740 227 232 233
-0.144531 0.046875 -0.040298 225 231 233
-0.140625 0.046875 -0.048195 233 236 239
-0.136719 0.046875 -0.053815 152 154 159
-0.132812 0.046875 -0.059382 216 218 216
-0.128906 0.046875 -0.063982 233 235 234
-0.125000 0.046875 -0.067822 234 236 237
-0.121094 0.046875 -0.072158 235 238 239
-0.117188 0.046875 -0.076452 233 237 238
-0.113281 0.046875 -0.080250 234 237 239
-0.109375 0.046875 -0.083858 233 235 237
-0.105469 0.046875 -0.087173 225 229 233
-0.101562 0.046875 -0.090478 207 213 224
-0.097656 0.046875 -0.093876 193 203 221
-0.093750 0.046875 -0.097063 171 196 213
-0.089844 0.046875 -0.100275 123 172 179
-0.085938 0.046875 -0.103401 115 142 133
-0.082031 0.046875 -0.106413 54 58 46
-0.078125 0.046875 -0.109142 59 61 48
-0.074219 0.046875 -0.111581 55 57 43
-0.070312 0.046875 -0.113758 57 59 45
-0.066406 0.046875 -0.115816 58 76 52
-0.062500 0.046875 -0.117734 64 83 61
-0.058594 0.046875 -0.119707 72 90 71
-0.054688 0.046875 -0.121712 75 94 78
-0.050781 0.046875 -0.123559 77 95 84
-0.046875 0.046875 -0.125305 76 96 88
-0.042969 0.046875 -0.126707 79 99 97
-0.039062 0.046875 -0.127886 82 102 101
-0.035156 0.046875 -0.128978 95 116 119
-0.031250 0.046875 -0.129979 99 123 127
-0.027344 0.046875 -0.130910 109 132 138
-0.023438 0.046875 -0.131709 118 143 148
-0.019531 0.046875 -0.132493 124 149 156
-0.015625 0.046875 -0.133221 123 150 157
-0.011719 0.046875 -0.133928 120 148 152
-0.007812 0.046875 -0.134648 117 145 149
-0.003906 0.046875 -0.135292 107 142 174
0.000000 0.046875 -0.135925 94 130 162
0.003906 0.046875 -0.136575 86 122 154
0.007812 0.046875 -0.137286 93 129 161
0.011719 0.046875 -0.137927 104 140 172
0.015625 0.046875 -0.138525 107 143 175
0.019531 0.046875 -0.139125 97 136 167
0.023438 0.046875 -0.139700 89 128 157
0.027344 0.046875 -0.140225 90 129 158
0.031250 0.046875 -0.140677 94 133 162
0.035156 0.046875 -0.141071 98 139 167
0.039062 0.046875 -0.141388 98 139 167
0.042969 0.046875 -0.141649 95 136 164
0.046875 0.046875 -0.141882 93 134 162
0.050781 0.046875 -0.142045 91 135 162
0.054688 0.046875 -0.142136 93 137 164
0.058594 0.046875 -0.142268 93 130 175
0.062500 0.046875 -0.142451 86 122 170
0.066406 0.046875 -0.142605 79 112 163
0.070312 0.046875 -0.142770 73 106 159
0.074219 0.046875 -0.142975 77 108 163
0.078125 0.046875 -0.143205 86 117 174
0.082031 0.046875 -0.143469 96 125 185
0.085938 0.046875 -0.143722 102 128 187
0.089844 0.046875 -0.144020 88 114 173
0.093750 0.046875 -0.144282 96 121 177
0.097656 0.046875 -0.144549 106 129 181
0.101562 0.046875 -0.144868 109 133 181
0.105469 0.046875 -0.145056 105 128 170
0.109375 0.046875 -0.145168 94 118 156
0.113281 0.046875 -0.145296 83 106 140
0.117188 0.046875 -0.145450 75 98 132
0.121094 0.046875 -0.145442 80 104 106
0.125000 0.046875 -0.145247 75 99 99
0.128906 0.046875 -0.144835 70 91 92
0.132812 0.046875 -0.144153 62 84 82
0.136719 0.046875 -0.143243 53 73 72
0.140625 0.046875 -0.142084 49 69 68
0.144531 0.046875 -0.140915 56 75 79
0.148438 0.046875 -0.139683 68 87 94
0.152344 0.046875 -0.138256 76 95 109
0.156250 0.046875 -0.136724 79 100 119
0.160156 0.046875 -0.134832 83 104 133
0.164062 0.046875 -0.132675 81 103 140
0.167969 0.046875 -0.130428 75 97 144
0.171875 0.046875 -0.128130 66 89 143
0.175781 0.046875 -0.125798 58 83 140
0.179688 0.046875 -0.123379 55 79 141
0.183594 0.046875 -0.120961 69 87 137
0.187500 0.046875 -0.118491 51 69 115
0.191406 0.046875 -0.115809 47 66 106
0.195312 0.046875 -0.112975 70 89 121
0.199219 0.046875 -0.110147 92 113 134
0.203125 0.046875 -0.107321 88 108 119
0.207031 0.046875 -0.104480 63 83 84
0.210938 0.046875 -0.101576 42 61 55
0.214844 0.046875 -0.098620 47 64 54
0.218750 0.046875 -0.095577 56 72 61
0.222656 0.046875 -0.091860 57 70 60
0.226562 0.046875 -0.087720 109 118 112
0.230469 0.046875 -0.083408 73 78 82
0.234375 0.046875 -0.079021 75 83 94
0.238281 0.046875 -0.074349 105 113 122
0.242188 0.046875 -0.070328 130 134 138
0.246094 0.046875 -0.066144 151 152 153
0.250000 0.046875 -0.065331 170 171 171
0.253906 0.046875 -0.078925 183 184 184
0.257812 0.046875 -0.090090 169 170 169
0.261719 0.046875 -0.096135 106 98 97
0.265625 0.046875 -0.100784 130 97 87
0.269531 0.046875 -0.103136 166 119 93
0.273438 0.046875 -0.102546 188 132 99
0.277344 0.046875 -0.102961 202 144 103
0.281250 0.046875 -0.102538 209 151 111
0.285156 0.046875 -0.101652 214 158 119
0.289062 0.046875 -0.099025 216 162 125
0.292969 0.046875 -0.095516 212 169 137
0.296875 0.046875 -0.090916 209 180 152
0.300781 0.046875 -0.084512 190 171 142
-0.207031 0.042969 0.040112 212 164 132
-0.203125 0.042969 0.036268 220 155 117
-0.199219 0.042969 0.034149 231 163 121
-0.195312 0.042969 0.032392 237 173 133
-0.191406 0.042969 0.031290 238 174 136
-0.187500 0.042969 0.030825 242 186 149
-0.183594 0.042969 0.032412 247 202 170
-0.179688 0.042969 0.035053 247 201 172
-0.175781 0.042969 0.038748 247 203 177
-0.171875 0.042969 0.042783 245 208 185
-0.167969 0.042969 0.047296 246 223 206
-0.164062 0.042969 0.056804 242 226 213
-0.152344 0.042969 -0.019520 235 236 233
-0.148438 0.042969 -0.038273 234 237 238
-0.144531 0.042969 -0.046540 218 220 225
-0.140625 0.042969 -0.051947 217 218 222
-0.136719 0.042969 -0.057025 220 222 223
-0.132812 0.042969 -0.062193 235 236 235
-0.128906 0.042969 -0.066207 238 239 240
-0.125000 0.042969 -0.069682 236 238 240
-0.121094 0.042969 -0.073497 236 239 241
-0.117188 0.042969 -0.077557 234 238 240
-0.113281 0.042969 -0.081208 233 238 240
-0.109375 0.042969 -0.084678 230 236 238
-0.105469 0.042969 -0.087875 227 233 236
-0.101562 0.042969 -0.091043 226 231 234
-0.097656 0.042969 -0.094363 224 228 235
-0.093750 0.042969 -0.097449 218 224 233
-0.089844 0.042969 -0.100652 197 209 220
-0.085938 0.042969 -0.103760 192 207 214
-0.082031 0.042969 -0.106732 189 203 207
-0.078125 0.042969 -0.109444 127 142 149
-0.074219 0.042969 -0.111837 71 79 83
-0.070312 0.042969 -0.113999 84 88 85
-0.066406 0.042969 -0.116058 64 75 44
-0.062500 0.042969 -0.117985 65 77 43
-0.058594 0.042969 -0.119871 65 77 45
-0.054688 0.042969 -0.121855 56 70 42
-0.050781 0.042969 -0.123724 49 62 36
-0.046875 0.042969 -0.125437 49 63 40
-0.042969 0.042969 -0.126817 59 73 55
-0.039062 0.042969 -0.127901 68 82 66
-0.035156 0.042969 -0.128933 68 82 67
-0.031250 0.042969 -0.129893 75 91 78
-0.027344 0.042969 -0.130846 87 105 93
-0.023438 0.042969 -0.131637 101 119 107
-0.019531 0.042969 -0.132398 108 128 116
-0.015625 0.042969 -0.133137 113 133 121
-0.011719 0.042969 -0.133820 115 135 123
-0.007812 0.042969 -0.134557 115 135 123
-0.003906 0.042969 -0.135235 117 149 164
0.000000 0.042969 -0.135863 115 147 162
0.003906 0.042969 -0.136511 115 147 162
0.007812 0.042969 -0.137232 116 148 163
0.011719 0.042969 -0.137891 111 143 158
0.015625 0.042969 -0.138429 105 138 153
0.019531 0.042969 -0.138978 108 141 156
0.023438 0.042969 -0.139549 115 148 163
0.027344 0.042969 -0.140034 125 161 175
0.031250 0.042969 -0.140477 125 161 175
0.035156 0.042969 -0.140862 122 158 174
0.039062 0.042969 -0.141202 117 153 169
0.042969 0.042969 -0.141444 111 148 164
0.046875 0.042969 -0.141642 112 149 165
0.050781 0.042969 -0.141795 117 154 170
0.054688 0.042969 -0.141869 123 160 176
0.058594 0.042969 -0.142013 105 137 175
0.062500 0.042969 -0.142224 104 136 174
0.066406 0.042969 -0.142403 102 134 173
0.070312 0.042969 -0.142564 102 131 173
0.074219 0.042969 -0.142798 99 127 174
0.078125 0.042969 -0.143041 98 124 173
0.082031 0.042969 -0.143325 100 126 175
0.085938 0.042969 -0.143591 106 129 179
0.089844 0.042969 -0.143887 117 139 189
0.093750 0.042969 -0.144146 116 138 187
0.097656 0.042969 -0.144405 116 137 182
0.101562 0.042969 -0.144729 117 139 180
0.105469 0.042969 -0.144935 122 142 179
0.109375 0.042969 -0.145081 124 144 177
0.113281 0.042969 -0.145228 126 145 177
0.117188 0.042969 -0.145389 126 145 175
0.121094 0.042969 -0.145386 106 126 135
0.125000 0.042969 -0.145198 90 110 117
0.128906 0.042969 -0.144797 76 95 99
0.132812 0.042969 -0.144124 73 92 90
0.136719 0.042969 -0.143223 72 92 83
0.140625 0.042969 -0.142075 67 85 73
0.144531 0.042969 -0.140909 57 75 59
0.148438 0.042969 -0.139675 51 69 55
0.152344 0.042969 -0.138244 72 90 78
0.156250 0.042969 -0.136709 76 92 89
0.160156 0.042969 -0.134830 81 98 105
0.164062 0.042969 -0.132694 90 107 123
0.167969 0.042969 -0.130486 95 112 140
0.171875 0.042969 -0.128236 93 111 149
0.175781 0.042969 -0.125959 87 105 151
0.179688 0.042969 -0.123598 82 100 150
0.183594 0.042969 -0.121231 89 108 140
0.187500 0.042969 -0.118795 81 100 130
0.191406 0.042969 -0.116147 74 94 119
0.195312 0.042969 -0.113335 83 101 123
0.199219 0.042969 -0.110499 104 123 138
0.203125 0.042969 -0.107662 111 130 137
0.207031 0.042969 -0.104812 86 104 106
0.210938 0.042969 -0.101893 55 71 70
0.214844 0.042969 -0.098928 50 65 60
0.218750 0.042969 -0.095874 58 71 64
0.222656 0.042969 -0.092184 58 69 63
0.226562 0.042969 -0.088099 113 121 119
0.230469 0.042969 -0.083848 88 96 99
0.234375 0.042969 -0.079565 87 99 106
0.238281 0.042969 -0.075119 112 124 131
0.242188 0.042969 -0.071004 134 143 145
0.246094 0.042969 -0.066794 155 158 158
0.250000 0.042969 -0.062390 174 175 175
0.253906 0.042969 -0.074538 189 190 190
0.257812 0.042969 -0.086868 187 189 188
0.261719 0.042969 -0.094092 128 123 124
0.265625 0.042969 -0.099010 125 96 88
0.269531 0.042969 -0.101666 162 116 91
0.273438 0.042969 -0.101394 186 129 96
0.277344 0.042969 -0.102110 202 143 102
0.281250 0.042969 -0.101930 211 152 111
0.285156 0.042969 -0.101179 216 159 119
0.289062 0.042969 -0.098628 218 163 124
0.292969 0.042969 -0.095757 215 169 134
0.296875 0.042969 -0.090906 212 178 146
0.300781 0.042969 -0.081141 133 116 99
-0.207031 0.039062 0.041532 204 150 118
-0.203125 0.039062 0.037388 221 154 117
-0.199219 0.039062 0.035177 229 158 116
-0.195312 0.039062 0.033481 235 165 124
-0.191406 0.039062 0.032507 241 177 136
-0.187500 0.039062 0.032156 244 190 148
-0.183594 0.039062 0.033781 247 198 160
-0.179688 0.039062 0.036414 246 197 162
-0.175781 0.039062 0.039820 245 194 162
-0.171875 0.039062 0.043857 242 193 165
-0.167969 0.039062 0.047926 241 205 183
-0.164062 0.039062 0.056247 239 214 197
-0.152344 0.039062 -0.030098 206 213 215
-0.148438 0.039062 -0.043141 233 235 235
-0.144531 0.039062 -0.049302 227 230 232
-0.140625 0.039062 -0.054525 228 230 233
-0.136719 0.039062 -0.059741 230 231 234
-0.132812 0.039062 -0.064058 234 235 237
-0.128906 0.039062 -0.067978 235 236 239
-0.125000 0.039062 -0.071337 235 236 241
-0.121094 0.039062 -0.074849 237 239 242
-0.117188 0.039062 -0.078546 238 240 243
-0.113281 0.039062 -0.081919 238 241 243
-0.109375 0.039062 -0.085242 237 240 242
-0.105469 0.039062 -0.088371 236 239 241
-0.101562 0.039062 -0.091457 236 237 240
-0.097656 0.039062 -0.094697 236 236 239
-0.093750 0.039062 -0.097677 236 236 240
-0.089844 0.039062 -0.100837 231 231 236
-0.085938 0.039062 -0.103927 226 227 232
-0.082031 0.039062 -0.106891 224 230 234
-0.078125 0.039062 -0.109635 214 221 230
-0.074219 0.039062 -0.112054 189 196 215
-0.070312 0.039062 -0.114221 164 174 199
-0.066406 0.039062 -0.116244 127 145 169
-0.062500 0.039062 -0.118167 82 102 95
-0.058594 0.039062 -0.119997 69 77 53
-0.054688 0.039062 -0.121877 70 76 51
-0.050781 0.039062 -0.123684 72 77 54
-0.046875 0.039062 -0.125346 68 73 51
-0.042969 0.039062 -0.126656 57 66 45
-0.039062 0.039062 -0.127698 51 59 41
-0.035156 0.039062 -0.128755 48 57 41
-0.031250 0.039062 -0.129675 51 62 46
-0.027344 0.039062 -0.130581 56 67 51
-0.023438 0.039062 -0.131415 58 71 54
-0.019531 0.039062 -0.132221 58 71 54
-0.015625 0.039062 -0.133017 57 70 54
-0.011719 0.039062 -0.133742 56 70 54
-0.007812 0.039062 -0.134524 56 70 54
-0.003906 0.039062 -0.135211 51 77 79
0.000000 0.039062 -0.135838 55 81 82
0.003906 0.039062 -0.136478 65 91 92
0.007812 0.039062 -0.137099 73 99 100
0.011719 0.039062 -0.137672 69 97 98
0.015625 0.039062 -0.138168 68 96 99
0.019531 0.039062 -0.138688 80 108 111
0.023438 0.039062 -0.139223 98 126 129
0.027344 0.039062 -0.139651 101 130 134
0.031250 0.039062 -0.140066 103 132 136
0.035156 0.039062 -0.140448 104 133 137
0.039062 0.039062 -0.140764 102 133 138
0.042969 0.039062 -0.141025 100 131 136
0.046875 0.039062 -0.141247 102 133 138
0.050781 0.039062 -0.141397 108 139 144
0.054688 0.039062 -0.141456 113 144 149
0.058594 0.039062 -0.141583 129 158 174
0.062500 0.039062 -0.141818 131 160 178
0.066406 0.039062 -0.142009 135 164 182
0.070312 0.039062 -0.142178 136 162 185
0.074219 0.039062 -0.142440 130 156 181
0.078125 0.039062 -0.142724 124 148 176
0.082031 0.039062 -0.143059 124 147 178
0.085938 0.039062 -0.143373 131 152 183
0.089844 0.039062 -0.143698 127 148 179
0.093750 0.039062 -0.143967 123 142 172
0.097656 0.039062 -0.144244 118 138 165
0.101562 0.039062 -0.144575 120 137 163
0.105469 0.039062 -0.144793 125 143 165
0.109375 0.039062 -0.144969 131 149 169
0.113281 0.039062 -0.145142 136 153 171
0.117188 0.039062 -0.145313 137 154 170
0.121094 0.039062 -0.145316 145 163 177
0.125000 0.039062 -0.145142 138 155 165
0.128906 0.039062 -0.144743 130 148 152
0.132812 0.039062 -0.144078 126 142 139
0.136719 0.039062 -0.143189 118 134 123
0.140625 0.039062 -0.142058 106 121 102
0.144531 0.039062 -0.140907 97 111 86
0.148438 0.039062 -0.139692 93 107 81
0.152344 0.039062 -0.138273 76 90 65
0.156250 0.039062 -0.136747 75 88 70
0.160156 0.039062 -0.134892 75 88 78
0.164062 0.039062 -0.132789 83 95 95
0.167969 0.039062 -0.130631 91 103 115
0.171875 0.039062 -0.128427 97 109 131
0.175781 0.039062 -0.126187 99 110 140
0.179688 0.039062 -0.123862 95 108 142
0.183594 0.039062 -0.121510 100 119 134
0.187500 0.039062 -0.119078 98 117 131
0.191406 0.039062 -0.116431 89 108 122
0.195312 0.039062 -0.113608 84 102 114
0.199219 0.039062 -0.110754 96 115 122
0.203125 0.039062 -0.107892 106 123 130
0.207031 0.039062 -0.105005 88 103 108
0.210938 0.039062 -0.102045 56 70 73
0.214844 0.039062 -0.099028 47 58 60
0.218750 0.039062 -0.095931 53 63 64
0.222656 0.039062 -0.092261 54 64 63
0.226562 0.039062 -0.088200 115 124 123
0.230469 0.039062 -0.084004 116 126 128
0.234375 0.039062 -0.079755 114 128 132
0.238281 0.039062 -0.075662 133 147 150
0.242188 0.039062 -0.071352 152 163 163
0.246094 0.039062 -0.066970 171 176 175
0.250000 0.039062 -0.060431 188 190 190
0.253906 0.039062 -0.069595 204 206 205
0.257812 0.039062 -0.083162 209 211 210
0.261719 0.039062 -0.091718 163 163 161
0.265625 0.039062 -0.097112 128 109 94
0.269531 0.039062 -0.100274 161 119 92
0.273438 0.039062 -0.100294 186 127 94
0.277344 0.039062 -0.101239 203 141 99
0.281250 0.039062 -0.101434 212 151 109
0.285156 0.039062 -0.100879 218 159 119
0.289062 0.039062 -0.098491 220 163 126
0.292969 0.039062 -0.095749 216 167 132
0.296875 0.039062 -0.090624 211 171 138
0.300781 0.039062 -0.084232 155 135 113
-0.210938 0.035156 0.049003 180 130 113
-0.207031 0.035156 0.043530 192 134 105
-0.203125 0.035156 0.038714 218 150 114
-0.199219 0.035156 0.036143 229 163 122
-0.195312 0.035156 0.034633 233 165 125
-0.191406 0.035156 0.033816 237 171 129
-0.187500 0.035156 0.033489 241 182 137
-0.183594 0.035156 0.035127 244 193 151
-0.179688 0.035156 0.037802 244 196 156
-0.175781 0.035156 0.040942 242 192 155
-0.171875 0.035156 0.044257 238 188 154
-0.167969 0.035156 0.047502 230 180 149
-0.164062 0.035156 0.056491 224 185 161
-0.160156 0.035156 0.031326 214 194 181
-0.156250 0.035156 -0.031264 215 211 208
-0.152344 0.035156 -0.034950 228 231 229
-0.148438 0.035156 -0.045339 227 232 233
-0.144531 0.035156 -0.051401 225 231 233
-0.140625 0.035156 -0.057672 233 236 239
-0.136719 0.035156 -0.061782 238 239 241
-0.132812 0.035156 -0.065477 240 240 242
-0.128906 0.035156 -0.069085 239 239 243
-0.125000 0.035156 -0.072427 238 238 243
-0.121094 0.035156 -0.075887 238 238 243
-0.117188 0.035156 -0.079302 238 239 243
-0.113281 0.035156 -0.082536 239 240 243
-0.109375 0.035156 -0.085730 241 241 244
-0.105469 0.035156 -0.088765 242 242 244
-0.101562 0.035156 -0.091811 244 243 245
-0.097656 0.035156 -0.094989 245 244 245
-0.093750 0.035156 -0.097939 245 245 245
-0.089844 0.035156 -0.101025 243 242 243
-0.085938 0.035156 -0.104074 237 239 240
-0.082031 0.035156 -0.107056 229 235 236
-0.078125 0.035156 -0.109805 225 231 233
-0.074219 0.035156 -0.112177 222 225 230
-0.070312 0.035156 -0.114252 216 219 225
-0.066406 0.035156 -0.116164 201 208 217
-0.062500 0.035156 -0.117981 183 200 210
-0.058594 0.035156 -0.119783 174 200 204
-0.054688 0.035156 -0.121560 143 170 166
-0.050781 0.035156 -0.123243 94 111 101
-0.046875 0.035156 -0.124852 68 79 67
-0.042969 0.035156 -0.126166 59 65 54
-0.039062 0.035156 -0.127248 56 61 52
-0.035156 0.035156 -0.128319 50 54 45
-0.031250 0.035156 -0.129282 51 57 49
-0.027344 0.035156 -0.130168 53 59 52
-0.023438 0.035156 -0.131135 54 61 53
-0.019531 0.035156 -0.132068 54 61 53
-0.015625 0.035156 -0.132914 56 63 56
-0.011719 0.035156 -0.133717 61 69 59
-0.007812 0.035156 -0.134564 64 72 62
-0.003906 0.035156 -0.135252 52 72 63
0.000000 0.035156 -0.135831 44 64 55
0.003906 0.035156 -0.136496 45 65 56
0.007812 0.035156 -0.137014 53 74 65
0.011719 0.035156 -0.137494 56 77 70
0.015625 0.035156 -0.137980 50 71 64
0.019531 0.035156 -0.138458 49 70 65
0.023438 0.035156 -0.138955 53 76 70
0.027344 0.035156 -0.139353 56 78 75
0.031250 0.035156 -0.139732 61 83 80
0.035156 0.035156 -0.140052 66 88 86
0.039062 0.035156 -0.140316 66 91 88
0.042969 0.035156 -0.140540 66 90 90
0.046875 0.035156 -0.140727 67 91 91
0.050781 0.035156 -0.140902 70 94 94
0.054688 0.035156 -0.140986 73 97 97
0.058594 0.035156 -0.141093 70 97 90
0.062500 0.035156 -0.141302 69 96 91
0.066406 0.035156 -0.141501 71 97 94
0.070312 0.035156 -0.141703 74 98 98
0.074219 0.035156 -0.141984 70 94 96
0.078125 0.035156 -0.142296 64 88 92
0.082031 0.035156 -0.142678 67 87 94
0.085938 0.035156 -0.143028 73 93 100
0.089844 0.035156 -0.143398 80 99 106
0.093750 0.035156 -0.143717 81 100 107
0.097656 0.035156 -0.144050 83 100 107
0.101562 0.035156 -0.144403 84 102 106
0.105469 0.035156 -0.144652 85 103 105
0.109375 0.035156 -0.144835 86 102 102
0.113281 0.035156 -0.144999 84 100 99
0.117188 0.035156 -0.145178 83 99 98
0.121094 0.035156 -0.145198 84 98 109
0.125000 0.035156 -0.145058 89 103 112
0.128906 0.035156 -0.144689 94 108 111
0.132812 0.035156 -0.144057 91 103 101
0.136719 0.035156 -0.143200 76 88 78
0.140625 0.035156 -0.142097 62 73 56
0.144531 0.035156 -0.140966 64 73 52
0.148438 0.035156 -0.139784 72 82 57
0.152344 0.035156 -0.138381 63 71 47
0.156250 0.035156 -0.136860 62 70 47
0.160156 0.035156 -0.135029 60 67 51
0.164062 0.035156 -0.132952 60 67 59
0.167969 0.035156 -0.130836 63 69 67
0.171875 0.035156 -0.128671 64 71 77
0.175781 0.035156 -0.126455 67 74 84
0.179688 0.035156 -0.124151 67 75 88
0.183594 0.035156 -0.121802 53 73 72
0.187500 0.035156 -0.119364 54 74 73
0.191406 0.035156 -0.116703 53 71 73
0.195312 0.035156 -0.113844 56 74 76
0.199219 0.035156 -0.110960 71 86 89
0.203125 0.035156 -0.108062 83 98 103
0.207031 0.035156 -0.105119 79 92 98
0.210938 0.035156 -0.102122 68 79 85
0.214844 0.035156 -0.099075 50 59 66
0.218750 0.035156 -0.095938 55 64 69
0.222656 0.035156 -0.092271 58 66 69
0.226562 0.035156 -0.088207 116 122 124
0.230469 0.035156 -0.084016 116 126 128
0.234375 0.035156 -0.079753 111 121 124
0.238281 0.035156 -0.075912 121 131 133
0.242188 0.035156 -0.071767 134 142 142
0.246094 0.035156 -0.066723 153 156 157
0.250000 0.035156 -0.060046 177 179 179
0.253906 0.035156 -0.063362 204 205 205
0.257812 0.035156 -0.079157 215 217 215
0.261719 0.035156 -0.089962 176 179 175
0.265625 0.035156 -0.095495 121 118 93
0.269531 0.035156 -0.098614 155 120 90
0.273438 0.035156 -0.099007 183 125 92
0.277344 0.035156 -0.100064 205 142 102
0.281250 0.035156 -0.100658 217 153 114
0.285156 0.035156 -0.100391 223 163 123
0.289062 0.035156 -0.098368 223 166 128
0.292969 0.035156 -0.095354 218 167 131
0.296875 0.035156 -0.091696 217 178 141
0.300781 0.035156 -0.085442 190 171 142
-0.210938 0.031250 0.048269 168 122 108
-0.207031 0.031250 0.043786 197 142 110
-0.203125 0.031250 0.039669 213 146 111
-0.199219 0.031250 0.037203 228 162 126
-0.195312 0.031250 0.035892 233 167 131
-0.191406 0.031250 0.035155 237 173 136
-0.187500 0.031250 0.034935 241 182 144
-0.183594 0.031250 0.036471 244 191 156
-0.179688 0.031250 0.039185 244 194 161
-0.175781 0.031250 0.042143 242 192 161
-0.171875 0.031250 0.044757 240 191 163
-0.167969 0.031250 0.047492 233 180 153
-0.164062 0.031250 0.062298 227 180 159
-0.160156 0.031250 -0.004204 231 208 196
-0.156250 0.031250 -0.029992 235 229 223
-0.152344 0.031250 -0.039770 235 236 233
-0.148438 0.031250 -0.047977 234 237 238
-0.144531 0.031250 -0.053277 236 239 242
-0.140625 0.031250 -0.059219 239 240 243
-0.136719 0.031250 -0.063235 242 241 244
-0.132812 0.031250 -0.066807 242 241 244
-0.128906 0.031250 -0.070134 241 240 244
-0.125000 0.031250 -0.073292 240 240 244
-0.121094 0.031250 -0.076562 239 239 244
-0.117188 0.031250 -0.079836 238 239 243
-0.113281 0.031250 -0.083032 237 237 242
-0.109375 0.031250 -0.086172 237 237 242
-0.105469 0.031250 -0.089158 238 237 241
-0.101562 0.031250 -0.092179 240 239 242
-0.097656 0.031250 -0.095312 243 241 243
-0.093750 0.031250 -0.098253 244 242 244
-0.089844 0.031250 -0.101319 244 243 244
-0.085938 0.031250 -0.104298 244 243 244
-0.082031 0.031250 -0.107215 240 241 242
-0.078125 0.031250 -0.109888 238 239 240
-0.074219 0.031250 -0.112196 237 237 238
-0.070312 0.031250 -0.114211 236 235 236
-0.066406 0.031250 -0.116021 233 232 233
-0.062500 0.031250 -0.117758 228 230 232
-0.058594 0.031250 -0.119523 229 232 234
-0.054688 0.031250 -0.121239 226 232 234
-0.050781 0.031250 -0.122848 219 227 231
-0.046875 0.031250 -0.124398 209 223 226
-0.042969 0.031250 -0.125693 180 208 207
-0.039062 0.031250 -0.126754 137 180 172
-0.035156 0.031250 -0.127853 98 151 136
-0.031250 0.031250 -0.128901 66 115 102
-0.027344 0.031250 -0.129801 54 83 77
-0.023438 0.031250 -0.130792 58 73 72
-0.019531 0.031250 -0.131748 60 67 68
-0.015625 0.031250 -0.132614 59 66 66
-0.011719 0.031250 -0.133455 63 69 70
-0.007812 0.031250 -0.134308 68 74 74
-0.003906 0.031250 -0.135009 68 82 69
0.000000 0.031250 -0.135548 63 77 64
0.003906 0.031250 -0.136201 66 80 67
0.007812 0.031250 -0.136740 73 87 74
0.011719 0.031250 -0.137254 69 82 72
0.015625 0.031250 -0.137730 54 70 59
0.019531 0.031250 -0.138155 49 65 55
0.023438 0.031250 -0.138609 54 69 62
0.027344 0.031250 -0.139008 54 71 63
0.031250 0.031250 -0.139422 57 74 68
0.035156 0.031250 -0.139769 58 75 69
0.039062 0.031250 -0.140096 56 72 69
0.042969 0.031250 -0.140332 48 67 63
0.046875 0.031250 -0.140486 44 63 61
0.050781 0.031250 -0.140587 43 62 60
0.054688 0.031250 -0.140641 45 64 62
0.058594 0.031250 -0.140744 48 72 48
0.062500 0.031250 -0.140900 49 73 51
0.066406 0.031250 -0.141127 56 80 58
0.070312 0.031250 -0.141426 66 87 70
0.074219 0.031250 -0.141761 66 87 72
0.078125 0.031250 -0.142094 55 75 63
0.082031 0.031250 -0.142453 47 67 56
0.085938 0.031250 -0.142741 48 65 55
0.089844 0.031250 -0.143065 47 64 56
0.093750 0.031250 -0.143364 51 67 57
0.097656 0.031250 -0.143691 53 69 59
0.101562 0.031250 -0.144047 53 69 58
0.105469 0.031250 -0.144323 52 68 57
0.109375 0.031250 -0.144531 56 70 57
0.113281 0.031250 -0.144709 60 74 59
0.117188 0.031250 -0.144891 64 78 63
0.121094 0.031250 -0.144939 61 75 78
0.125000 0.031250 -0.144839 56 70 73
0.128906 0.031250 -0.144524 56 68 68
0.132812 0.031250 -0.143957 62 72 71
0.136719 0.031250 -0.143155 66 75 70
0.140625 0.031250 -0.142112 66 71 64
0.144531 0.031250 -0.141017 64 67 56
0.148438 0.031250 -0.139871 63 65 52
0.152344 0.031250 -0.138493 53 55 41
0.156250 0.031250 -0.136978 58 60 46
0.160156 0.031250 -0.135171 62 64 50
0.164062 0.031250 -0.133116 62 64 51
0.167969 0.031250 -0.131028 59 61 50
0.171875 0.031250 -0.128890 56 59 50
0.175781 0.031250 -0.126686 57 60 53
0.179688 0.031250 -0.124392 59 62 55
0.183594 0.031250 -0.122041 56 74 62
0.187500 0.031250 -0.119598 51 68 58
0.191406 0.031250 -0.116930 50 67 59
0.195312 0.031250 -0.114047 57 74 68
0.199219 0.031250 -0.111126 65 79 79
0.203125 0.031250 -0.108186 66 80 83
0.207031 0.031250 -0.105189 69 80 86
0.210938 0.031250 -0.102118 72 81 90
0.214844 0.031250 -0.099009 58 67 76
0.218750 0.031250 -0.095818 63 70 78
0.222656 0.031250 -0.092127 64 69 75
0.226562 0.031250 -0.088023 110 118 119
0.230469 0.031250 -0.083829 109 121 121
0.234375 0.031250 -0.079623 107 119 118
0.238281 0.031250 -0.075842 116 128 126
0.242188 0.031250 -0.071972 130 140 138
0.246094 0.031250 -0.066328 151 158 155
0.250000 0.031250 -0.059828 182 186 184
0.253906 0.031250 -0.057711 216 219 216
0.257812 0.031250 -0.073449 227 230 227
0.261719 0.031250 -0.085777 197 203 195
0.265625 0.031250 -0.092961 121 133 97
0.269531 0.031250 -0.096282 147 122 85
0.273438 0.031250 -0.097382 182 127 92
0.277344 0.031250 -0.098706 209 144 108
0.281250 0.031250 -0.099707 218 147 113
0.285156 0.031250 -0.099477 226 159 120
0.289062 0.031250 -0.097703 230 170 137
0.292969 0.031250 -0.094434 224 169 138
0.296875 0.031250 -0.091941 222 180 143
0.300781 0.031250 -0.088405 204 180 150
-0.210938 0.027344 0.050238 178 130 114
-0.207031 0.027344 0.043552 201 147 113
-0.203125 0.027344 0.040287 213 148 114
-0.199219 0.027344 0.038007 225 161 128
-0.195312 0.027344 0.036966 231 167 133
-0.191406 0.027344 0.036427 237 176 142
-0.187500 0.027344 0.036190 241 184 151
-0.183594 0.027344 0.037629 243 190 158
-0.179688 0.027344 0.040168 242 190 159
-0.175781 0.027344 0.042734 241 189 161
-0.171875 0.027344 0.045825 239 188 163
-0.167969 0.027344 0.049674 235 182 158
-0.164062 0.027344 0.040080 234 184 167
-0.160156 0.027344 -0.026469 230 196 184
-0.156250 0.027344 -0.033494 223 210 204
-0.152344 0.027344 -0.043408 221 222 223
-0.148438 0.027344 -0.049985 231 232 236
-0.144531 0.027344 -0.054696 238 239 242
-0.140625 0.027344 -0.060419 239 240 243
-0.136719 0.027344 -0.064470 241 240 243
-0.132812 0.027344 -0.067905 241 240 244
-0.128906 0.027344 -0.071143 241 240 244
-0.125000 0.027344 -0.074163 240 240 244
-0.121094 0.027344 -0.077169 239 240 244
-0.117188 0.027344 -0.080280 239 240 244
-0.113281 0.027344 -0.083383 238 239 243
-0.109375 0.027344 -0.086485 238 238 242
-0.105469 0.027344 -0.089496 237 236 241
-0.101562 0.027344 -0.092503 238 235 241
-0.097656 0.027344 -0.095598 240 236 240
-0.093750 0.027344 -0.098509 240 236 240
-0.089844 0.027344 -0.101540 241 238 241
-0.085938 0.027344 -0.104473 243 240 242
-0.082031 0.027344 -0.107300 243 241 242
-0.078125 0.027344 -0.109888 243 241 243
-0.074219 0.027344 -0.112163 244 241 243
-0.070312 0.027344 -0.114177 245 243 243
-0.066406 0.027344 -0.115969 246 244 244
-0.062500 0.027344 -0.117708 245 244 243
-0.058594 0.027344 -0.119377 243 244 243
-0.054688 0.027344 -0.120983 239 241 240
-0.050781 0.027344 -0.122512 233 236 237
-0.046875 0.027344 -0.123944 232 235 236
-0.042969 0.027344 -0.125152 227 232 232
-0.039062 0.027344 -0.126151 215 224 223
-0.035156 0.027344 -0.127195 201 217 213
-0.031250 0.027344 -0.128216 179 204 200
-0.027344 0.027344 -0.129193 160 186 184
-0.023438 0.027344 -0.130210 161 183 182
-0.019531 0.027344 -0.131147 170 187 190
-0.015625 0.027344 -0.132015 140 154 163
-0.011719 0.027344 -0.132880 97 107 118
-0.007812 0.027344 -0.133744 86 93 102
-0.003906 0.027344 -0.134499 77 86 77
0.000000 0.027344 -0.135083 74 83 73
0.003906 0.027344 -0.135679 67 76 65
0.007812 0.027344 -0.136225 60 68 58
0.011719 0.027344 -0.136743 52 62 51
0.015625 0.027344 -0.137210 45 55 46
0.019531 0.027344 -0.137655 40 50 41
0.023438 0.027344 -0.138072 37 47 39
0.027344 0.027344 -0.138467 45 56 50
0.031250 0.027344 -0.138920 47 58 52
0.035156 0.027344 -0.139336 51 62 58
0.039062 0.027344 -0.139744 54 66 62
0.042969 0.027344 -0.140062 58 70 68
0.046875 0.027344 -0.140256 61 73 71
0.050781 0.027344 -0.140393 63 75 73
0.054688 0.027344 -0.140542 64 76 74
0.058594 0.027344 -0.140665 62 80 54
0.062500 0.027344 -0.140750 62 80 54
0.066406 0.027344 -0.140834 62 80 56
0.070312 0.027344 -0.140995 62 80 56
0.074219 0.027344 -0.141182 62 80 58
0.078125 0.027344 -0.141507 64 79 60
0.082031 0.027344 -0.141935 64 78 61
0.085938 0.027344 -0.142361 64 78 63
0.089844 0.027344 -0.142814 54 68 53
0.093750 0.027344 -0.143179 55 67 53
0.097656 0.027344 -0.143518 55 67 53
0.101562 0.027344 -0.143840 55 67 53
0.105469 0.027344 -0.144063 55 68 51
0.109375 0.027344 -0.144238 55 68 51
0.113281 0.027344 -0.144414 55 68 50
0.117188 0.027344 -0.144581 56 67 50
0.121094 0.027344 -0.144646 52 64 60
0.125000 0.027344 -0.144565 49 61 57
0.128906 0.027344 -0.144296 49 59 58
0.132812 0.027344 -0.143787 53 62 61
0.136719 0.027344 -0.143040 63 67 70
0.140625 0.027344 -0.142065 69 70 74
0.144531 0.027344 -0.141012 68 67 72
0.148438 0.027344 -0.139902 66 64 69
0.152344 0.027344 -0.138551 79 75 76
0.156250 0.027344 -0.137035 78 74 73
0.160156 0.027344 -0.135228 74 71 66
0.164062 0.027344 -0.133173 70 68 56
0.167969 0.027344 -0.131070 65 63 48
0.171875 0.027344 -0.128912 59 61 40
0.175781 0.027344 -0.126670 56 58 36
0.179688 0.027344 -0.124335 54 56 32
0.183594 0.027344 -0.121949 45 62 43
0.187500 0.027344 -0.119468 50 67 49
0.191406 0.027344 -0.116761 55 71 58
0.195312 0.027344 -0.113838 58 71 62
0.199219 0.027344 -0.110867 57 69 65
0.203125 0.027344 -0.107895 58 68 70
0.207031 0.027344 -0.104879 62 71 77
0.210938 0.027344 -0.101750 66 73 82
0.214844 0.027344 -0.098586 48 54 63
0.218750 0.027344 -0.095358 50 55 64
0.222656 0.027344 -0.091684 86 92 98
0.226562 0.027344 -0.087598 114 124 122
0.230469 0.027344 -0.083472 102 120 112
0.234375 0.027344 -0.079417 108 127 117
0.238281 0.027344 -0.075647 120 136 126
0.242188 0.027344 -0.072101 134 149 138
0.246094 0.027344 -0.065990 156 169 159
0.250000 0.027344 -0.059175 195 204 196
0.253906 0.027344 -0.054282 233 238 233
0.257812 0.027344 -0.066852 242 246 241
0.261719 0.027344 -0.081414 225 231 223
0.265625 0.027344 -0.090300 144 161 124
0.269531 0.027344 -0.093881 138 122 76
0.273438 0.027344 -0.095599 181 130 90
0.277344 0.027344 -0.097330 210 147 110
0.281250 0.027344 -0.098796 212 142 108
0.285156 0.027344 -0.098760 225 161 119
0.289062 0.027344 -0.097033 242 200 169
0.292969 0.027344 -0.093614 240 200 169
0.296875 0.027344 -0.091428 227 178 143
0.300781 0.027344 -0.085950 205 166 147
0.304688 0.027344 -0.082283 240 200 169
-0.210938 0.023438 0.050780 180 130 113
-0.207031 0.023438 0.044971 203 146 114
-0.203125 0.023438 0.040707 215 152 119
-0.199219 0.023438 0.038662 225 163 130
-0.195312 0.023438 0.037857 230 169 136
-0.191406 0.023438 0.037537 236 177 145
-0.187500 0.023438 0.037467 239 185 153
-0.183594 0.023438 0.038713 242 190 159
-0.179688 0.023438 0.040859 240 188 158
-0.175781 0.023438 0.043023 240 190 164
-0.171875 0.023438 0.044714 237 186 161
-0.167969 0.023438 0.053084 233 179 156
-0.164062 0.023438 -0.001122 237 191 173
-0.160156 0.023438 -0.027596 232 194 181
-0.156250 0.023438 -0.037687 236 224 220
-0.152344 0.023438 -0.045258 242 241 242
-0.148438 0.023438 -0.051138 239 239 242
-0.144531 0.023438 -0.056237 240 240 243
-0.140625 0.023438 -0.061598 243 242 244
-0.136719 0.023438 -0.065377 243 242 245
-0.132812 0.023438 -0.068484 243 241 244
-0.128906 0.023438 -0.071573 242 241 244
-0.125000 0.023438 -0.074583 241 240 244
-0.121094 0.023438 -0.077487 239 240 243
-0.117188 0.023438 -0.080514 239 240 243
-0.113281 0.023438 -0.083558 240 240 243
-0.109375 0.023438 -0.086569 241 240 244
-0.105469 0.023438 -0.089544 240 239 243
-0.101562 0.023438 -0.092492 241 239 242
-0.097656 0.023438 -0.095555 241 238 241
-0.093750 0.023438 -0.098453 240 236 240
-0.089844 0.023438 -0.101425 239 235 240
-0.085938 0.023438 -0.104318 239 235 239
-0.082031 0.023438 -0.107058 239 237 240
-0.078125 0.023438 -0.109576 240 239 241
-0.074219 0.023438 -0.111766 241 239 242
-0.070312 0.023438 -0.113722 242 240 242
-0.066406 0.023438 -0.115500 244 242 243
-0.062500 0.023438 -0.117172 244 243 243
-0.058594 0.023438 -0.118770 244 243 243
-0.054688 0.023438 -0.120314 243 242 242
-0.050781 0.023438 -0.121800 240 239 240
-0.046875 0.023438 -0.123165 240 239 240
-0.042969 0.023438 -0.124330 240 238 240
-0.039062 0.023438 -0.125331 239 236 238
-0.035156 0.023438 -0.126323 238 235 236
-0.031250 0.023438 -0.127310 237 234 235
-0.027344 0.023438 -0.128305 236 231 232
-0.023438 0.023438 -0.129337 235 229 231
-0.019531 0.023438 -0.130316 233 228 231
-0.015625 0.023438 -0.131221 226 221 226
-0.011719 0.023438 -0.132108 213 205 214
-0.007812 0.023438 -0.133017 207 198 208
-0.003906 0.023438 -0.133831 211 199 209
0.000000 0.023438 -0.134432 200 189 203
0.003906 0.023438 -0.135030 138 141 164
0.007812 0.023438 -0.135612 76 88 104
0.011719 0.023438 -0.136121 88 95 100
0.015625 0.023438 -0.136562 113 120 123
0.019531 0.023438 -0.136997 131 137 138
0.023438 0.023438 -0.137429 137 142 144
0.027344 0.023438 -0.137841 115 120 123
0.031250 0.023438 -0.138296 112 118 124
0.035156 0.023438 -0.138742 111 117 125
0.039062 0.023438 -0.139186 120 127 133
0.042969 0.023438 -0.139566 129 138 139
0.046875 0.023438 -0.139831 126 135 135
0.050781 0.023438 -0.140068 118 127 126
0.054688 0.023438 -0.140268 113 121 123
0.058594 0.023438 -0.140426 103 116 98
0.062500 0.023438 -0.140609 103 116 99
0.066406 0.023438 -0.140784 104 117 100
0.070312 0.023438 -0.141013 104 117 100
0.074219 0.023438 -0.141201 104 116 102
0.078125 0.023438 -0.141410 105 115 104
0.082031 0.023438 -0.141659 105 115 106
0.085938 0.023438 -0.141920 105 115 106
0.089844 0.023438 -0.142238 101 111 103
0.093750 0.023438 -0.142605 99 108 101
0.097656 0.023438 -0.143038 95 105 97
0.101562 0.023438 -0.143497 92 99 92
0.105469 0.023438 -0.143878 88 95 87
0.109375 0.023438 -0.144177 84 91 83
0.113281 0.023438 -0.144392 81 88 80
0.117188 0.023438 -0.144565 80 87 79
0.121094 0.023438 -0.144606 71 83 71
0.125000 0.023438 -0.144483 68 80 70
0.128906 0.023438 -0.144197 68 77 72
0.132812 0.023438 -0.143670 73 78 81
0.136719 0.023438 -0.142918 81 84 93
0.140625 0.023438 -0.141954 88 86 100
0.144531 0.023438 -0.140904 89 84 103
0.148438 0.023438 -0.139810 88 80 100
0.152344 0.023438 -0.138470 78 69 86
0.156250 0.023438 -0.136948 82 74 87
0.160156 0.023438 -0.135146 89 84 87
0.164062 0.023438 -0.133109 100 95 89
0.167969 0.023438 -0.131017 111 108 93
0.171875 0.023438 -0.128854 120 120 95
0.175781 0.023438 -0.126596 127 128 98
0.179688 0.023438 -0.124224 132 133 101
0.183594 0.023438 -0.121794 132 145 126
0.187500 0.023438 -0.119279 141 154 136
0.191406 0.023438 -0.116523 151 164 148
0.195312 0.023438 -0.113548 160 171 161
0.199219 0.023438 -0.110547 166 175 170
0.203125 0.023438 -0.107560 168 174 176
0.207031 0.023438 -0.104502 160 166 170
0.210938 0.023438 -0.101351 146 149 155
0.214844 0.023438 -0.098207 133 137 143
0.218750 0.023438 -0.094960 124 129 133
0.222656 0.023438 -0.091290 113 122 121
0.226562 0.023438 -0.087249 97 111 103
0.230469 0.023438 -0.083182 93 112 99
0.234375 0.023438 -0.079209 109 127 114
0.238281 0.023438 -0.075411 120 137 123
0.242188 0.023438 -0.071946 129 146 131
0.246094 0.023438 -0.065772 152 168 154
0.250000 0.023438 -0.058821 199 211 200
0.253906 0.023438 -0.054275 241 246 240
0.257812 0.023438 -0.061001 248 251 247
0.261719 0.023438 -0.076825 238 242 237
0.265625 0.023438 -0.086674 172 186 162
0.269531 0.023438 -0.090982 110 109 58
0.273438 0.023438 -0.093407 154 114 69
0.277344 0.023438 -0.095715 207 153 114
0.281250 0.023438 -0.097541 228 183 150
0.285156 0.023438 -0.097867 239 202 166
0.289062 0.023438 -0.096201 248 227 199
0.292969 0.023438 -0.093272 246 224 189
0.296875 0.023438 -0.091305 229 185 142
0.300781 0.023438 -0.084693 215 184 159
0.304688 0.023438 -0.079636 246 224 189
-0.214844 0.019531 0.055204 181 153 137
-0.210938 0.019531 0.048781 189 137 116
