ply
    format ascii 1.0
    element vertex 34502
    property float x
    property float y
    property float z
    property uchar red
    property uchar green
    property uchar blue
    end_header
0.066406 0.218750 -0.102070 53 87 123
0.070312 0.218750 -0.098307 49 77 119
0.074219 0.218750 -0.094033 68 79 122
0.078125 0.218750 -0.088683 63 73 80
0.082031 0.218750 -0.088841 1 2 1
-0.171875 0.214844 0.025495 192 123 88
-0.167969 0.214844 0.011944 120 72 66
-0.164062 0.214844 0.002169 180 122 94
-0.160156 0.214844 -0.005914 195 137 94
-0.156250 0.214844 -0.012993 183 115 75
-0.152344 0.214844 -0.020443 185 112 73
-0.148438 0.214844 -0.028180 182 110 69
-0.144531 0.214844 -0.035524 177 111 68
-0.140625 0.214844 -0.043315 168 108 67
-0.136719 0.214844 -0.050486 159 109 72
-0.132812 0.214844 -0.057426 103 76 50
-0.128906 0.214844 -0.064302 25 24 22
-0.125000 0.214844 -0.070553 109 113 110
-0.121094 0.214844 -0.076382 135 136 136
-0.117188 0.214844 -0.081726 106 106 106
-0.113281 0.214844 -0.086881 83 83 84
-0.109375 0.214844 -0.091876 93 92 95
-0.105469 0.214844 -0.096508 95 96 105
-0.101562 0.214844 -0.100804 71 76 88
-0.097656 0.214844 -0.104924 73 87 101
-0.093750 0.214844 -0.108883 75 97 109
-0.089844 0.214844 -0.112598 73 98 105
-0.085938 0.214844 -0.116199 74 98 102
-0.082031 0.214844 -0.119518 71 91 92
-0.078125 0.214844 -0.122618 67 82 79
-0.074219 0.214844 -0.125544 74 85 79
-0.070312 0.214844 -0.128273 87 94 87
-0.066406 0.214844 -0.130683 61 88 101
-0.062500 0.214844 -0.132746 62 77 86
-0.058594 0.214844 -0.134952 88 76 86
-0.054688 0.214844 -0.136631 117 86 96
-0.050781 0.214844 -0.137834 134 100 105
-0.046875 0.214844 -0.138612 146 113 114
-0.042969 0.214844 -0.138989 156 125 120
-0.039062 0.214844 -0.139190 159 130 123
-0.035156 0.214844 -0.139136 160 132 124
-0.031250 0.214844 -0.139299 161 133 126
-0.027344 0.214844 -0.139061 159 132 125
-0.023438 0.214844 -0.138530 163 135 129
-0.019531 0.214844 -0.137991 164 137 131
-0.015625 0.214844 -0.136768 166 138 135
-0.011719 0.214844 -0.136122 168 140 140
-0.007812 0.214844 -0.135309 163 136 143
-0.003906 0.214844 -0.134039 152 136 152
0.000000 0.214844 -0.132804 88 112 145
0.003906 0.214844 -0.130610 63 104 145
0.007812 0.214844 -0.127997 75 119 158
0.011719 0.214844 -0.125667 83 127 166
0.015625 0.214844 -0.123298 85 129 168
0.019531 0.214844 -0.121011 89 133 172
0.023438 0.214844 -0.119196 96 139 181
0.027344 0.214844 -0.117541 83 126 168
0.031250 0.214844 -0.116370 79 122 165
0.035156 0.214844 -0.115037 83 126 171
0.039062 0.214844 -0.113756 94 136 184
0.042969 0.214844 -0.112521 102 142 194
0.046875 0.214844 -0.111301 96 136 190
0.050781 0.214844 -0.110342 78 119 172
0.054688 0.214844 -0.109330 64 105 160
0.058594 0.214844 -0.108290 67 105 143
0.062500 0.214844 -0.106964 73 111 150
0.066406 0.214844 -0.104854 75 113 151
0.070312 0.214844 -0.102240 62 100 139
0.074219 0.214844 -0.099465 47 82 122
0.078125 0.214844 -0.093966 57 88 125
0.082031 0.214844 -0.089041 84 97 96
0.085938 0.214844 -0.086522 70 105 169
-0.175781 0.210938 0.025242 214 164 123
-0.171875 0.210938 0.012417 83 44 44
-0.167969 0.210938 0.003097 162 97 73
-0.164062 0.210938 -0.004403 154 83 59
-0.160156 0.210938 -0.011943 179 109 71
-0.156250 0.210938 -0.019017 185 114 73
-0.152344 0.210938 -0.025825 187 114 72
-0.148438 0.210938 -0.033096 186 112 69
-0.144531 0.210938 -0.040047 185 116 72
-0.140625 0.210938 -0.046969 176 111 69
-0.136719 0.210938 -0.053310 174 120 77
-0.132812 0.210938 -0.059519 138 106 68
-0.128906 0.210938 -0.065850 33 31 26
-0.125000 0.210938 -0.071673 115 118 115
-0.121094 0.210938 -0.077229 146 148 148
-0.117188 0.210938 -0.082440 118 119 119
-0.113281 0.210938 -0.087496 91 90 92
-0.109375 0.210938 -0.092427 99 98 101
-0.105469 0.210938 -0.097126 99 102 111
-0.101562 0.210938 -0.101515 75 82 95
-0.097656 0.210938 -0.105701 78 93 108
-0.093750 0.210938 -0.109663 73 95 111
-0.089844 0.210938 -0.113381 65 91 104
-0.085938 0.210938 -0.117028 67 94 103
-0.082031 0.210938 -0.120402 69 92 100
-0.078125 0.210938 -0.123543 68 85 92
-0.074219 0.210938 -0.126493 74 85 91
-0.070312 0.210938 -0.129155 82 91 96
-0.066406 0.210938 -0.131595 58 96 135
-0.062500 0.210938 -0.133745 57 94 132
-0.058594 0.210938 -0.135859 56 91 129
-0.054688 0.210938 -0.137434 61 86 120
-0.050781 0.210938 -0.138628 76 84 110
-0.046875 0.210938 -0.139384 96 90 108
-0.042969 0.210938 -0.139712 111 99 111
-0.039062 0.210938 -0.139897 116 104 114
-0.035156 0.210938 -0.139742 118 105 116
-0.031250 0.210938 -0.139753 118 105 116
-0.027344 0.210938 -0.139368 120 106 118
-0.023438 0.210938 -0.138842 126 110 123
-0.019531 0.210938 -0.138465 130 113 128
-0.015625 0.210938 -0.137468 134 117 136
-0.011719 0.210938 -0.137081 128 116 142
-0.007812 0.210938 -0.136443 97 108 149
-0.003906 0.210938 -0.135405 57 94 140
0.000000 0.210938 -0.134424 39 86 134
0.003906 0.210938 -0.132302 36 83 131
0.007812 0.210938 -0.129672 38 86 134
0.011719 0.210938 -0.127141 43 91 139
0.015625 0.210938 -0.124692 50 98 146
0.019531 0.210938 -0.122248 64 112 161
0.023438 0.210938 -0.120323 77 125 174
0.027344 0.210938 -0.118654 79 126 178
0.031250 0.210938 -0.117243 66 113 165
0.035156 0.210938 -0.115953 55 102 156
0.039062 0.210938 -0.114632 59 106 162
0.042969 0.210938 -0.113339 76 122 181
0.046875 0.210938 -0.112180 89 135 195
0.050781 0.210938 -0.111360 87 133 192
0.054688 0.210938 -0.110483 78 124 185
0.058594 0.210938 -0.109864 77 115 163
0.062500 0.210938 -0.108922 81 119 165
0.066406 0.210938 -0.107113 81 121 167
0.070312 0.210938 -0.104754 72 113 156
0.074219 0.210938 -0.102289 58 98 141
0.078125 0.210938 -0.097661 52 90 131
0.082031 0.210938 -0.093013 84 111 143
0.085938 0.210938 -0.088554 76 84 76
-0.175781 0.207031 0.012875 72 38 38
-0.171875 0.207031 0.001869 195 137 103
-0.167969 0.207031 -0.006186 201 138 96
-0.164062 0.207031 -0.012219 178 104 68
-0.160156 0.207031 -0.018401 187 113 73
-0.156250 0.207031 -0.024980 188 115 74
-0.152344 0.207031 -0.031366 187 112 71
-0.148438 0.207031 -0.038008 186 111 70
-0.144531 0.207031 -0.044228 187 116 73
-0.140625 0.207031 -0.050313 178 111 69
-0.136719 0.207031 -0.056084 175 118 75
-0.132812 0.207031 -0.061633 151 114 75
-0.128906 0.207031 -0.067326 40 33 26
-0.125000 0.207031 -0.072804 107 108 107
-0.121094 0.207031 -0.078160 158 159 159
-0.117188 0.207031 -0.083220 135 134 136
-0.113281 0.207031 -0.088239 101 100 103
-0.109375 0.207031 -0.093112 103 103 106
-0.105469 0.207031 -0.097830 103 107 115
-0.101562 0.207031 -0.102303 82 89 102
-0.097656 0.207031 -0.106514 85 101 119
-0.093750 0.207031 -0.110470 73 98 115
-0.089844 0.207031 -0.114155 63 90 107
-0.085938 0.207031 -0.117768 68 95 112
-0.082031 0.207031 -0.121160 76 99 117
-0.078125 0.207031 -0.124343 78 97 114
-0.074219 0.207031 -0.127278 80 93 110
-0.070312 0.207031 -0.129870 83 94 112
-0.066406 0.207031 -0.132244 63 106 161
-0.062500 0.207031 -0.134385 64 107 162
-0.058594 0.207031 -0.136396 64 107 161
-0.054688 0.207031 -0.137875 61 102 159
-0.050781 0.207031 -0.139060 55 97 153
-0.046875 0.207031 -0.139851 55 93 146
-0.042969 0.207031 -0.140179 58 92 141
-0.039062 0.207031 -0.140381 62 92 136
-0.035156 0.207031 -0.140299 64 90 132
-0.031250 0.207031 -0.140238 65 89 131
-0.027344 0.207031 -0.139854 68 91 135
-0.023438 0.207031 -0.139404 70 95 143
-0.019531 0.207031 -0.139038 68 97 152
-0.015625 0.207031 -0.138298 62 97 159
-0.011719 0.207031 -0.138089 51 95 164
-0.007812 0.207031 -0.137589 44 93 166
-0.003906 0.207031 -0.136868 48 96 154
0.000000 0.207031 -0.136041 45 93 149
0.003906 0.207031 -0.134078 41 90 146
0.007812 0.207031 -0.131450 38 87 143
0.011719 0.207031 -0.128682 33 82 138
0.015625 0.207031 -0.126139 29 78 136
0.019531 0.207031 -0.123668 33 82 140
0.023438 0.207031 -0.121654 39 88 146
0.027344 0.207031 -0.119844 53 102 160
0.031250 0.207031 -0.118229 62 111 170
0.035156 0.207031 -0.116926 64 113 172
0.039062 0.207031 -0.115614 57 105 167
0.042969 0.207031 -0.114387 56 104 166
0.046875 0.207031 -0.113320 67 115 177
0.050781 0.207031 -0.112512 78 126 190
0.054688 0.207031 -0.111740 83 131 195
0.058594 0.207031 -0.111267 78 115 183
0.062500 0.207031 -0.110658 79 116 184
0.066406 0.207031 -0.109325 78 117 181
0.070312 0.207031 -0.107243 76 115 176
0.074219 0.207031 -0.105281 67 107 167
0.078125 0.207031 -0.102106 57 96 152
0.082031 0.207031 -0.098666 51 89 140
0.085938 0.207031 -0.092742 86 109 147
0.089844 0.207031 -0.091330 35 39 40
-0.179688 0.203125 0.008932 182 119 92
-0.175781 0.203125 -0.001476 184 129 103
-0.171875 0.203125 -0.007825 192 123 88
-0.167969 0.203125 -0.013670 194 120 82
-0.164062 0.203125 -0.019215 186 109 72
-0.160156 0.203125 -0.024713 192 115 76
-0.156250 0.203125 -0.030924 193 117 77
-0.152344 0.203125 -0.036768 191 116 75
-0.148438 0.203125 -0.042557 190 115 74
-0.144531 0.203125 -0.047878 191 122 80
-0.140625 0.203125 -0.053162 183 116 75
-0.136719 0.203125 -0.058354 179 120 78
-0.132812 0.203125 -0.063365 161 120 81
-0.128906 0.203125 -0.068587 53 39 31
-0.125000 0.203125 -0.073750 94 94 93
-0.121094 0.203125 -0.078933 169 169 169
-0.117188 0.203125 -0.083921 153 152 153
-0.113281 0.203125 -0.088861 113 113 115
-0.109375 0.203125 -0.093661 108 108 111
-0.105469 0.203125 -0.098403 107 111 118
-0.101562 0.203125 -0.102938 86 96 109
-0.097656 0.203125 -0.107154 84 104 121
-0.093750 0.203125 -0.111105 72 99 118
-0.089844 0.203125 -0.114843 63 94 115
-0.085938 0.203125 -0.118484 69 99 123
-0.082031 0.203125 -0.121967 77 103 130
-0.078125 0.203125 -0.125232 78 99 130
-0.074219 0.203125 -0.128192 80 95 128
-0.070312 0.203125 -0.130770 83 96 130
-0.066406 0.203125 -0.133123 64 105 169
-0.062500 0.203125 -0.135257 59 103 166
-0.058594 0.203125 -0.137202 54 98 161
-0.054688 0.203125 -0.138658 48 92 157
-0.050781 0.203125 -0.139872 45 89 153
-0.046875 0.203125 -0.140732 44 88 154
-0.042969 0.203125 -0.141124 47 90 155
-0.039062 0.203125 -0.141398 49 91 156
-0.035156 0.203125 -0.141413 42 86 152
-0.031250 0.203125 -0.141359 41 84 150
-0.027344 0.203125 -0.140983 40 85 153
-0.023438 0.203125 -0.140500 43 87 156
-0.019531 0.203125 -0.140045 47 92 164
-0.015625 0.203125 -0.139211 49 97 169
-0.011719 0.203125 -0.138887 49 98 173
-0.007812 0.203125 -0.138447 49 98 174
-0.003906 0.203125 -0.137750 48 96 158
0.000000 0.203125 -0.136931 48 96 158
0.003906 0.203125 -0.135210 47 95 157
0.007812 0.203125 -0.132805 42 90 152
0.011719 0.203125 -0.130212 32 80 142
0.015625 0.203125 -0.127690 23 71 133
0.019531 0.203125 -0.125160 18 66 128
0.023438 0.203125 -0.123014 18 66 128
0.027344 0.203125 -0.121025 23 71 133
0.031250 0.203125 -0.119298 46 94 156
0.035156 0.203125 -0.117923 65 113 175
0.039062 0.203125 -0.116670 64 112 174
0.042969 0.203125 -0.115538 59 107 169
0.046875 0.203125 -0.114574 62 110 172
0.050781 0.203125 -0.113870 64 112 174
0.054688 0.203125 -0.113253 62 110 172
0.058594 0.203125 -0.112995 74 108 197
0.062500 0.203125 -0.112566 75 111 199
0.066406 0.203125 -0.111696 78 114 200
0.070312 0.203125 -0.109894 80 117 200
0.074219 0.203125 -0.108036 77 117 195
0.078125 0.203125 -0.105634 71 112 186
0.082031 0.203125 -0.101964 65 102 173
0.085938 0.203125 -0.096549 70 105 169
0.089844 0.203125 -0.093520 126 127 162
0.093750 0.203125 -0.068667 7 5 8
-0.179688 0.199219 -0.002147 173 134 122
-0.175781 0.199219 -0.010742 214 164 123
-0.171875 0.199219 -0.016199 190 116 79
-0.167969 0.199219 -0.020925 188 110 74
-0.164062 0.199219 -0.025593 189 111 74
-0.160156 0.199219 -0.030785 194 116 78
-0.156250 0.199219 -0.036387 196 120 80
-0.152344 0.199219 -0.041353 195 120 80
-0.148438 0.199219 -0.046365 194 120 79
-0.144531 0.199219 -0.051097 195 127 86
-0.140625 0.199219 -0.055730 188 123 83
-0.136719 0.199219 -0.060323 183 123 83
-0.132812 0.199219 -0.064906 171 126 91
-0.128906 0.199219 -0.069743 75 53 44
-0.125000 0.199219 -0.074601 97 94 95
-0.121094 0.199219 -0.079658 184 183 184
-0.117188 0.199219 -0.084616 172 172 172
-0.113281 0.199219 -0.089476 130 128 131
-0.109375 0.199219 -0.094226 121 120 124
-0.105469 0.199219 -0.099000 119 123 130
-0.101562 0.199219 -0.103545 94 105 116
-0.097656 0.199219 -0.107743 82 103 119
-0.093750 0.199219 -0.111758 72 100 120
-0.089844 0.199219 -0.115585 66 98 123
-0.085938 0.199219 -0.119282 69 100 131
-0.082031 0.199219 -0.122834 67 95 132
-0.078125 0.199219 -0.126133 62 85 127
-0.074219 0.199219 -0.129113 66 82 131
-0.070312 0.199219 -0.131722 73 87 136
-0.066406 0.199219 -0.134110 60 100 162
-0.062500 0.199219 -0.136273 54 94 156
-0.058594 0.199219 -0.138159 47 87 149
-0.054688 0.199219 -0.139586 45 85 147
-0.050781 0.199219 -0.140753 45 85 147
-0.046875 0.199219 -0.141598 44 84 146
-0.042969 0.199219 -0.142057 40 79 143
-0.039062 0.199219 -0.142335 35 74 138
-0.035156 0.199219 -0.142377 40 81 144
-0.031250 0.199219 -0.142326 38 79 144
-0.027344 0.199219 -0.141999 37 78 143
-0.023438 0.199219 -0.141550 39 80 145
-0.019531 0.199219 -0.141034 46 87 152
-0.015625 0.199219 -0.140309 53 94 160
-0.011719 0.199219 -0.139978 57 100 168
-0.007812 0.199219 -0.139513 60 103 171
-0.003906 0.199219 -0.138760 62 105 173
0.000000 0.199219 -0.137735 60 103 171
0.003906 0.199219 -0.136031 55 99 164
0.007812 0.199219 -0.133739 49 93 158
0.011719 0.199219 -0.131263 45 89 154
0.015625 0.199219 -0.128793 46 90 155
0.019531 0.199219 -0.126244 47 91 156
0.023438 0.199219 -0.124038 48 92 155
0.027344 0.199219 -0.122024 31 75 138
0.031250 0.199219 -0.120317 31 75 136
0.035156 0.199219 -0.118927 33 77 138
0.039062 0.199219 -0.117769 42 87 146
0.042969 0.199219 -0.116770 63 108 167
0.046875 0.199219 -0.115942 77 122 179
0.050781 0.199219 -0.115400 70 115 172
0.054688 0.199219 -0.114944 52 97 154
0.058594 0.199219 -0.114840 53 87 184
0.062500 0.199219 -0.114516 57 91 188
0.066406 0.199219 -0.113833 62 98 192
0.070312 0.199219 -0.112326 63 102 193
0.074219 0.199219 -0.110442 65 105 192
0.078125 0.199219 -0.108337 67 108 193
0.082031 0.199219 -0.105386 67 108 188
0.085938 0.199219 -0.100970 74 111 189
0.089844 0.199219 -0.094284 73 97 170
0.093750 0.199219 -0.091005 45 38 82
-0.179688 0.195312 -0.011492 172 116 96
-0.175781 0.195312 -0.018294 210 152 103
-0.171875 0.195312 -0.022836 191 116 75
-0.167969 0.195312 -0.027086 190 113 75
-0.164062 0.195312 -0.031577 194 117 79
-0.160156 0.195312 -0.036263 197 121 82
-0.156250 0.195312 -0.041023 200 126 85
-0.152344 0.195312 -0.045219 200 127 86
-0.148438 0.195312 -0.049512 198 127 85
-0.144531 0.195312 -0.053709 200 135 93
-0.140625 0.195312 -0.057911 194 134 93
-0.136719 0.195312 -0.062085 189 131 92
-0.132812 0.195312 -0.066268 180 133 100
-0.128906 0.195312 -0.070852 97 67 58
-0.125000 0.195312 -0.075525 116 111 113
-0.121094 0.195312 -0.080440 201 200 201
-0.117188 0.195312 -0.085354 191 189 191
-0.113281 0.195312 -0.090099 149 146 149
-0.109375 0.195312 -0.094764 139 138 142
-0.105469 0.195312 -0.099540 138 142 149
-0.101562 0.195312 -0.104085 107 119 129
-0.097656 0.195312 -0.108299 87 110 125
-0.093750 0.195312 -0.112372 77 108 129
-0.089844 0.195312 -0.116241 70 104 132
-0.085938 0.195312 -0.119987 68 100 138
-0.082031 0.195312 -0.123628 60 88 135
-0.078125 0.195312 -0.127005 52 75 129
-0.074219 0.195312 -0.130028 57 75 137
-0.070312 0.195312 -0.132663 69 84 149
-0.066406 0.195312 -0.135050 72 105 159
-0.062500 0.195312 -0.137184 69 102 156
-0.058594 0.195312 -0.138995 66 99 153
-0.054688 0.195312 -0.140389 67 100 154
-0.050781 0.195312 -0.141510 69 102 156
-0.046875 0.195312 -0.142357 64 97 151
-0.042969 0.195312 -0.142895 52 85 139
-0.039062 0.195312 -0.143226 42 75 129
-0.035156 0.195312 -0.143344 53 86 140
-0.031250 0.195312 -0.143306 52 85 139
-0.027344 0.195312 -0.143001 50 83 137
-0.023438 0.195312 -0.142558 48 81 135
-0.019531 0.195312 -0.141991 49 82 136
-0.015625 0.195312 -0.141287 53 86 140
-0.011719 0.195312 -0.140861 57 90 143
-0.007812 0.195312 -0.140333 61 94 147
-0.003906 0.195312 -0.139503 64 101 171
0.000000 0.195312 -0.138397 66 103 173
0.003906 0.195312 -0.136719 66 103 173
0.007812 0.195312 -0.134465 67 104 172
0.011719 0.195312 -0.132128 69 106 174
0.015625 0.195312 -0.129747 70 107 175
0.019531 0.195312 -0.127203 64 102 167
0.023438 0.195312 -0.124989 55 93 156
0.027344 0.195312 -0.122958 63 101 163
0.031250 0.195312 -0.121271 49 87 149
0.035156 0.195312 -0.119910 34 73 132
0.039062 0.195312 -0.118849 34 73 130
0.042969 0.195312 -0.117962 47 86 141
0.046875 0.195312 -0.117246 63 103 155
0.050781 0.195312 -0.116866 73 113 164
0.054688 0.195312 -0.116587 75 115 166
0.058594 0.195312 -0.116623 58 94 178
0.062500 0.195312 -0.116521 60 98 181
0.066406 0.195312 -0.116009 61 99 180
0.070312 0.195312 -0.114759 56 97 177
0.074219 0.195312 -0.113111 50 93 171
0.078125 0.195312 -0.111001 47 93 168
0.082031 0.195312 -0.108417 50 97 171
0.085938 0.195312 -0.104253 56 99 171
0.089844 0.195312 -0.098691 59 94 167
0.093750 0.195312 -0.090946 84 103 168
-0.183594 0.191406 -0.015835 72 33 43
-0.179688 0.191406 -0.019418 182 119 92
-0.175781 0.191406 -0.025610 206 141 93
-0.171875 0.191406 -0.028987 192 117 75
-0.167969 0.191406 -0.032497 192 116 77
-0.164062 0.191406 -0.036830 197 122 83
-0.160156 0.191406 -0.040906 199 125 86
-0.156250 0.191406 -0.044944 202 131 91
-0.152344 0.191406 -0.048577 205 136 93
-0.148438 0.191406 -0.052328 204 136 93
-0.144531 0.191406 -0.056039 205 144 102
-0.140625 0.191406 -0.059875 203 146 105
-0.136719 0.191406 -0.063735 198 144 104
-0.132812 0.191406 -0.067549 188 144 112
-0.128906 0.191406 -0.071926 113 80 69
-0.125000 0.191406 -0.076489 143 137 139
-0.121094 0.191406 -0.081316 215 213 215
-0.117188 0.191406 -0.086194 206 204 206
-0.113281 0.191406 -0.090815 165 162 165
-0.109375 0.191406 -0.095333 155 154 156
-0.105469 0.191406 -0.100080 153 158 162
-0.101562 0.191406 -0.104665 123 135 144
-0.097656 0.191406 -0.108905 92 115 129
-0.093750 0.191406 -0.113012 78 109 130
-0.089844 0.191406 -0.116950 67 102 132
-0.085938 0.191406 -0.120764 62 95 136
-0.082031 0.191406 -0.124493 54 84 136
-0.078125 0.191406 -0.127961 51 75 139
-0.074219 0.191406 -0.131019 62 80 152
-0.070312 0.191406 -0.133675 77 93 168
-0.066406 0.191406 -0.136070 91 119 166
-0.062500 0.191406 -0.138176 89 117 164
-0.058594 0.191406 -0.139941 86 114 161
-0.054688 0.191406 -0.141329 84 113 156
-0.050781 0.191406 -0.142415 83 110 154
-0.046875 0.191406 -0.143256 78 105 149
-0.042969 0.191406 -0.143847 71 98 143
-0.039062 0.191406 -0.144233 65 92 135
-0.035156 0.191406 -0.144463 71 98 141
-0.031250 0.191406 -0.144541 74 98 142
-0.027344 0.191406 -0.144310 73 98 139
-0.023438 0.191406 -0.143882 68 93 134
-0.019531 0.191406 -0.143281 61 86 127
-0.015625 0.191406 -0.142437 55 80 121
-0.011719 0.191406 -0.141845 53 78 119
-0.007812 0.191406 -0.141287 54 79 120
-0.003906 0.191406 -0.140403 52 82 154
0.000000 0.191406 -0.139271 57 87 157
0.003906 0.191406 -0.137611 61 91 161
0.007812 0.191406 -0.135354 68 98 168
0.011719 0.191406 -0.133095 75 105 175
0.015625 0.191406 -0.130733 74 105 172
0.019531 0.191406 -0.128215 59 90 155
0.023438 0.191406 -0.125994 41 72 136
0.027344 0.191406 -0.123953 67 99 160
0.031250 0.191406 -0.122336 63 95 154
0.035156 0.191406 -0.121028 61 94 148
0.039062 0.191406 -0.120087 57 90 143
0.042969 0.191406 -0.119301 47 80 131
0.046875 0.191406 -0.118676 44 78 126
0.050781 0.191406 -0.118481 61 95 141
0.054688 0.191406 -0.118416 84 118 164
0.058594 0.191406 -0.118573 79 120 176
0.062500 0.191406 -0.118627 80 123 178
0.066406 0.191406 -0.118183 81 124 179
0.070312 0.191406 -0.116968 75 120 175
0.074219 0.191406 -0.115593 68 115 169
0.078125 0.191406 -0.113761 62 112 165
0.082031 0.191406 -0.111225 61 112 164
0.085938 0.191406 -0.106743 61 111 163
0.089844 0.191406 -0.103199 70 114 169
0.093750 0.191406 -0.095514 91 129 181
0.097656 0.191406 -0.090214 123 137 157
-0.183594 0.187500 -0.023275 180 124 107
-0.179688 0.187500 -0.027456 192 126 91
-0.175781 0.187500 -0.031713 201 130 86
-0.171875 0.187500 -0.034370 194 118 78
-0.167969 0.187500 -0.037612 194 118 79
-0.164062 0.187500 -0.041447 199 126 86
-0.160156 0.187500 -0.044953 202 131 90
-0.156250 0.187500 -0.048345 206 138 96
-0.152344 0.187500 -0.051493 209 143 100
-0.148438 0.187500 -0.054827 208 143 100
-0.144531 0.187500 -0.058153 209 150 108
-0.140625 0.187500 -0.061664 207 153 112
-0.136719 0.187500 -0.065253 203 153 114
-0.132812 0.187500 -0.068770 190 148 118
-0.128906 0.187500 -0.073046 115 82 70
-0.125000 0.187500 -0.077527 163 157 160
-0.121094 0.187500 -0.082234 222 220 221
-0.117188 0.187500 -0.087041 213 209 213
-0.113281 0.187500 -0.091523 175 171 174
-0.109375 0.187500 -0.095983 160 160 160
-0.105469 0.187500 -0.100731 158 163 167
-0.101562 0.187500 -0.105324 134 146 155
-0.097656 0.187500 -0.109551 87 110 124
-0.093750 0.187500 -0.113669 70 101 122
-0.089844 0.187500 -0.117652 55 90 122
-0.085938 0.187500 -0.121505 50 84 129
-0.082031 0.187500 -0.125300 48 79 134
-0.078125 0.187500 -0.128831 51 76 143
-0.074219 0.187500 -0.131910 67 86 162
-0.070312 0.187500 -0.134567 85 102 182
-0.066406 0.187500 -0.136955 102 127 167
-0.062500 0.187500 -0.139049 98 123 163
-0.058594 0.187500 -0.140785 90 115 154
-0.054688 0.187500 -0.142175 82 105 145
-0.050781 0.187500 -0.143260 75 99 136
-0.046875 0.187500 -0.144120 74 98 135
-0.042969 0.187500 -0.144778 78 102 139
-0.039062 0.187500 -0.145205 83 105 142
-0.035156 0.187500 -0.145507 88 110 147
-0.031250 0.187500 -0.145631 92 115 149
-0.027344 0.187500 -0.145373 95 115 150
-0.023438 0.187500 -0.144916 88 108 143
-0.019531 0.187500 -0.144239 75 95 128
-0.015625 0.187500 -0.143312 62 82 115
-0.011719 0.187500 -0.142649 55 75 108
-0.007812 0.187500 -0.142020 53 73 106
-0.003906 0.187500 -0.141044 67 96 166
0.000000 0.187500 -0.139868 64 93 163
0.003906 0.187500 -0.138231 61 90 160
0.007812 0.187500 -0.136030 65 94 162
0.011719 0.187500 -0.133813 78 107 175
0.015625 0.187500 -0.131523 89 118 184
0.019531 0.187500 -0.129145 83 113 177
0.023438 0.187500 -0.127012 70 100 162
0.027344 0.187500 -0.125061 43 73 133
0.031250 0.187500 -0.123543 44 75 130
0.035156 0.187500 -0.122277 57 88 142
0.039062 0.187500 -0.121429 72 104 153
0.042969 0.187500 -0.120729 68 100 147
0.046875 0.187500 -0.120177 50 83 128
0.050781 0.187500 -0.120136 46 79 122
0.054688 0.187500 -0.120253 57 90 133
0.058594 0.187500 -0.120556 60 106 140
0.062500 0.187500 -0.120793 64 110 144
0.066406 0.187500 -0.120404 69 118 151
0.070312 0.187500 -0.119241 74 124 157
0.074219 0.187500 -0.118010 75 128 162
0.078125 0.187500 -0.116264 75 128 162
0.082031 0.187500 -0.113770 73 127 161
0.085938 0.187500 -0.109508 69 124 159
0.089844 0.187500 -0.105987 66 117 155
0.093750 0.187500 -0.098927 81 124 167
0.097656 0.187500 -0.091213 142 155 180
-0.187500 0.183594 -0.026626 194 150 116
-0.183594 0.183594 -0.029623 199 145 116
-0.179688 0.183594 -0.033894 185 112 78
-0.175781 0.183594 -0.036723 195 120 80
-0.171875 0.183594 -0.039341 196 121 81
-0.167969 0.183594 -0.042235 195 121 82
-0.164062 0.183594 -0.045473 201 130 89
-0.160156 0.183594 -0.048452 205 136 94
-0.156250 0.183594 -0.051409 209 144 101
-0.152344 0.183594 -0.054190 212 150 106
-0.148438 0.183594 -0.057131 212 150 106
-0.144531 0.183594 -0.060151 212 154 113
-0.140625 0.183594 -0.063466 211 158 118
-0.136719 0.183594 -0.066816 208 160 123
-0.132812 0.183594 -0.070116 189 149 119
-0.128906 0.183594 -0.074387 104 79 69
-0.125000 0.183594 -0.078776 178 178 178
-0.121094 0.183594 -0.083347 222 224 216
-0.117188 0.183594 -0.088008 215 215 204
-0.113281 0.183594 -0.092398 180 180 170
-0.109375 0.183594 -0.096825 161 163 156
-0.105469 0.183594 -0.101487 163 168 171
-0.101562 0.183594 -0.106038 140 150 172
-0.097656 0.183594 -0.110257 84 100 144
-0.093750 0.183594 -0.114376 72 93 156
-0.089844 0.183594 -0.118380 58 84 158
-0.085938 0.183594 -0.122246 48 76 150
-0.082031 0.183594 -0.126074 44 73 141
-0.078125 0.183594 -0.129649 50 79 135
-0.074219 0.183594 -0.132755 66 93 138
-0.070312 0.183594 -0.135435 80 105 145
-0.066406 0.183594 -0.137832 72 117 159
-0.062500 0.183594 -0.139919 73 116 159
-0.058594 0.183594 -0.141646 62 105 148
-0.054688 0.183594 -0.143054 55 96 142
-0.050781 0.183594 -0.144155 62 99 144
-0.046875 0.183594 -0.145039 64 98 144
-0.042969 0.183594 -0.145742 65 96 140
-0.039062 0.183594 -0.146204 77 105 144
-0.035156 0.183594 -0.146562 82 109 139
-0.031250 0.183594 -0.146730 70 94 118
-0.027344 0.183594 -0.146468 61 83 96
-0.023438 0.183594 -0.145960 68 89 90
-0.019531 0.183594 -0.145198 89 109 100
-0.015625 0.183594 -0.144192 97 118 99
-0.011719 0.183594 -0.143419 83 103 78
-0.007812 0.183594 -0.142637 61 80 52
-0.003906 0.183594 -0.141557 46 70 108
0.000000 0.183594 -0.140383 61 84 128
0.003906 0.183594 -0.138794 66 89 141
0.007812 0.183594 -0.136720 58 82 142
0.011719 0.183594 -0.134662 57 81 153
0.015625 0.183594 -0.132531 66 93 172
0.019531 0.183594 -0.130336 73 101 184
0.023438 0.183594 -0.128331 71 99 183
0.027344 0.183594 -0.126487 63 92 170
0.031250 0.183594 -0.125035 46 77 144
0.035156 0.183594 -0.123789 39 70 124
0.039062 0.183594 -0.122971 56 86 122
0.042969 0.183594 -0.122301 76 107 127
0.046875 0.183594 -0.121767 85 116 119
0.050781 0.183594 -0.121825 80 111 103
0.054688 0.183594 -0.122081 73 105 90
0.058594 0.183594 -0.122486 76 109 118
0.062500 0.183594 -0.122866 84 116 127
0.066406 0.183594 -0.122472 94 126 139
0.070312 0.183594 -0.121275 100 132 147
0.074219 0.183594 -0.120118 98 129 147
0.078125 0.183594 -0.118429 90 121 141
0.082031 0.183594 -0.115800 80 111 131
0.085938 0.183594 -0.112083 73 103 123
0.089844 0.183594 -0.108468 64 94 115
0.093750 0.183594 -0.102756 68 94 117
0.097656 0.183594 -0.097538 97 113 138
-0.187500 0.179688 -0.027436 145 105 101
-0.183594 0.179688 -0.034672 208 154 117
-0.179688 0.179688 -0.039170 190 118 79
-0.175781 0.179688 -0.041150 196 123 81
-0.171875 0.179688 -0.043722 198 125 84
-0.167969 0.179688 -0.046202 198 126 85
-0.164062 0.179688 -0.048850 203 134 92
-0.160156 0.179688 -0.051447 208 141 98
-0.156250 0.179688 -0.054021 211 149 105
-0.152344 0.179688 -0.056464 215 155 110
-0.148438 0.179688 -0.059220 214 155 111
-0.144531 0.179688 -0.062086 213 158 116
-0.140625 0.179688 -0.065192 212 162 122
-0.136719 0.179688 -0.068406 210 164 129
-0.132812 0.179688 -0.071541 182 143 117
-0.128906 0.179688 -0.075703 90 76 70
-0.125000 0.179688 -0.080060 193 195 195
-0.121094 0.179688 -0.084528 224 226 218
-0.117188 0.179688 -0.088990 216 216 206
-0.113281 0.179688 -0.093400 183 183 173
-0.109375 0.179688 -0.097749 165 167 160
-0.105469 0.179688 -0.102326 169 172 175
-0.101562 0.179688 -0.106806 143 154 174
-0.097656 0.179688 -0.110982 82 99 141
-0.093750 0.179688 -0.115071 70 92 152
-0.089844 0.179688 -0.119076 56 83 154
-0.085938 0.179688 -0.122941 47 75 148
-0.082031 0.179688 -0.126778 43 72 138
-0.078125 0.179688 -0.130366 47 77 131
-0.074219 0.179688 -0.133475 61 88 131
-0.070312 0.179688 -0.136142 75 101 138
-0.066406 0.179688 -0.138523 64 105 149
-0.062500 0.179688 -0.140598 63 104 150
-0.058594 0.179688 -0.142302 53 91 138
-0.054688 0.179688 -0.143702 49 85 133
-0.050781 0.179688 -0.144805 59 93 141
-0.046875 0.179688 -0.145693 60 92 139
-0.042969 0.179688 -0.146415 59 88 132
-0.039062 0.179688 -0.146915 65 93 132
-0.035156 0.179688 -0.147322 53 78 109
-0.031250 0.179688 -0.147528 60 82 106
-0.027344 0.179688 -0.147305 62 84 98
-0.023438 0.179688 -0.146804 63 82 88
-0.019531 0.179688 -0.146032 68 87 83
-0.015625 0.179688 -0.145002 80 98 86
-0.011719 0.179688 -0.144148 90 109 90
-0.007812 0.179688 -0.143309 95 113 91
-0.003906 0.179688 -0.142213 43 66 98
0.000000 0.179688 -0.141016 45 67 104
0.003906 0.179688 -0.139423 57 80 124
0.007812 0.179688 -0.137431 69 94 148
0.011719 0.179688 -0.135496 69 94 160
0.015625 0.179688 -0.133489 59 85 159
0.019531 0.179688 -0.131449 61 88 167
0.023438 0.179688 -0.129585 74 101 182
0.027344 0.179688 -0.127862 73 102 178
0.031250 0.179688 -0.126540 75 104 172
0.035156 0.179688 -0.125403 70 99 155
0.039062 0.179688 -0.124659 65 94 136
0.042969 0.179688 -0.124036 68 98 126
0.046875 0.179688 -0.123515 79 108 122
0.050781 0.179688 -0.123624 83 112 116
0.054688 0.179688 -0.123952 80 110 108
0.058594 0.179688 -0.124403 87 115 127
0.062500 0.179688 -0.124845 86 114 126
0.066406 0.179688 -0.124417 84 112 124
0.070312 0.179688 -0.123169 79 107 121
0.074219 0.179688 -0.122034 73 101 115
0.078125 0.179688 -0.120462 67 94 111
0.082031 0.179688 -0.117889 63 90 107
0.085938 0.179688 -0.114326 61 88 105
0.089844 0.179688 -0.110422 61 88 103
0.093750 0.179688 -0.106339 67 90 107
0.097656 0.179688 -0.102113 78 100 117
0.101562 0.179688 -0.096749 87 94 129
-0.187500 0.175781 -0.035001 201 166 136
-0.183594 0.175781 -0.041008 219 170 123
-0.179688 0.175781 -0.043120 196 126 83
-0.175781 0.175781 -0.045072 198 125 83
-0.171875 0.175781 -0.047736 200 128 86
-0.167969 0.175781 -0.049881 200 129 88
-0.164062 0.175781 -0.052012 205 139 95
-0.160156 0.175781 -0.054253 210 146 101
-0.156250 0.175781 -0.056420 213 153 108
-0.152344 0.175781 -0.058582 216 159 114
-0.148438 0.175781 -0.061236 216 159 115
-0.144531 0.175781 -0.064025 213 161 119
-0.140625 0.175781 -0.067051 212 164 124
-0.136719 0.175781 -0.070173 212 170 136
-0.132812 0.175781 -0.073149 176 142 114
-0.128906 0.175781 -0.077198 104 101 97
-0.125000 0.175781 -0.081531 211 213 213
-0.121094 0.175781 -0.085660 224 227 219
-0.117188 0.175781 -0.090067 213 213 203
-0.113281 0.175781 -0.094464 182 182 171
-0.109375 0.175781 -0.098678 167 167 161
-0.105469 0.175781 -0.103171 170 174 176
-0.101562 0.175781 -0.107582 148 158 176
-0.097656 0.175781 -0.111706 86 103 143
-0.093750 0.175781 -0.115757 73 95 152
-0.089844 0.175781 -0.119740 61 89 154
-0.085938 0.175781 -0.123591 54 83 149
-0.082031 0.175781 -0.127423 49 79 139
-0.078125 0.175781 -0.131012 52 80 130
-0.074219 0.175781 -0.134128 62 90 129
-0.070312 0.175781 -0.136798 75 101 134
-0.066406 0.175781 -0.139188 61 97 147
-0.062500 0.175781 -0.141281 58 94 142
-0.058594 0.175781 -0.142990 49 83 131
-0.054688 0.175781 -0.144401 50 82 131
-0.050781 0.175781 -0.145534 64 95 142
-0.046875 0.175781 -0.146432 64 92 139
-0.042969 0.175781 -0.147161 52 79 122
-0.039062 0.175781 -0.147656 51 75 113
-0.035156 0.175781 -0.148028 63 86 118
-0.031250 0.175781 -0.148202 68 90 114
-0.027344 0.175781 -0.147957 70 89 106
-0.023438 0.175781 -0.147447 67 85 95
-0.019531 0.175781 -0.146647 65 83 87
-0.015625 0.175781 -0.145594 66 82 79
-0.011719 0.175781 -0.144689 63 80 72
-0.007812 0.175781 -0.143814 60 76 66
-0.003906 0.175781 -0.142697 57 79 102
0.000000 0.175781 -0.141472 38 59 86
0.003906 0.175781 -0.139925 31 54 86
0.007812 0.175781 -0.138048 52 75 117
0.011719 0.175781 -0.136263 71 96 150
0.015625 0.175781 -0.134445 73 98 162
0.019531 0.175781 -0.132622 64 91 162
0.023438 0.175781 -0.130936 58 86 160
0.027344 0.175781 -0.129366 69 97 171
0.031250 0.175781 -0.128173 68 97 167
0.035156 0.175781 -0.127135 60 88 151
0.039062 0.175781 -0.126443 56 83 136
0.042969 0.175781 -0.125837 73 101 141
0.046875 0.175781 -0.125303 95 124 154
0.050781 0.175781 -0.125423 94 122 146
0.054688 0.175781 -0.125764 76 103 122
0.058594 0.175781 -0.126209 80 103 117
0.062500 0.175781 -0.126671 78 101 115
0.066406 0.175781 -0.126199 75 97 111
0.070312 0.175781 -0.124907 72 94 108
0.074219 0.175781 -0.123720 71 93 106
0.078125 0.175781 -0.122039 71 93 106
0.082031 0.175781 -0.119596 73 95 106
0.085938 0.175781 -0.116428 76 96 105
0.089844 0.175781 -0.112760 81 100 108
0.093750 0.175781 -0.108905 86 105 113
0.097656 0.175781 -0.104409 92 109 117
0.101562 0.175781 -0.099748 107 122 137
-0.191406 0.171875 -0.044719 218 178 148
-0.187500 0.171875 -0.044322 194 150 116
-0.183594 0.171875 -0.045827 211 156 108
-0.179688 0.171875 -0.047114 195 124 82
-0.175781 0.171875 -0.049202 197 126 84
-0.171875 0.171875 -0.051457 201 131 89
-0.167969 0.171875 -0.053248 202 134 91
-0.164062 0.171875 -0.055010 207 143 98
-0.160156 0.171875 -0.056942 211 150 104
-0.156250 0.171875 -0.058845 214 156 110
-0.152344 0.171875 -0.060839 217 161 115
-0.148438 0.171875 -0.063347 216 161 117
-0.144531 0.171875 -0.065942 213 161 119
-0.140625 0.171875 -0.068825 210 164 125
-0.136719 0.171875 -0.071892 212 175 142
-0.132812 0.171875 -0.074647 172 141 115
-0.128906 0.171875 -0.078656 153 155 153
-0.125000 0.171875 -0.083027 224 227 227
-0.121094 0.171875 -0.086896 226 228 223
-0.117188 0.171875 -0.091233 210 210 201
-0.113281 0.171875 -0.095602 180 180 171
-0.109375 0.171875 -0.099695 167 167 162
-0.105469 0.171875 -0.104056 172 175 177
-0.101562 0.171875 -0.108372 152 162 179
-0.097656 0.171875 -0.112431 91 106 142
-0.093750 0.171875 -0.116420 77 99 149
-0.089844 0.171875 -0.120363 67 93 152
-0.085938 0.171875 -0.124174 61 90 150
-0.082031 0.171875 -0.127974 56 86 140
-0.078125 0.171875 -0.131554 54 83 127
-0.074219 0.171875 -0.134659 64 90 125
-0.070312 0.171875 -0.137328 76 101 131
-0.066406 0.171875 -0.139736 71 101 153
-0.062500 0.171875 -0.141848 65 95 145
-0.058594 0.171875 -0.143577 55 83 133
-0.054688 0.171875 -0.144996 55 83 131
-0.050781 0.171875 -0.146137 70 97 142
-0.046875 0.171875 -0.147025 68 92 136
-0.042969 0.171875 -0.147732 50 73 114
-0.039062 0.171875 -0.148196 41 64 98
-0.035156 0.171875 -0.148509 69 90 121
-0.031250 0.171875 -0.148631 74 91 117
-0.027344 0.171875 -0.148348 75 92 112
-0.023438 0.171875 -0.147812 75 91 106
-0.019531 0.171875 -0.146994 75 92 102
-0.015625 0.171875 -0.145961 75 90 97
-0.011719 0.171875 -0.145050 65 80 85
-0.007812 0.171875 -0.144182 55 69 72
-0.003906 0.171875 -0.143092 69 89 98
0.000000 0.171875 -0.141903 54 76 89
0.003906 0.171875 -0.140473 36 57 76
0.007812 0.171875 -0.138759 28 52 80
0.011719 0.171875 -0.137142 50 73 114
0.015625 0.171875 -0.135512 77 100 150
0.019531 0.171875 -0.133905 76 102 161
0.023438 0.171875 -0.132396 62 87 153
0.027344 0.171875 -0.131003 56 83 152
0.031250 0.171875 -0.129916 52 79 148
0.035156 0.171875 -0.128987 46 73 140
0.039062 0.171875 -0.128304 53 79 140
0.042969 0.171875 -0.127687 76 102 159
0.046875 0.171875 -0.127096 97 123 174
0.050781 0.171875 -0.127175 89 116 161
0.054688 0.171875 -0.127487 69 93 137
0.058594 0.171875 -0.127884 71 88 108
0.062500 0.171875 -0.128334 75 92 110
0.066406 0.171875 -0.127852 82 99 115
0.070312 0.171875 -0.126526 89 107 121
0.074219 0.171875 -0.125311 96 113 123
0.078125 0.171875 -0.123587 98 115 122
0.082031 0.171875 -0.121144 98 113 118
0.085938 0.171875 -0.117915 96 112 112
0.089844 0.171875 -0.114541 99 114 111
0.093750 0.171875 -0.110558 103 116 114
0.097656 0.171875 -0.107222 103 112 112
0.101562 0.171875 -0.100684 97 103 124
-0.191406 0.167969 -0.046027 208 154 120
-0.187500 0.167969 -0.049280 190 139 107
-0.183594 0.167969 -0.050876 207 148 103
-0.179688 0.167969 -0.051577 196 127 85
-0.175781 0.167969 -0.052927 198 128 85
-0.171875 0.167969 -0.054933 202 134 91
-0.167969 0.167969 -0.056472 203 137 94
-0.164062 0.167969 -0.057886 208 145 100
-0.160156 0.167969 -0.059560 212 152 106
-0.156250 0.167969 -0.061266 214 157 111
-0.152344 0.167969 -0.063103 216 161 116
-0.148438 0.167969 -0.065481 215 161 118
-0.144531 0.167969 -0.067910 210 159 117
-0.140625 0.167969 -0.070595 206 161 122
-0.136719 0.167969 -0.073640 211 175 145
-0.132812 0.167969 -0.076134 168 140 118
-0.128906 0.167969 -0.080071 184 187 186
-0.125000 0.167969 -0.084380 230 233 233
-0.121094 0.167969 -0.088188 226 228 223
-0.117188 0.167969 -0.092381 208 208 199
-0.113281 0.167969 -0.096682 182 181 173
-0.109375 0.167969 -0.100670 172 172 167
-0.105469 0.167969 -0.104898 175 180 180
-0.101562 0.167969 -0.109115 157 168 180
-0.097656 0.167969 -0.113090 88 105 135
-0.093750 0.167969 -0.116998 74 97 139
-0.089844 0.167969 -0.120882 65 93 141
-0.085938 0.167969 -0.124644 62 92 142
-0.082031 0.167969 -0.128415 58 86 133
-0.078125 0.167969 -0.131990 52 80 117
-0.074219 0.167969 -0.135091 61 86 116
-0.070312 0.167969 -0.137743 74 98 122
-0.066406 0.167969 -0.140151 88 111 161
-0.062500 0.167969 -0.142262 76 100 148
-0.058594 0.167969 -0.143996 56 78 125
-0.054688 0.167969 -0.145402 50 73 117
-0.050781 0.167969 -0.146527 62 84 125
-0.046875 0.167969 -0.147395 61 83 120
-0.042969 0.167969 -0.148059 49 70 101
-0.039062 0.167969 -0.148480 44 64 91
-0.035156 0.167969 -0.148726 70 88 112
-0.031250 0.167969 -0.148782 82 99 119
-0.027344 0.167969 -0.148463 89 106 124
-0.023438 0.167969 -0.147922 86 102 118
-0.019531 0.167969 -0.147127 81 94 110
-0.015625 0.167969 -0.146162 79 93 106
-0.011719 0.167969 -0.145273 81 93 107
-0.007812 0.167969 -0.144413 82 94 108
-0.003906 0.167969 -0.143365 66 87 82
0.000000 0.167969 -0.142217 73 93 92
0.003906 0.167969 -0.140895 64 85 90
0.007812 0.167969 -0.139352 39 61 74
0.011719 0.167969 -0.137898 29 51 75
0.015625 0.167969 -0.136424 43 67 101
0.019531 0.167969 -0.135000 68 92 136
0.023438 0.167969 -0.133681 79 104 158
0.027344 0.167969 -0.132451 66 92 151
0.031250 0.167969 -0.131479 65 90 156
0.035156 0.167969 -0.130689 65 90 157
0.039062 0.167969 -0.130059 66 91 158
0.042969 0.167969 -0.129435 65 90 157
0.046875 0.167969 -0.128784 62 87 153
0.050781 0.167969 -0.128800 63 86 153
0.054688 0.167969 -0.129055 66 90 154
0.058594 0.167969 -0.129365 71 85 111
0.062500 0.167969 -0.129778 79 91 115
0.066406 0.167969 -0.129289 89 101 123
0.070312 0.167969 -0.127959 99 112 128
0.074219 0.167969 -0.126740 105 118 127
0.078125 0.167969 -0.124979 103 117 120
0.082031 0.167969 -0.122593 97 109 107
0.085938 0.167969 -0.119323 91 102 94
0.089844 0.167969 -0.115681 92 102 91
0.093750 0.167969 -0.111390 99 109 94
0.097656 0.167969 -0.109565 105 111 101
0.101562 0.167969 -0.102722 109 109 120
0.105469 0.167969 -0.102190 97 114 139
-0.195312 0.164062 -0.050973 223 199 167
-0.191406 0.164062 -0.050821 214 183 154
-0.187500 0.164062 -0.053597 202 150 112
-0.183594 0.164062 -0.055053 207 146 103
-0.179688 0.164062 -0.055276 199 131 90
-0.175781 0.164062 -0.056329 199 130 88
-0.171875 0.164062 -0.058104 202 136 93
-0.167969 0.164062 -0.059393 204 140 96
-0.164062 0.164062 -0.060511 208 147 102
-0.160156 0.164062 -0.061942 212 153 107
-0.156250 0.164062 -0.063478 213 157 111
-0.152344 0.164062 -0.065121 215 161 116
-0.148438 0.164062 -0.067337 214 160 118
-0.144531 0.164062 -0.069696 207 157 117
-0.140625 0.164062 -0.072262 201 155 120
-0.136719 0.164062 -0.075220 208 172 146
-0.132812 0.164062 -0.077867 168 139 122
-0.128906 0.164062 -0.081592 198 201 201
-0.125000 0.164062 -0.085708 232 235 235
-0.121094 0.164062 -0.089414 226 228 223
-0.117188 0.164062 -0.093493 207 207 200
-0.113281 0.164062 -0.097704 184 183 175
-0.109375 0.164062 -0.101606 176 176 171
-0.105469 0.164062 -0.105691 179 182 182
-0.101562 0.164062 -0.109786 163 172 183
-0.097656 0.164062 -0.113663 92 108 133
-0.093750 0.164062 -0.117490 77 100 134
-0.089844 0.164062 -0.121324 68 96 136
-0.085938 0.164062 -0.125037 68 97 139
-0.082031 0.164062 -0.128777 63 91 128
-0.078125 0.164062 -0.132337 56 83 113
-0.074219 0.164062 -0.135438 64 88 112
-0.070312 0.164062 -0.138086 80 102 123
-0.066406 0.164062 -0.140498 98 117 160
-0.062500 0.164062 -0.142606 85 104 146
-0.058594 0.164062 -0.144343 59 77 115
-0.054688 0.164062 -0.145740 46 65 98
-0.050781 0.164062 -0.146849 54 73 103
-0.046875 0.164062 -0.147690 59 77 101
-0.042969 0.164062 -0.148298 55 73 93
-0.039062 0.164062 -0.148663 58 75 91
-0.035156 0.164062 -0.148829 61 79 93
-0.031250 0.164062 -0.148818 69 85 98
-0.027344 0.164062 -0.148459 79 95 108
-0.023438 0.164062 -0.147899 91 105 118
-0.019531 0.164062 -0.147105 99 112 128
-0.015625 0.164062 -0.146171 101 114 130
-0.011719 0.164062 -0.145291 92 103 121
-0.007812 0.164062 -0.144440 79 90 108
-0.003906 0.164062 -0.143431 82 100 86
0.000000 0.164062 -0.142352 73 91 79
0.003906 0.164062 -0.141159 64 83 77
0.007812 0.164062 -0.139800 57 77 78
0.011719 0.164062 -0.138556 40 63 71
0.015625 0.164062 -0.137297 29 52 70
0.019531 0.164062 -0.136116 40 64 92
0.023438 0.164062 -0.135000 61 87 124
0.027344 0.164062 -0.133896 83 110 157
0.031250 0.164062 -0.133057 73 98 154
0.035156 0.164062 -0.132318 64 90 151
0.039062 0.164062 -0.131712 62 87 154
0.042969 0.164062 -0.131055 56 80 152
0.046875 0.164062 -0.130332 49 73 147
0.050781 0.164062 -0.130257 50 73 149
0.054688 0.164062 -0.130426 57 80 156
0.058594 0.164062 -0.130662 70 80 115
0.062500 0.164062 -0.131018 72 83 115
0.066406 0.164062 -0.130518 77 89 115
0.070312 0.164062 -0.129206 85 96 116
0.074219 0.164062 -0.127952 90 103 112
0.078125 0.164062 -0.126169 91 102 104
0.082031 0.164062 -0.123819 85 96 90
0.085938 0.164062 -0.120688 80 91 77
0.089844 0.164062 -0.117164 84 93 76
0.093750 0.164062 -0.112951 94 102 82
0.097656 0.164062 -0.109756 107 112 92
0.101562 0.164062 -0.105372 121 121 108
0.105469 0.164062 -0.099375 152 155 165
-0.195312 0.160156 -0.050189 215 178 138
-0.191406 0.160156 -0.055814 218 178 148
-0.187500 0.160156 -0.057610 193 128 93
-0.183594 0.160156 -0.058329 201 135 94
-0.179688 0.160156 -0.058903 200 133 91
-0.175781 0.160156 -0.059977 199 132 90
-0.171875 0.160156 -0.061337 202 138 95
-0.167969 0.160156 -0.062307 204 142 99
-0.164062 0.160156 -0.063186 208 149 104
-0.160156 0.160156 -0.064382 211 153 107
-0.156250 0.160156 -0.065727 212 157 111
-0.152344 0.160156 -0.067216 215 161 117
-0.148438 0.160156 -0.069248 213 161 120
-0.144531 0.160156 -0.071468 205 157 118
-0.140625 0.160156 -0.073808 195 149 118
-0.136719 0.160156 -0.076585 201 163 144
-0.132812 0.160156 -0.079501 166 135 126
-0.128906 0.160156 -0.082980 206 209 209
-0.125000 0.160156 -0.086868 232 235 235
-0.121094 0.160156 -0.090490 226 226 224
-0.117188 0.160156 -0.094469 207 207 201
-0.113281 0.160156 -0.098585 188 186 179
-0.109375 0.160156 -0.102454 179 179 175
-0.105469 0.160156 -0.106381 179 182 181
-0.101562 0.160156 -0.110329 164 173 181
-0.097656 0.160156 -0.114114 96 113 130
-0.093750 0.160156 -0.117862 79 103 129
-0.089844 0.160156 -0.121644 72 99 129
-0.085938 0.160156 -0.125310 72 101 133
-0.082031 0.160156 -0.129011 69 96 125
-0.078125 0.160156 -0.132541 61 87 110
-0.074219 0.160156 -0.135634 70 93 111
-0.070312 0.160156 -0.138279 87 109 123
-0.066406 0.160156 -0.140690 100 115 148
-0.062500 0.160156 -0.142791 95 110 141
-0.058594 0.160156 -0.144529 79 95 121
-0.054688 0.160156 -0.145913 70 87 107
-0.050781 0.160156 -0.146991 75 93 107
-0.046875 0.160156 -0.147780 76 93 101
-0.042969 0.160156 -0.148326 73 91 95
-0.039062 0.160156 -0.148642 77 95 95
-0.035156 0.160156 -0.148736 55 73 73
-0.031250 0.160156 -0.148663 54 70 70
-0.027344 0.160156 -0.148266 58 73 76
-0.023438 0.160156 -0.147689 78 93 98
-0.019531 0.160156 -0.146897 109 123 132
-0.015625 0.160156 -0.145993 126 140 151
-0.011719 0.160156 -0.145139 118 131 147
-0.007812 0.160156 -0.144318 100 113 129
-0.003906 0.160156 -0.143363 115 132 113
0.000000 0.160156 -0.142352 89 108 89
0.003906 0.160156 -0.141302 71 89 75
0.007812 0.160156 -0.140143 70 90 81
0.011719 0.160156 -0.139111 70 90 88
0.015625 0.160156 -0.138083 53 76 82
0.019531 0.160156 -0.137100 37 60 74
0.023438 0.160156 -0.136146 30 54 78
0.027344 0.160156 -0.135176 67 91 125
0.031250 0.160156 -0.134539 62 86 130
0.035156 0.160156 -0.133754 55 81 132
0.039062 0.160156 -0.133177 55 81 140
0.042969 0.160156 -0.132485 61 86 153
0.046875 0.160156 -0.131714 63 90 161
0.050781 0.160156 -0.131527 60 86 161
0.054688 0.160156 -0.131565 55 81 158
0.058594 0.160156 -0.131679 64 77 119
0.062500 0.160156 -0.131926 64 78 117
0.066406 0.160156 -0.131404 66 81 114
0.070312 0.160156 -0.130074 74 89 112
0.074219 0.160156 -0.128810 84 98 111
0.078125 0.160156 -0.127067 88 102 105
0.082031 0.160156 -0.124725 88 100 96
0.085938 0.160156 -0.121618 85 97 85
0.089844 0.160156 -0.118485 88 100 80
0.093750 0.160156 -0.114990 100 110 86
0.097656 0.160156 -0.110808 108 115 92
0.101562 0.160156 -0.107867 112 115 96
0.105469 0.160156 -0.100743 111 110 103
0.109375 0.160156 -0.093434 89 93 131
-0.199219 0.156250 -0.053682 184 113 79
-0.195312 0.156250 -0.055766 194 138 103
-0.191406 0.156250 -0.059061 208 154 120
-0.187500 0.156250 -0.060713 184 113 79
-0.183594 0.156250 -0.061659 196 129 88
-0.179688 0.156250 -0.062328 200 134 92
-0.175781 0.156250 -0.063183 200 134 92
-0.171875 0.156250 -0.064347 202 139 96
-0.167969 0.156250 -0.065152 204 144 100
-0.164062 0.156250 -0.065796 207 148 104
-0.160156 0.156250 -0.066750 210 153 107
-0.156250 0.156250 -0.067859 211 156 111
-0.152344 0.156250 -0.069185 213 160 117
-0.148438 0.156250 -0.071082 211 160 120
-0.144531 0.156250 -0.073204 202 157 119
-0.140625 0.156250 -0.075407 188 147 119
-0.136719 0.156250 -0.078254 193 158 142
-0.132812 0.156250 -0.081049 169 140 135
-0.128906 0.156250 -0.084218 214 217 217
-0.125000 0.156250 -0.087828 232 234 234
-0.121094 0.156250 -0.091388 225 225 223
-0.117188 0.156250 -0.095264 208 208 204
-0.113281 0.156250 -0.099267 192 189 184
-0.109375 0.156250 -0.103071 183 183 180
-0.105469 0.156250 -0.106875 181 183 182
-0.101562 0.156250 -0.110723 165 173 177
-0.097656 0.156250 -0.114450 94 109 122
-0.093750 0.156250 -0.118147 78 101 119
-0.089844 0.156250 -0.121886 69 95 118
-0.085938 0.156250 -0.125509 71 99 121
-0.082031 0.156250 -0.129178 67 94 115
-0.078125 0.156250 -0.132675 59 85 102
-0.074219 0.156250 -0.135762 69 91 105
-0.070312 0.156250 -0.138412 88 107 121
-0.066406 0.156250 -0.140831 97 110 127
-0.062500 0.156250 -0.142927 105 118 134
-0.058594 0.156250 -0.144666 105 119 130
-0.054688 0.156250 -0.146043 105 120 125
-0.050781 0.156250 -0.147106 109 125 125
-0.046875 0.156250 -0.147866 102 119 113
-0.042969 0.156250 -0.148364 92 110 98
-0.039062 0.156250 -0.148628 93 111 97
-0.035156 0.156250 -0.148646 101 119 105
-0.031250 0.156250 -0.148504 92 110 96
-0.027344 0.156250 -0.148064 78 95 85
-0.023438 0.156250 -0.147473 71 88 82
-0.019531 0.156250 -0.146685 80 96 95
-0.015625 0.156250 -0.145807 103 118 121
-0.011719 0.156250 -0.144966 123 138 145
-0.007812 0.156250 -0.144168 132 146 155
-0.003906 0.156250 -0.143264 134 151 132
0.000000 0.156250 -0.142313 127 144 125
0.003906 0.156250 -0.141387 108 126 110
0.007812 0.156250 -0.140413 88 109 94
0.011719 0.156250 -0.139565 83 104 95
0.015625 0.156250 -0.138714 80 102 99
0.019531 0.156250 -0.137892 57 81 83
0.023438 0.156250 -0.137033 30 54 66
0.027344 0.156250 -0.136236 28 55 74
0.031250 0.156250 -0.135674 56 83 112
0.035156 0.156250 -0.134910 74 102 141
0.039062 0.156250 -0.134372 69 97 144
0.042969 0.156250 -0.133664 62 92 146
0.046875 0.156250 -0.132873 69 98 158
0.050781 0.156250 -0.132595 74 101 168
0.054688 0.156250 -0.132504 70 99 167
0.058594 0.156250 -0.132472 66 87 134
0.062500 0.156250 -0.132578 68 86 132
0.066406 0.156250 -0.132002 71 91 128
0.070312 0.156250 -0.130656 79 98 128
0.074219 0.156250 -0.129377 89 107 127
0.078125 0.156250 -0.127724 93 111 121
0.082031 0.156250 -0.125574 91 109 109
0.085938 0.156250 -0.122634 88 105 95
0.089844 0.156250 -0.119965 90 107 91
0.093750 0.156250 -0.116476 102 115 97
0.097656 0.156250 -0.112461 107 119 99
0.101562 0.156250 -0.110492 100 108 91
0.105469 0.156250 -0.102505 91 96 82
0.109375 0.156250 -0.103265 89 95 84
-0.199219 0.152344 -0.054832 210 174 146
-0.195312 0.152344 -0.059884 223 199 167
-0.191406 0.152344 -0.062947 213 161 118
-0.187500 0.152344 -0.064092 188 118 80
-0.183594 0.152344 -0.064658 196 128 87
-0.179688 0.152344 -0.065611 200 135 92
-0.175781 0.152344 -0.066302 200 135 93
-0.171875 0.152344 -0.067215 203 141 98
-0.167969 0.152344 -0.067839 204 145 101
-0.164062 0.152344 -0.068284 206 148 104
-0.160156 0.152344 -0.069001 209 152 107
-0.156250 0.152344 -0.069824 210 155 110
-0.152344 0.152344 -0.070919 211 159 117
-0.148438 0.152344 -0.072609 210 161 122
-0.144531 0.152344 -0.074625 202 160 125
-0.140625 0.152344 -0.076853 186 149 125
-0.136719 0.152344 -0.079628 183 151 138
-0.132812 0.152344 -0.082197 181 159 157
-0.128906 0.152344 -0.085149 222 226 227
-0.125000 0.152344 -0.088526 232 234 234
-0.121094 0.152344 -0.091999 224 223 222
-0.117188 0.152344 -0.095811 207 205 203
-0.113281 0.152344 -0.099712 193 191 189
-0.109375 0.152344 -0.103432 184 183 181
-0.105469 0.152344 -0.107145 178 180 179
-0.101562 0.152344 -0.110917 171 178 180
-0.097656 0.152344 -0.114597 99 113 121
-0.093750 0.152344 -0.118268 77 99 112
-0.089844 0.152344 -0.121991 69 95 110
-0.085938 0.152344 -0.125588 61 88 105
-0.082031 0.152344 -0.129230 62 88 103
-0.078125 0.152344 -0.132696 57 80 94
