ply
    format ascii 1.0
    element vertex 84950
    property float x
    property float y
    property float z
    property uchar red
    property uchar green
    property uchar blue
    end_header
0.199219 -0.128906 0.102270 232 187 159
0.203125 -0.128906 0.102281 230 185 157
0.207031 -0.128906 0.102099 227 181 152
0.210938 -0.128906 0.101703 223 176 147
0.214844 -0.128906 0.101244 220 172 143
0.218750 -0.128906 0.100814 217 169 139
0.222656 -0.128906 0.100159 213 165 136
0.226562 -0.128906 0.099059 208 159 132
0.230469 -0.128906 0.097674 200 152 125
0.234375 -0.128906 0.096101 190 142 116
0.238281 -0.128906 0.094010 182 133 108
0.242188 -0.128906 0.091035 176 129 105
0.246094 -0.128906 0.087436 169 123 100
0.250000 -0.128906 0.083229 164 118 94
0.253906 -0.128906 0.079074 155 113 88
0.257812 -0.128906 0.072356 135 100 73
0.261719 -0.128906 0.065548 129 96 78
0.265625 -0.128906 0.054182 145 114 108
0.269531 -0.128906 0.010029 54 40 41
-0.148438 -0.132812 0.001526 177 161 148
-0.144531 -0.132812 0.016107 191 158 132
-0.140625 -0.132812 0.026613 201 157 127
-0.136719 -0.132812 0.034841 213 170 138
-0.132812 -0.132812 0.040983 212 166 135
-0.128906 -0.132812 0.046670 213 166 134
-0.125000 -0.132812 0.052069 217 168 136
-0.121094 -0.132812 0.056516 222 170 139
-0.117188 -0.132812 0.060211 227 175 143
-0.113281 -0.132812 0.063775 230 177 146
-0.109375 -0.132812 0.067090 232 179 148
-0.105469 -0.132812 0.069878 234 182 151
-0.101562 -0.132812 0.072153 235 184 153
-0.097656 -0.132812 0.074150 236 186 155
-0.093750 -0.132812 0.075935 234 185 154
-0.089844 -0.132812 0.077502 230 176 146
-0.085938 -0.132812 0.079023 226 171 143
-0.082031 -0.132812 0.080306 224 169 144
-0.078125 -0.132812 0.081264 217 164 140
-0.074219 -0.132812 0.081951 208 155 132
-0.070312 -0.132812 0.082288 197 147 124
-0.066406 -0.132812 0.082394 184 138 115
-0.062500 -0.132812 0.082292 173 128 105
-0.058594 -0.132812 0.081850 164 121 97
-0.054688 -0.132812 0.080951 154 112 89
-0.050781 -0.132812 0.079867 147 104 83
-0.046875 -0.132812 0.078725 140 97 78
-0.042969 -0.132812 0.077354 133 91 73
-0.039062 -0.132812 0.075773 129 88 71
-0.035156 -0.132812 0.074096 125 86 69
-0.031250 -0.132812 0.072358 122 84 67
-0.027344 -0.132812 0.070375 120 84 66
-0.023438 -0.132812 0.068046 118 82 65
-0.019531 -0.132812 0.065498 117 82 63
-0.015625 -0.132812 0.062894 115 80 61
-0.011719 -0.132812 0.059984 112 76 59
-0.007812 -0.132812 0.056488 113 77 59
-0.003906 -0.132812 0.052904 111 77 59
0.000000 -0.132812 0.049463 108 77 58
0.003906 -0.132812 0.045563 109 78 58
0.007812 -0.132812 0.040547 109 78 59
0.011719 -0.132812 0.034638 105 76 56
0.015625 -0.132812 0.028092 104 74 54
0.019531 -0.132812 0.021385 100 69 53
0.023438 -0.132812 0.011406 99 74 62
0.027344 -0.132812 -0.004946 116 101 92
0.089844 -0.132812 0.031246 120 94 70
0.093750 -0.132812 0.043909 160 118 88
0.097656 -0.132812 0.051167 183 136 107
0.101562 -0.132812 0.056868 196 147 116
0.105469 -0.132812 0.061251 209 163 129
0.109375 -0.132812 0.064450 220 176 144
0.113281 -0.132812 0.066852 228 185 153
0.117188 -0.132812 0.068910 232 188 157
0.121094 -0.132812 0.070882 234 190 159
0.125000 -0.132812 0.072990 236 192 161
0.128906 -0.132812 0.075069 236 192 160
0.132812 -0.132812 0.077028 236 193 161
0.136719 -0.132812 0.079133 237 194 162
0.140625 -0.132812 0.081365 236 193 161
0.144531 -0.132812 0.083575 236 193 161
0.148438 -0.132812 0.085707 236 193 160
0.152344 -0.132812 0.087863 236 192 160
0.156250 -0.132812 0.090007 235 192 160
0.160156 -0.132812 0.092106 235 191 161
0.164062 -0.132812 0.094179 235 191 161
0.167969 -0.132812 0.096119 236 192 163
0.171875 -0.132812 0.097845 236 193 165
0.175781 -0.132812 0.099349 237 194 167
0.179688 -0.132812 0.100591 237 194 167
0.183594 -0.132812 0.101612 236 192 166
0.187500 -0.132812 0.102472 235 192 165
0.191406 -0.132812 0.103063 234 190 164
0.195312 -0.132812 0.103359 233 189 161
0.199219 -0.132812 0.103493 232 188 160
0.203125 -0.132812 0.103523 230 185 157
0.207031 -0.132812 0.103359 227 181 152
0.210938 -0.132812 0.103001 225 178 149
0.214844 -0.132812 0.102574 223 175 146
0.218750 -0.132812 0.102160 219 172 142
0.222656 -0.132812 0.101527 216 168 139
0.226562 -0.132812 0.100459 210 162 134
0.230469 -0.132812 0.099115 203 155 127
0.234375 -0.132812 0.097614 194 146 119
0.238281 -0.132812 0.095613 186 138 112
0.242188 -0.132812 0.092758 180 132 108
0.246094 -0.132812 0.089289 171 124 101
0.250000 -0.132812 0.085350 164 118 94
0.253906 -0.132812 0.081456 156 113 88
0.257812 -0.132812 0.075474 140 102 75
0.261719 -0.132812 0.068324 128 93 75
0.265625 -0.132812 0.058425 107 77 74
0.269531 -0.132812 0.045032 29 19 21
-0.144531 -0.136719 0.012374 188 152 130
-0.140625 -0.136719 0.022405 193 148 122
-0.136719 -0.136719 0.031110 206 163 133
-0.132812 -0.136719 0.038008 207 162 130
-0.128906 -0.136719 0.043936 209 163 131
-0.125000 -0.136719 0.049381 214 165 134
-0.121094 -0.136719 0.053957 219 168 137
-0.117188 -0.136719 0.057817 225 173 142
-0.113281 -0.136719 0.061466 228 176 145
-0.109375 -0.136719 0.064902 231 179 148
-0.105469 -0.136719 0.067836 233 180 150
-0.101562 -0.136719 0.070175 233 180 149
-0.097656 -0.136719 0.072259 234 182 151
-0.093750 -0.136719 0.074161 234 182 151
-0.089844 -0.136719 0.075831 230 175 146
-0.085938 -0.136719 0.077414 227 171 143
-0.082031 -0.136719 0.078751 225 171 144
-0.078125 -0.136719 0.079784 221 167 142
-0.074219 -0.136719 0.080559 214 162 137
-0.070312 -0.136719 0.080988 205 155 130
-0.066406 -0.136719 0.081159 193 147 121
-0.062500 -0.136719 0.081131 183 139 113
-0.058594 -0.136719 0.080768 175 133 107
-0.054688 -0.136719 0.079943 167 125 100
-0.050781 -0.136719 0.078934 158 116 93
-0.046875 -0.136719 0.077872 152 110 88
-0.042969 -0.136719 0.076562 146 105 84
-0.039062 -0.136719 0.074973 141 101 81
-0.035156 -0.136719 0.073270 134 96 76
-0.031250 -0.136719 0.071536 129 92 73
-0.027344 -0.136719 0.069573 128 92 73
-0.023438 -0.136719 0.067270 126 91 72
-0.019531 -0.136719 0.064760 123 88 69
-0.015625 -0.136719 0.062181 119 84 66
-0.011719 -0.136719 0.059249 116 81 63
-0.007812 -0.136719 0.055627 115 80 62
-0.003906 -0.136719 0.051955 112 79 61
0.000000 -0.136719 0.048361 108 77 59
0.003906 -0.136719 0.044084 108 76 58
0.007812 -0.136719 0.038898 109 76 59
0.011719 -0.136719 0.032970 104 73 55
0.015625 -0.136719 0.026122 101 71 53
0.019531 -0.136719 0.019780 102 70 54
0.023438 -0.136719 0.009847 115 83 70
0.089844 -0.136719 0.001368 86 67 55
0.093750 -0.136719 0.039309 139 100 76
0.097656 -0.136719 0.048791 179 132 102
0.101562 -0.136719 0.055133 196 148 115
0.105469 -0.136719 0.059477 205 160 125
0.109375 -0.136719 0.062912 216 172 138
0.113281 -0.136719 0.065764 226 182 149
0.117188 -0.136719 0.068122 231 186 153
0.121094 -0.136719 0.070235 234 189 157
0.125000 -0.136719 0.072474 235 192 160
0.128906 -0.136719 0.074697 236 193 161
0.132812 -0.136719 0.076780 237 195 163
0.136719 -0.136719 0.079019 238 196 164
0.140625 -0.136719 0.081393 237 195 163
0.144531 -0.136719 0.083724 237 194 162
0.148438 -0.136719 0.085953 236 193 160
0.152344 -0.136719 0.088221 235 192 159
0.156250 -0.136719 0.090499 235 192 161
0.160156 -0.136719 0.092722 235 192 162
0.164062 -0.136719 0.094900 235 191 161
0.167969 -0.136719 0.096955 235 192 163
0.171875 -0.136719 0.098788 236 193 165
0.175781 -0.136719 0.100376 237 194 167
0.179688 -0.136719 0.101678 237 194 167
0.183594 -0.136719 0.102749 236 194 167
0.187500 -0.136719 0.103654 236 194 168
0.191406 -0.136719 0.104273 235 192 166
0.195312 -0.136719 0.104588 233 190 163
0.199219 -0.136719 0.104741 233 189 161
0.203125 -0.136719 0.104791 231 186 158
0.207031 -0.136719 0.104660 228 182 153
0.210938 -0.136719 0.104342 227 181 151
0.214844 -0.136719 0.103944 225 179 149
0.218750 -0.136719 0.103543 222 174 144
0.222656 -0.136719 0.102922 219 172 142
0.226562 -0.136719 0.101888 213 166 138
0.230469 -0.136719 0.100592 205 157 129
0.234375 -0.136719 0.099153 197 149 122
0.238281 -0.136719 0.097224 190 141 115
0.242188 -0.136719 0.094511 183 134 110
0.246094 -0.136719 0.091236 174 125 102
0.250000 -0.136719 0.087422 165 118 94
0.253906 -0.136719 0.083465 154 110 86
0.257812 -0.136719 0.078198 142 101 77
0.261719 -0.136719 0.071006 135 98 80
0.265625 -0.136719 0.062036 111 82 76
0.269531 -0.136719 0.049804 54 40 38
-0.144531 -0.140625 0.006953 164 133 116
-0.140625 -0.140625 0.018195 188 153 126
-0.136719 -0.140625 0.027403 194 156 125
-0.132812 -0.140625 0.035253 200 156 124
-0.128906 -0.140625 0.041359 206 161 130
-0.125000 -0.140625 0.046618 212 164 133
-0.121094 -0.140625 0.051293 217 166 135
-0.117188 -0.140625 0.055373 222 170 139
-0.113281 -0.140625 0.059191 226 174 143
-0.109375 -0.140625 0.062744 230 178 147
-0.105469 -0.140625 0.065807 232 180 149
-0.101562 -0.140625 0.068216 232 178 147
-0.097656 -0.140625 0.070384 233 180 149
-0.093750 -0.140625 0.072381 233 181 151
-0.089844 -0.140625 0.074115 231 177 147
-0.085938 -0.140625 0.075725 229 174 145
-0.082031 -0.140625 0.077073 226 171 144
-0.078125 -0.140625 0.078135 220 165 139
-0.074219 -0.140625 0.078946 215 162 136
-0.070312 -0.140625 0.079437 207 156 131
-0.066406 -0.140625 0.079669 196 148 122
-0.062500 -0.140625 0.079714 185 140 114
-0.058594 -0.140625 0.079431 177 134 108
-0.054688 -0.140625 0.078692 169 127 102
-0.050781 -0.140625 0.077768 163 120 97
-0.046875 -0.140625 0.076767 157 115 93
-0.042969 -0.140625 0.075487 150 109 88
-0.039062 -0.140625 0.073910 144 104 84
-0.035156 -0.140625 0.072244 139 100 80
-0.031250 -0.140625 0.070554 136 98 79
-0.027344 -0.140625 0.068578 134 98 78
-0.023438 -0.140625 0.066198 130 94 75
-0.019531 -0.140625 0.063588 125 90 72
-0.015625 -0.140625 0.060946 122 87 69
-0.011719 -0.140625 0.057961 120 85 68
-0.007812 -0.140625 0.054249 118 83 66
-0.003906 -0.140625 0.050491 115 81 64
0.000000 -0.140625 0.046790 111 78 61
0.003906 -0.140625 0.042529 108 76 60
0.007812 -0.140625 0.037436 108 75 59
0.011719 -0.140625 0.031558 104 73 57
0.015625 -0.140625 0.024454 101 71 56
0.019531 -0.140625 0.017804 99 70 55
0.023438 -0.140625 0.008610 124 95 75
0.093750 -0.140625 0.033815 127 94 81
0.097656 -0.140625 0.045034 167 123 97
0.101562 -0.140625 0.052509 194 149 115
0.105469 -0.140625 0.057457 203 160 123
0.109375 -0.140625 0.061273 212 167 132
0.113281 -0.140625 0.064491 224 180 146
0.117188 -0.140625 0.067243 230 185 152
0.121094 -0.140625 0.069563 233 189 156
0.125000 -0.140625 0.071968 236 192 160
0.128906 -0.140625 0.074348 236 193 161
0.132812 -0.140625 0.076580 237 195 163
0.136719 -0.140625 0.078957 238 196 165
0.140625 -0.140625 0.081465 237 195 163
0.144531 -0.140625 0.083911 237 194 162
0.148438 -0.140625 0.086220 236 192 160
0.152344 -0.140625 0.088565 235 191 159
0.156250 -0.140625 0.090932 235 192 161
0.160156 -0.140625 0.093239 235 192 162
0.164062 -0.140625 0.095502 235 191 162
0.167969 -0.140625 0.097658 235 192 163
0.171875 -0.140625 0.099596 236 193 165
0.175781 -0.140625 0.101283 237 194 167
0.179688 -0.140625 0.102675 237 194 167
0.183594 -0.140625 0.103821 237 194 168
0.187500 -0.140625 0.104786 237 195 169
0.191406 -0.140625 0.105453 235 193 166
0.195312 -0.140625 0.105809 234 190 163
0.199219 -0.140625 0.105997 233 189 161
0.203125 -0.140625 0.106077 231 186 159
0.207031 -0.140625 0.105977 229 183 154
0.210938 -0.140625 0.105689 228 182 152
0.214844 -0.140625 0.105318 226 179 149
0.218750 -0.140625 0.104930 223 175 145
0.222656 -0.140625 0.104323 221 174 144
0.226562 -0.140625 0.103333 216 169 140
0.230469 -0.140625 0.102088 207 159 131
0.234375 -0.140625 0.100699 199 151 124
0.238281 -0.140625 0.098836 193 144 118
0.242188 -0.140625 0.096231 185 136 111
0.246094 -0.140625 0.093084 175 126 103
0.250000 -0.140625 0.089491 167 120 96
0.253906 -0.140625 0.085603 155 111 88
0.257812 -0.140625 0.080238 142 101 79
0.261719 -0.140625 0.073460 137 98 81
0.265625 -0.140625 0.066575 127 97 84
0.269531 -0.140625 0.054651 119 98 84
-0.140625 -0.144531 0.013840 188 161 135
-0.136719 -0.144531 0.023608 189 155 124
-0.132812 -0.144531 0.032008 195 153 122
-0.128906 -0.144531 0.038733 204 161 130
-0.125000 -0.144531 0.044136 210 164 133
-0.121094 -0.144531 0.048766 215 165 134
-0.117188 -0.144531 0.052952 219 167 136
-0.113281 -0.144531 0.056871 224 171 139
-0.109375 -0.144531 0.060564 228 176 145
-0.105469 -0.144531 0.063754 230 178 147
-0.101562 -0.144531 0.066250 231 178 147
-0.097656 -0.144531 0.068523 232 179 149
-0.093750 -0.144531 0.070623 232 180 150
-0.089844 -0.144531 0.072432 231 177 148
-0.085938 -0.144531 0.074101 229 176 147
-0.082031 -0.144531 0.075494 226 171 143
-0.078125 -0.144531 0.076600 219 164 136
-0.074219 -0.144531 0.077458 213 159 133
-0.070312 -0.144531 0.078014 207 155 129
-0.066406 -0.144531 0.078320 197 149 123
-0.062500 -0.144531 0.078432 190 144 118
-0.058594 -0.144531 0.078200 183 139 113
-0.054688 -0.144531 0.077503 176 133 108
-0.050781 -0.144531 0.076614 171 127 103
-0.046875 -0.144531 0.075648 164 121 98
-0.042969 -0.144531 0.074392 156 114 92
-0.039062 -0.144531 0.072818 151 110 88
-0.035156 -0.144531 0.071174 151 110 89
-0.031250 -0.144531 0.069472 150 110 89
-0.027344 -0.144531 0.067454 145 107 86
-0.023438 -0.144531 0.065046 137 100 81
-0.019531 -0.144531 0.062442 131 95 76
-0.015625 -0.144531 0.059819 129 93 74
-0.011719 -0.144531 0.056805 127 91 73
-0.007812 -0.144531 0.053050 125 90 71
-0.003906 -0.144531 0.049215 122 88 69
0.000000 -0.144531 0.045444 118 84 66
0.003906 -0.144531 0.041166 113 80 62
0.007812 -0.144531 0.036017 112 80 62
0.011719 -0.144531 0.030091 110 78 62
0.015625 -0.144531 0.022994 108 77 60
0.019531 -0.144531 0.015469 100 72 55
0.023438 -0.144531 0.006515 118 93 69
0.093750 -0.144531 0.030254 144 120 116
0.097656 -0.144531 0.040831 162 125 104
0.101562 -0.144531 0.048449 188 144 110
0.105469 -0.144531 0.055255 205 162 124
0.109375 -0.144531 0.059843 211 166 130
0.113281 -0.144531 0.063230 222 178 143
0.117188 -0.144531 0.066140 228 183 150
0.121094 -0.144531 0.068713 233 188 155
0.125000 -0.144531 0.071339 236 193 161
0.128906 -0.144531 0.073887 236 193 161
0.132812 -0.144531 0.076287 237 194 162
0.136719 -0.144531 0.078816 237 195 163
0.140625 -0.144531 0.081476 237 195 163
0.144531 -0.144531 0.084052 237 194 162
0.148438 -0.144531 0.086447 236 193 161
0.152344 -0.144531 0.088866 235 192 161
0.156250 -0.144531 0.091315 235 192 161
0.160156 -0.144531 0.093711 235 192 162
0.164062 -0.144531 0.096068 235 192 163
0.167969 -0.144531 0.098318 235 193 164
0.171875 -0.144531 0.100349 236 193 165
0.175781 -0.144531 0.102133 236 194 167
0.179688 -0.144531 0.103618 237 194 168
0.183594 -0.144531 0.104844 236 194 168
0.187500 -0.144531 0.105874 236 194 168
0.191406 -0.144531 0.106600 235 192 165
0.195312 -0.144531 0.107014 234 190 163
0.199219 -0.144531 0.107251 233 190 162
0.203125 -0.144531 0.107370 233 188 161
0.207031 -0.144531 0.107297 231 185 157
0.210938 -0.144531 0.107028 229 182 153
0.214844 -0.144531 0.106675 227 179 149
0.218750 -0.144531 0.106307 224 176 145
0.222656 -0.144531 0.105722 222 174 144
0.226562 -0.144531 0.104774 218 170 140
0.230469 -0.144531 0.103575 209 160 132
0.234375 -0.144531 0.102233 201 152 125
0.238281 -0.144531 0.100441 195 146 120
0.242188 -0.144531 0.097939 186 137 113
0.246094 -0.144531 0.094899 175 126 103
0.250000 -0.144531 0.091391 168 121 97
0.253906 -0.144531 0.087468 157 113 90
0.257812 -0.144531 0.082424 145 103 80
0.261719 -0.144531 0.076535 141 100 81
0.265625 -0.144531 0.069521 140 105 88
0.269531 -0.144531 0.060059 153 126 108
0.273438 -0.144531 0.050007 25 15 19
-0.140625 -0.148438 0.006518 160 128 116
-0.136719 -0.148438 0.019829 185 151 121
-0.132812 -0.148438 0.029077 194 152 122
-0.128906 -0.148438 0.036075 206 164 135
-0.125000 -0.148438 0.041596 209 164 134
-0.121094 -0.148438 0.046330 213 164 134
-0.117188 -0.148438 0.050638 216 164 133
-0.113281 -0.148438 0.054636 220 167 136
-0.109375 -0.148438 0.058465 226 174 143
-0.105469 -0.148438 0.061808 229 177 147
-0.101562 -0.148438 0.064379 231 178 148
-0.097656 -0.148438 0.066750 232 179 149
-0.093750 -0.148438 0.068968 232 180 150
-0.089844 -0.148438 0.070868 231 179 149
-0.085938 -0.148438 0.072591 229 177 148
-0.082031 -0.148438 0.074038 226 173 144
-0.078125 -0.148438 0.075211 220 166 137
-0.074219 -0.148438 0.076132 214 161 133
-0.070312 -0.148438 0.076737 205 154 127
-0.066406 -0.148438 0.077082 197 148 121
-0.062500 -0.148438 0.077225 192 147 120
-0.058594 -0.148438 0.077018 187 143 117
-0.054688 -0.148438 0.076332 179 135 111
-0.050781 -0.148438 0.075439 172 128 104
-0.046875 -0.148438 0.074477 165 121 99
-0.042969 -0.148438 0.073225 158 115 93
-0.039062 -0.148438 0.071650 155 113 91
-0.035156 -0.148438 0.070025 154 113 92
-0.031250 -0.148438 0.068357 153 112 91
-0.027344 -0.148438 0.066394 148 109 88
-0.023438 -0.148438 0.064036 141 103 83
-0.019531 -0.148438 0.061476 135 98 79
-0.015625 -0.148438 0.058890 130 94 75
-0.011719 -0.148438 0.055877 129 93 74
-0.007812 -0.148438 0.052100 128 92 73
-0.003906 -0.148438 0.048205 126 91 71
0.000000 -0.148438 0.044354 121 86 67
0.003906 -0.148438 0.039978 115 82 62
0.007812 -0.148438 0.034751 114 81 62
0.011719 -0.148438 0.028697 112 80 62
0.015625 -0.148438 0.021572 111 78 61
0.019531 -0.148438 0.013871 104 74 57
0.023438 -0.148438 0.004906 119 92 69
0.093750 -0.148438 0.027524 184 172 171
0.097656 -0.148438 0.038352 190 164 140
0.101562 -0.148438 0.045225 177 134 102
0.105469 -0.148438 0.052817 203 160 124
0.109375 -0.148438 0.058177 213 168 133
0.113281 -0.148438 0.061758 220 177 142
0.117188 -0.148438 0.064762 225 181 148
0.121094 -0.148438 0.067648 231 187 154
0.125000 -0.148438 0.070554 235 193 161
0.128906 -0.148438 0.073313 236 193 161
0.132812 -0.148438 0.075906 237 194 161
0.136719 -0.148438 0.078612 237 194 162
0.140625 -0.148438 0.081431 237 194 163
0.144531 -0.148438 0.084137 237 195 163
0.148438 -0.148438 0.086617 237 195 163
0.152344 -0.148438 0.089105 236 194 162
0.156250 -0.148438 0.091630 235 192 161
0.160156 -0.148438 0.094112 235 192 162
0.164062 -0.148438 0.096551 235 193 164
0.167969 -0.148438 0.098883 235 193 165
0.171875 -0.148438 0.101001 235 193 165
0.175781 -0.148438 0.102880 236 195 168
0.179688 -0.148438 0.104460 237 195 169
0.183594 -0.148438 0.105772 236 194 168
0.187500 -0.148438 0.106882 236 193 167
0.191406 -0.148438 0.107685 235 192 165
0.195312 -0.148438 0.108171 235 191 164
0.199219 -0.148438 0.108469 234 191 164
0.203125 -0.148438 0.108630 234 190 163
0.207031 -0.148438 0.108589 232 187 159
0.210938 -0.148438 0.108350 230 184 155
0.214844 -0.148438 0.108027 228 180 151
0.218750 -0.148438 0.107677 226 178 148
0.222656 -0.148438 0.107106 224 176 146
0.226562 -0.148438 0.106187 220 171 142
0.230469 -0.148438 0.105019 211 162 133
0.234375 -0.148438 0.103708 203 154 126
0.238281 -0.148438 0.101980 197 148 121
0.242188 -0.148438 0.099601 189 140 116
0.246094 -0.148438 0.096710 176 128 105
0.250000 -0.148438 0.093328 168 121 97
0.253906 -0.148438 0.089419 157 113 90
0.257812 -0.148438 0.084463 143 101 79
0.261719 -0.148438 0.079199 143 102 82
0.265625 -0.148438 0.071723 145 106 87
0.269531 -0.148438 0.063641 139 108 89
0.273438 -0.148438 0.053039 29 18 21
-0.136719 -0.152344 0.016110 199 168 140
-0.132812 -0.152344 0.026317 190 148 120
-0.128906 -0.152344 0.033320 203 162 132
-0.125000 -0.152344 0.038972 205 161 132
-0.121094 -0.152344 0.043875 209 162 132
-0.117188 -0.152344 0.048288 212 161 130
-0.113281 -0.152344 0.052422 216 163 132
-0.109375 -0.152344 0.056388 224 172 141
-0.105469 -0.152344 0.059881 228 177 146
-0.101562 -0.152344 0.062516 230 177 148
-0.097656 -0.152344 0.064966 231 178 148
-0.093750 -0.152344 0.067290 231 179 149
-0.089844 -0.152344 0.069273 231 179 150
-0.085938 -0.152344 0.071040 229 176 147
-0.082031 -0.152344 0.072536 225 172 143
-0.078125 -0.152344 0.073793 221 168 139
-0.074219 -0.152344 0.074789 216 165 137
-0.070312 -0.152344 0.075428 207 156 130
-0.066406 -0.152344 0.075778 196 147 121
-0.062500 -0.152344 0.075924 191 145 119
-0.058594 -0.152344 0.075731 186 141 116
-0.054688 -0.152344 0.075071 178 133 109
-0.050781 -0.152344 0.074214 173 128 105
-0.046875 -0.152344 0.073287 168 124 101
-0.042969 -0.152344 0.072066 162 118 96
-0.039062 -0.152344 0.070515 157 114 92
-0.035156 -0.152344 0.068912 154 112 90
-0.031250 -0.152344 0.067279 151 111 89
-0.027344 -0.152344 0.065364 148 109 88
-0.023438 -0.152344 0.063037 144 105 85
-0.019531 -0.152344 0.060485 138 100 80
-0.015625 -0.152344 0.057905 132 96 76
-0.011719 -0.152344 0.054871 129 93 74
-0.007812 -0.152344 0.051043 127 91 72
-0.003906 -0.152344 0.047071 124 88 68
0.000000 -0.152344 0.043119 119 84 64
0.003906 -0.152344 0.038669 114 80 60
0.007812 -0.152344 0.033386 113 80 60
0.011719 -0.152344 0.027241 113 80 61
0.015625 -0.152344 0.020102 112 79 61
0.019531 -0.152344 0.012512 106 76 58
0.023438 -0.152344 0.003687 121 92 69
0.097656 -0.152344 0.032996 209 193 168
0.101562 -0.152344 0.041835 173 137 105
0.105469 -0.152344 0.049922 202 159 127
0.109375 -0.152344 0.056250 214 170 136
0.113281 -0.152344 0.060160 216 173 139
0.117188 -0.152344 0.063263 221 178 145
0.121094 -0.152344 0.066488 229 186 153
0.125000 -0.152344 0.069715 234 191 159
0.128906 -0.152344 0.072672 235 192 160
0.132812 -0.152344 0.075440 237 194 162
0.136719 -0.152344 0.078329 237 194 162
0.140625 -0.152344 0.081313 237 194 162
0.144531 -0.152344 0.084163 237 195 164
0.148438 -0.152344 0.086736 237 196 164
0.152344 -0.152344 0.089295 236 194 163
0.156250 -0.152344 0.091901 235 192 161
0.160156 -0.152344 0.094468 235 193 163
0.164062 -0.152344 0.096975 235 194 165
0.167969 -0.152344 0.099370 235 194 166
0.171875 -0.152344 0.101562 235 193 166
0.175781 -0.152344 0.103532 236 195 168
0.179688 -0.152344 0.105207 236 195 168
0.183594 -0.152344 0.106613 236 193 167
0.187500 -0.152344 0.107816 235 192 166
0.191406 -0.152344 0.108712 235 192 166
0.195312 -0.152344 0.109277 235 192 166
0.199219 -0.152344 0.109635 235 192 165
0.203125 -0.152344 0.109833 234 190 163
0.207031 -0.152344 0.109821 233 187 159
0.210938 -0.152344 0.109636 231 185 156
0.214844 -0.152344 0.109360 230 183 154
0.218750 -0.152344 0.109023 228 181 151
0.222656 -0.152344 0.108458 225 178 148
0.226562 -0.152344 0.107562 221 173 143
0.230469 -0.152344 0.106426 213 164 135
0.234375 -0.152344 0.105142 205 155 127
0.238281 -0.152344 0.103474 198 148 122
0.242188 -0.152344 0.101222 191 143 118
0.246094 -0.152344 0.098485 179 131 107
0.250000 -0.152344 0.095293 168 121 98
0.253906 -0.152344 0.091523 158 114 91
0.257812 -0.152344 0.086501 144 102 80
0.261719 -0.152344 0.081333 143 103 82
0.265625 -0.152344 0.074386 138 102 81
0.269531 -0.152344 0.067662 118 92 73
0.273438 -0.152344 0.057462 48 35 36
-0.136719 -0.156250 0.011359 202 178 150
-0.132812 -0.156250 0.022509 186 145 117
-0.128906 -0.156250 0.030331 197 156 125
-0.125000 -0.156250 0.036284 200 158 127
-0.121094 -0.156250 0.041320 205 160 129
-0.117188 -0.156250 0.045867 209 160 129
-0.113281 -0.156250 0.050201 214 162 131
-0.109375 -0.156250 0.054366 221 170 140
-0.105469 -0.156250 0.057991 226 175 144
-0.101562 -0.156250 0.060715 228 176 146
-0.097656 -0.156250 0.063271 230 176 147
-0.093750 -0.156250 0.065706 230 177 148
-0.089844 -0.156250 0.067776 231 178 149
-0.085938 -0.156250 0.069606 228 175 146
-0.082031 -0.156250 0.071171 224 171 142
-0.078125 -0.156250 0.072508 221 169 141
-0.074219 -0.156250 0.073553 218 168 141
-0.070312 -0.156250 0.074215 210 160 134
-0.066406 -0.156250 0.074581 199 150 124
-0.062500 -0.156250 0.074732 192 144 120
-0.058594 -0.156250 0.074560 185 139 116
-0.054688 -0.156250 0.073950 180 134 111
-0.050781 -0.156250 0.073146 177 132 109
-0.046875 -0.156250 0.072258 173 127 105
-0.042969 -0.156250 0.071083 165 120 98
-0.039062 -0.156250 0.069576 156 112 91
-0.035156 -0.156250 0.068012 152 110 88
-0.031250 -0.156250 0.066425 151 110 89
-0.027344 -0.156250 0.064553 151 110 89
-0.023438 -0.156250 0.062245 149 108 88
-0.019531 -0.156250 0.059697 142 103 83
-0.015625 -0.156250 0.057110 137 98 79
-0.011719 -0.156250 0.054043 133 96 76
-0.007812 -0.156250 0.050154 129 92 72
-0.003906 -0.156250 0.046087 124 88 68
0.000000 -0.156250 0.042013 119 84 64
0.003906 -0.156250 0.037461 115 81 60
0.007812 -0.156250 0.032109 115 81 60
0.011719 -0.156250 0.025914 115 81 61
0.015625 -0.156250 0.018755 114 80 61
0.019531 -0.156250 0.011227 109 78 58
0.023438 -0.156250 0.002711 120 90 66
0.097656 -0.156250 0.023605 136 125 104
0.101562 -0.156250 0.037181 160 131 102
0.105469 -0.156250 0.046377 203 161 130
0.109375 -0.156250 0.053869 216 173 140
0.113281 -0.156250 0.058256 214 172 137
0.117188 -0.156250 0.061544 217 174 141
0.121094 -0.156250 0.065091 226 184 152
0.125000 -0.156250 0.068763 231 188 156
0.128906 -0.156250 0.071922 234 191 158
0.132812 -0.156250 0.074875 236 194 162
0.136719 -0.156250 0.077965 237 194 163
0.140625 -0.156250 0.081147 237 195 163
0.144531 -0.156250 0.084166 237 196 164
0.148438 -0.156250 0.086851 237 196 165
0.152344 -0.156250 0.089499 236 194 163
0.156250 -0.156250 0.092185 235 193 162
0.160156 -0.156250 0.094817 235 193 164
0.164062 -0.156250 0.097373 235 194 166
0.167969 -0.156250 0.099817 235 194 166
0.171875 -0.156250 0.102073 235 194 166
0.175781 -0.156250 0.104118 236 195 168
0.179688 -0.156250 0.105879 236 195 169
0.183594 -0.156250 0.107374 236 194 167
0.187500 -0.156250 0.108667 236 193 167
0.191406 -0.156250 0.109651 236 194 167
0.195312 -0.156250 0.110293 236 193 167
0.199219 -0.156250 0.110709 235 191 165
0.203125 -0.156250 0.110950 234 188 161
0.207031 -0.156250 0.110986 233 185 158
0.210938 -0.156250 0.110866 232 186 157
0.214844 -0.156250 0.110643 231 185 156
0.218750 -0.156250 0.110325 229 182 152
0.222656 -0.156250 0.109770 225 177 147
0.226562 -0.156250 0.108905 221 172 142
0.230469 -0.156250 0.107806 214 165 136
0.234375 -0.156250 0.106555 206 156 128
0.238281 -0.156250 0.104949 199 149 123
0.242188 -0.156250 0.102829 194 145 120
0.246094 -0.156250 0.100254 181 133 109
0.250000 -0.156250 0.097198 168 122 98
0.253906 -0.156250 0.093503 158 113 91
0.257812 -0.156250 0.088622 145 103 81
0.261719 -0.156250 0.083417 140 101 80
0.265625 -0.156250 0.077088 129 96 76
0.269531 -0.156250 0.070868 130 103 83
0.273438 -0.156250 0.062067 138 115 101
-0.136719 -0.160156 0.007270 154 123 106
-0.132812 -0.160156 0.018880 178 138 112
-0.128906 -0.160156 0.027103 190 149 119
-0.125000 -0.160156 0.033157 196 154 124
-0.121094 -0.160156 0.038551 201 158 128
-0.117188 -0.160156 0.043402 206 159 129
-0.113281 -0.160156 0.047949 212 162 132
-0.109375 -0.160156 0.052316 218 168 138
-0.105469 -0.160156 0.056048 223 171 141
-0.101562 -0.160156 0.058870 227 173 144
-0.097656 -0.160156 0.061561 229 175 145
-0.093750 -0.160156 0.064119 229 176 147
-0.089844 -0.160156 0.066283 230 177 148
-0.085938 -0.160156 0.068187 228 175 146
-0.082031 -0.160156 0.069816 225 172 143
-0.078125 -0.160156 0.071208 221 169 141
-0.074219 -0.160156 0.072271 216 164 137
-0.070312 -0.160156 0.072955 209 157 132
-0.066406 -0.160156 0.073362 200 150 125
-0.062500 -0.160156 0.073543 193 145 121
-0.058594 -0.160156 0.073407 188 142 118
-0.054688 -0.160156 0.072837 184 139 116
-0.050781 -0.160156 0.072051 179 133 111
-0.046875 -0.160156 0.071189 172 127 105
-0.042969 -0.160156 0.070060 165 120 98
-0.039062 -0.160156 0.068608 157 113 92
-0.035156 -0.160156 0.067083 154 111 90
-0.031250 -0.160156 0.065531 153 111 90
-0.027344 -0.160156 0.063681 152 110 89
-0.023438 -0.160156 0.061389 151 110 88
-0.019531 -0.160156 0.058860 145 105 84
-0.015625 -0.160156 0.056274 140 100 80
-0.011719 -0.160156 0.053184 137 99 78
-0.007812 -0.160156 0.049258 133 95 75
-0.003906 -0.160156 0.045130 127 91 70
0.000000 -0.160156 0.040953 123 87 66
0.003906 -0.160156 0.036299 119 84 63
0.007812 -0.160156 0.030878 119 84 62
0.011719 -0.160156 0.024674 117 82 62
0.015625 -0.160156 0.017550 115 81 62
0.019531 -0.160156 0.010008 113 80 60
0.023438 -0.160156 0.001697 122 91 66
0.101562 -0.160156 0.033994 176 155 132
0.105469 -0.160156 0.042922 194 151 124
0.109375 -0.160156 0.050024 212 166 134
0.113281 -0.160156 0.056133 216 175 140
0.117188 -0.160156 0.060143 217 175 142
0.121094 -0.160156 0.063863 224 182 151
0.125000 -0.160156 0.067731 228 186 154
0.128906 -0.160156 0.071072 233 190 158
0.132812 -0.160156 0.074259 236 194 163
0.136719 -0.160156 0.077574 237 195 164
0.140625 -0.160156 0.080976 237 196 164
0.144531 -0.160156 0.084171 237 197 166
0.148438 -0.160156 0.086965 237 198 167
0.152344 -0.160156 0.089694 236 196 165
0.156250 -0.160156 0.092442 235 194 164
0.160156 -0.160156 0.095110 235 194 165
0.164062 -0.160156 0.097694 235 194 165
0.167969 -0.160156 0.100179 235 193 166
0.171875 -0.160156 0.102500 235 194 167
0.175781 -0.160156 0.104621 236 196 170
0.179688 -0.160156 0.106463 237 197 171
0.183594 -0.160156 0.108043 236 195 169
0.187500 -0.160156 0.109420 236 195 168
0.191406 -0.160156 0.110488 236 195 169
0.195312 -0.160156 0.111208 236 194 168
0.199219 -0.160156 0.111689 235 192 165
0.203125 -0.160156 0.111992 234 188 161
0.207031 -0.160156 0.112093 232 185 157
0.210938 -0.160156 0.112038 232 185 157
0.214844 -0.160156 0.111868 232 185 157
0.218750 -0.160156 0.111580 229 181 152
0.222656 -0.160156 0.111048 225 175 146
0.226562 -0.160156 0.110218 221 171 141
0.230469 -0.160156 0.109160 215 166 137
0.234375 -0.160156 0.107951 207 157 129
0.238281 -0.160156 0.106406 200 150 124
0.242188 -0.160156 0.104390 195 147 122
0.246094 -0.160156 0.101950 184 135 111
0.250000 -0.160156 0.099078 170 123 100
0.253906 -0.160156 0.095528 159 114 91
0.257812 -0.160156 0.090758 148 105 83
0.261719 -0.160156 0.085447 140 100 79
0.265625 -0.160156 0.079736 130 96 76
0.269531 -0.160156 0.073418 137 106 87
0.273438 -0.160156 0.065071 152 128 110
0.277344 -0.160156 0.052360 41 36 39
-0.136719 -0.164062 0.002949 167 142 126
-0.132812 -0.164062 0.015878 190 158 134
-0.128906 -0.164062 0.024052 183 142 114
-0.125000 -0.164062 0.030275 190 148 120
-0.121094 -0.164062 0.035762 195 154 126
-0.117188 -0.164062 0.040838 202 157 128
-0.113281 -0.164062 0.045569 209 161 132
-0.109375 -0.164062 0.050181 215 165 136
-0.105469 -0.164062 0.054070 221 168 139
-0.101562 -0.164062 0.057011 225 171 142
-0.097656 -0.164062 0.059838 227 173 144
-0.093750 -0.164062 0.062534 228 175 146
-0.089844 -0.164062 0.064804 229 177 147
-0.085938 -0.164062 0.066772 227 175 146
-0.082031 -0.164062 0.068449 225 173 144
-0.078125 -0.164062 0.069896 221 168 140
-0.074219 -0.164062 0.070991 214 161 134
-0.070312 -0.164062 0.071697 207 154 129
-0.066406 -0.164062 0.072132 200 150 125
-0.062500 -0.164062 0.072331 194 146 122
-0.058594 -0.164062 0.072221 190 143 120
-0.054688 -0.164062 0.071689 186 140 118
-0.050781 -0.164062 0.070952 180 135 112
-0.046875 -0.164062 0.070149 174 129 107
-0.042969 -0.164062 0.069080 169 124 102
-0.039062 -0.164062 0.067686 164 120 98
-0.035156 -0.164062 0.066215 163 120 97
-0.031250 -0.164062 0.064707 160 117 94
-0.027344 -0.164062 0.062872 154 112 90
-0.023438 -0.164062 0.060584 152 111 89
-0.019531 -0.164062 0.058055 146 105 84
-0.015625 -0.164062 0.055449 140 100 79
-0.011719 -0.164062 0.052326 138 99 78
-0.007812 -0.164062 0.048361 134 96 75
-0.003906 -0.164062 0.044180 129 93 72
0.000000 -0.164062 0.039921 126 90 69
0.003906 -0.164062 0.035194 121 86 65
0.007812 -0.164062 0.029721 120 84 64
0.011719 -0.164062 0.023522 117 82 62
0.015625 -0.164062 0.016507 114 80 62
0.019531 -0.164062 0.009020 113 79 60
0.023438 -0.164062 0.000900 121 90 65
0.101562 -0.164062 0.028575 231 224 215
0.105469 -0.164062 0.041025 197 162 133
0.109375 -0.164062 0.047440 193 145 112
0.113281 -0.164062 0.054079 213 170 137
0.117188 -0.164062 0.058687 217 176 143
0.121094 -0.164062 0.062548 220 180 149
0.125000 -0.164062 0.066513 226 185 154
0.128906 -0.164062 0.070080 232 191 159
0.132812 -0.164062 0.073536 236 195 164
0.136719 -0.164062 0.077096 237 196 166
0.140625 -0.164062 0.080726 237 197 166
0.144531 -0.164062 0.084107 237 198 168
0.148438 -0.164062 0.087020 237 198 169
0.152344 -0.164062 0.089845 236 196 167
0.156250 -0.164062 0.092669 235 195 166
0.160156 -0.164062 0.095381 235 194 166
0.164062 -0.164062 0.097989 234 194 166
0.167969 -0.164062 0.100507 234 193 166
0.171875 -0.164062 0.102885 235 194 167
0.175781 -0.164062 0.105069 236 196 170
0.179688 -0.164062 0.106983 237 197 171
0.183594 -0.164062 0.108641 236 196 170
0.187500 -0.164062 0.110083 236 194 168
0.191406 -0.164062 0.111222 236 195 168
0.195312 -0.164062 0.112027 236 195 169
0.199219 -0.164062 0.112592 236 193 167
0.203125 -0.164062 0.112976 235 190 163
0.207031 -0.164062 0.113151 233 186 159
0.210938 -0.164062 0.113160 233 186 158
0.214844 -0.164062 0.113039 232 185 156
0.218750 -0.164062 0.112785 229 181 152
0.222656 -0.164062 0.112288 225 176 146
0.226562 -0.164062 0.111495 221 171 142
0.230469 -0.164062 0.110485 216 167 138
0.234375 -0.164062 0.109328 207 157 129
0.238281 -0.164062 0.107842 200 150 124
0.242188 -0.164062 0.105910 195 146 121
0.246094 -0.164062 0.103605 185 136 112
0.250000 -0.164062 0.100904 173 125 101
0.253906 -0.164062 0.097459 160 114 91
0.257812 -0.164062 0.092825 150 107 83
0.261719 -0.164062 0.087515 144 102 81
0.265625 -0.164062 0.081812 137 101 80
0.269531 -0.164062 0.075559 130 101 82
0.273438 -0.164062 0.067931 127 105 89
0.277344 -0.164062 0.057604 61 53 54
-0.132812 -0.167969 0.011822 203 180 158
-0.128906 -0.167969 0.020670 180 140 114
-0.125000 -0.167969 0.027286 188 146 118
-0.121094 -0.167969 0.032902 194 154 127
-0.117188 -0.167969 0.038245 198 155 127
-0.113281 -0.167969 0.043109 205 158 130
-0.109375 -0.167969 0.047908 212 163 134
-0.105469 -0.167969 0.051990 219 167 138
-0.101562 -0.167969 0.055095 222 169 140
-0.097656 -0.167969 0.058097 226 172 143
-0.093750 -0.167969 0.060960 228 175 146
-0.089844 -0.167969 0.063355 228 176 147
-0.085938 -0.167969 0.065393 226 174 144
-0.082031 -0.167969 0.067134 224 172 143
-0.078125 -0.167969 0.068658 221 170 141
-0.074219 -0.167969 0.069806 216 163 136
-0.070312 -0.167969 0.070528 209 157 132
-0.066406 -0.167969 0.070962 202 151 127
-0.062500 -0.167969 0.071158 194 144 120
-0.058594 -0.167969 0.071052 188 140 117
-0.054688 -0.167969 0.070563 183 137 115
-0.050781 -0.167969 0.069899 180 134 112
-0.046875 -0.167969 0.069158 177 132 110
-0.042969 -0.167969 0.068132 171 127 104
-0.039062 -0.167969 0.066778 167 123 101
-0.035156 -0.167969 0.065349 167 124 101
-0.031250 -0.167969 0.063889 163 120 97
-0.027344 -0.167969 0.062086 157 114 92
-0.023438 -0.167969 0.059812 154 112 90
-0.019531 -0.167969 0.057290 148 107 85
-0.015625 -0.167969 0.054683 141 101 79
-0.011719 -0.167969 0.051547 138 98 77
-0.007812 -0.167969 0.047556 133 95 74
-0.003906 -0.167969 0.043333 130 93 72
0.000000 -0.167969 0.039007 127 91 70
0.003906 -0.167969 0.034216 121 86 66
0.007812 -0.167969 0.028708 120 85 65
0.011719 -0.167969 0.022518 118 83 64
0.015625 -0.167969 0.015595 114 80 63
0.019531 -0.167969 0.008173 112 78 60
0.023438 -0.167969 0.000300 120 88 65
0.105469 -0.167969 0.033626 185 154 126
0.109375 -0.167969 0.044181 173 128 96
0.113281 -0.167969 0.051205 202 157 127
0.117188 -0.167969 0.056606 214 172 140
0.121094 -0.167969 0.060895 218 178 146
0.125000 -0.167969 0.065073 224 183 152
0.128906 -0.167969 0.068933 231 190 159
0.132812 -0.167969 0.072687 235 194 164
0.136719 -0.167969 0.076504 236 196 166
0.140625 -0.167969 0.080358 237 197 167
0.144531 -0.167969 0.083929 237 198 168
0.148438 -0.167969 0.086975 237 199 170
0.152344 -0.167969 0.089905 236 196 168
0.156250 -0.167969 0.092815 235 196 168
0.160156 -0.167969 0.095579 235 196 169
0.164062 -0.167969 0.098216 234 195 168
0.167969 -0.167969 0.100767 234 194 167
0.171875 -0.167969 0.103192 235 195 169
0.175781 -0.167969 0.105426 236 197 171
0.179688 -0.167969 0.107405 237 198 172
0.183594 -0.167969 0.109139 236 197 171
0.187500 -0.167969 0.110649 236 195 168
0.191406 -0.167969 0.111869 235 194 168
0.195312 -0.167969 0.112772 236 195 169
0.199219 -0.167969 0.113431 236 194 168
0.203125 -0.167969 0.113910 235 191 164
0.207031 -0.167969 0.114177 234 189 161
0.210938 -0.167969 0.114259 234 187 159
0.214844 -0.167969 0.114192 232 186 157
0.218750 -0.167969 0.113972 230 182 153
0.222656 -0.167969 0.113504 226 176 147
0.226562 -0.167969 0.112746 221 171 142
0.230469 -0.167969 0.111785 216 166 137
0.234375 -0.167969 0.110680 207 157 129
0.238281 -0.167969 0.109242 200 149 123
0.242188 -0.167969 0.107375 194 145 120
0.246094 -0.167969 0.105178 186 137 112
0.250000 -0.167969 0.102637 176 128 103
0.253906 -0.167969 0.099294 160 115 90
0.257812 -0.167969 0.094651 149 107 81
0.261719 -0.167969 0.089250 143 101 79
0.265625 -0.167969 0.083507 139 102 80
0.269531 -0.167969 0.077442 130 101 81
0.273438 -0.167969 0.070287 140 116 94
0.277344 -0.167969 0.060370 147 126 109
-0.132812 -0.171875 0.007013 178 148 139
-0.128906 -0.171875 0.016735 175 136 109
-0.125000 -0.171875 0.023963 185 142 115
-0.121094 -0.171875 0.029860 197 158 131
-0.117188 -0.171875 0.035535 197 156 128
-0.113281 -0.171875 0.040675 200 156 129
-0.109375 -0.171875 0.045600 208 160 132
-0.105469 -0.171875 0.049832 215 165 136
-0.101562 -0.171875 0.053131 220 168 140
-0.097656 -0.171875 0.056334 225 172 143
-0.093750 -0.171875 0.059367 227 175 146
-0.089844 -0.171875 0.061901 227 175 145
-0.085938 -0.171875 0.064028 224 172 142
-0.082031 -0.171875 0.065848 223 172 143
-0.078125 -0.171875 0.067437 221 170 142
-0.074219 -0.171875 0.068621 216 164 137
-0.070312 -0.171875 0.069355 209 158 132
-0.066406 -0.171875 0.069798 202 151 126
-0.062500 -0.171875 0.070011 193 143 119
-0.058594 -0.171875 0.069925 186 138 115
-0.054688 -0.171875 0.069476 181 135 113
-0.050781 -0.171875 0.068870 179 134 112
-0.046875 -0.171875 0.068169 176 132 110
-0.042969 -0.171875 0.067182 170 126 104
-0.039062 -0.171875 0.065867 167 123 100
-0.035156 -0.171875 0.064467 166 123 100
-0.031250 -0.171875 0.063039 160 118 95
-0.027344 -0.171875 0.061265 156 113 91
-0.023438 -0.171875 0.059016 155 113 90
-0.019531 -0.171875 0.056522 150 109 86
-0.015625 -0.171875 0.053927 143 102 81
-0.011719 -0.171875 0.050787 138 98 77
-0.007812 -0.171875 0.046780 132 94 73
-0.003906 -0.171875 0.042524 130 93 72
0.000000 -0.171875 0.038129 127 91 70
0.003906 -0.171875 0.033273 119 85 66
0.007812 -0.171875 0.027728 118 84 65
0.011719 -0.171875 0.021540 119 84 66
0.015625 -0.171875 0.014702 116 81 64
0.019531 -0.171875 0.007362 110 77 60
0.023438 -0.171875 -0.000356 120 88 65
0.105469 -0.171875 0.025272 125 101 89
0.109375 -0.171875 0.039406 173 133 103
0.113281 -0.171875 0.047937 195 152 120
0.117188 -0.171875 0.054388 210 167 135
0.121094 -0.171875 0.059072 216 177 145
0.125000 -0.171875 0.063429 223 183 152
0.128906 -0.171875 0.067586 231 190 159
0.132812 -0.171875 0.071687 234 193 163
0.136719 -0.171875 0.075773 236 196 166
0.140625 -0.171875 0.079850 236 196 166
0.144531 -0.171875 0.083603 236 196 167
0.148438 -0.171875 0.086783 236 198 169
0.152344 -0.171875 0.089829 235 196 168
0.156250 -0.171875 0.092838 235 197 170
0.160156 -0.171875 0.095670 235 197 170
0.164062 -0.171875 0.098355 234 195 169
0.167969 -0.171875 0.100949 234 196 169
0.171875 -0.171875 0.103422 235 197 170
0.175781 -0.171875 0.105709 236 197 171
0.179688 -0.171875 0.107753 237 198 172
0.183594 -0.171875 0.109568 237 198 171
0.187500 -0.171875 0.111170 236 196 169
0.191406 -0.171875 0.112486 236 196 169
0.195312 -0.171875 0.113484 237 197 171
0.199219 -0.171875 0.114237 236 195 169
0.203125 -0.171875 0.114819 236 193 166
0.207031 -0.171875 0.115181 235 191 163
0.210938 -0.171875 0.115330 234 189 161
0.214844 -0.171875 0.115309 233 186 158
0.218750 -0.171875 0.115122 231 183 154
0.222656 -0.171875 0.114687 227 177 148
0.226562 -0.171875 0.113969 222 172 143
0.230469 -0.171875 0.113058 217 167 138
0.234375 -0.171875 0.112008 208 158 131
0.238281 -0.171875 0.110617 201 151 125
0.242188 -0.171875 0.108793 195 146 121
0.246094 -0.171875 0.106670 187 138 113
0.250000 -0.171875 0.104263 179 131 105
0.253906 -0.171875 0.101022 162 117 92
0.257812 -0.171875 0.096401 150 108 83
0.261719 -0.171875 0.090959 143 101 79
0.265625 -0.171875 0.085298 136 99 78
0.269531 -0.171875 0.079378 134 103 82
0.273438 -0.171875 0.072038 133 112 88
0.277344 -0.171875 0.062829 132 112 94
-0.132812 -0.175781 0.002280 191 169 161
-0.128906 -0.175781 0.013183 186 151 121
-0.125000 -0.175781 0.020674 178 136 108
-0.121094 -0.175781 0.026936 196 157 131
-0.117188 -0.175781 0.032943 195 155 128
-0.113281 -0.175781 0.038364 196 153 126
-0.109375 -0.175781 0.043324 203 157 130
-0.105469 -0.175781 0.047655 212 163 136
-0.101562 -0.175781 0.051161 218 167 139
-0.097656 -0.175781 0.054561 222 170 141
-0.093750 -0.175781 0.057775 224 172 143
-0.089844 -0.175781 0.060489 225 173 144
-0.085938 -0.175781 0.062731 224 173 144
-0.082031 -0.175781 0.064627 223 172 143
-0.078125 -0.175781 0.066261 220 169 140
-0.074219 -0.175781 0.067463 214 162 135
-0.070312 -0.175781 0.068223 208 156 130
-0.066406 -0.175781 0.068699 202 152 127
-0.062500 -0.175781 0.068951 197 148 124
-0.058594 -0.175781 0.068892 190 143 119
-0.054688 -0.175781 0.068476 183 137 115
-0.050781 -0.175781 0.067907 180 135 113
-0.046875 -0.175781 0.067241 177 132 110
-0.042969 -0.175781 0.066302 170 125 103
-0.039062 -0.175781 0.065031 167 123 101
-0.035156 -0.175781 0.063657 166 123 100
-0.031250 -0.175781 0.062250 159 116 94
-0.027344 -0.175781 0.060495 154 112 90
-0.023438 -0.175781 0.058278 156 114 91
-0.019531 -0.175781 0.055820 154 112 89
-0.015625 -0.175781 0.053236 147 106 83
-0.011719 -0.175781 0.050092 140 100 78
-0.007812 -0.175781 0.046081 135 96 74
-0.003906 -0.175781 0.041798 132 95 73
0.000000 -0.175781 0.037321 128 92 71
0.003906 -0.175781 0.032381 120 86 66
0.007812 -0.175781 0.026774 119 85 66
0.011719 -0.175781 0.020561 120 85 67
0.015625 -0.175781 0.013803 117 82 66
0.019531 -0.175781 0.006555 109 76 60
0.023438 -0.175781 -0.001095 119 87 65
0.109375 -0.175781 0.035559 196 168 138
0.113281 -0.175781 0.045031 189 149 117
0.117188 -0.175781 0.051386 205 161 130
0.121094 -0.175781 0.057234 218 179 147
0.125000 -0.175781 0.061928 224 185 155
0.128906 -0.175781 0.066204 230 190 160
0.132812 -0.175781 0.070593 233 191 161
0.136719 -0.175781 0.074930 235 195 165
0.140625 -0.175781 0.079227 236 195 165
0.144531 -0.175781 0.083152 235 195 165
0.148438 -0.175781 0.086456 235 196 167
0.152344 -0.175781 0.089624 235 196 168
0.156250 -0.175781 0.092738 235 196 169
0.160156 -0.175781 0.095641 235 196 170
0.164062 -0.175781 0.098378 234 196 170
0.167969 -0.175781 0.101017 235 196 170
0.171875 -0.175781 0.103537 235 196 170
0.175781 -0.175781 0.105880 235 196 170
0.179688 -0.175781 0.108003 236 197 171
0.183594 -0.175781 0.109918 237 198 172
0.187500 -0.175781 0.111621 237 198 171
0.191406 -0.175781 0.113033 237 198 172
0.195312 -0.175781 0.114130 237 199 173
0.199219 -0.175781 0.114992 237 197 170
0.203125 -0.175781 0.115681 237 194 168
0.207031 -0.175781 0.116131 236 193 166
0.210938 -0.175781 0.116335 235 190 162
0.214844 -0.175781 0.116351 233 186 158
0.218750 -0.175781 0.116199 231 183 155
0.222656 -0.175781 0.115810 227 178 150
0.226562 -0.175781 0.115135 223 173 144
0.230469 -0.175781 0.114273 218 168 140
0.234375 -0.175781 0.113279 210 160 132
0.238281 -0.175781 0.111934 202 153 127
0.242188 -0.175781 0.110139 196 147 122
0.246094 -0.175781 0.108063 188 139 114
0.250000 -0.175781 0.105745 181 132 106
0.253906 -0.175781 0.102584 164 117 93
0.257812 -0.175781 0.098031 151 108 87
0.261719 -0.175781 0.092614 145 105 85
0.265625 -0.175781 0.086931 137 100 80
0.269531 -0.175781 0.081182 148 114 91
0.273438 -0.175781 0.073946 144 121 97
0.277344 -0.175781 0.064599 106 91 78
-0.132812 -0.179688 -0.002958 163 148 140
-0.128906 -0.179688 0.009914 173 143 114
-0.125000 -0.179688 0.017347 168 128 100
-0.121094 -0.179688 0.024245 191 152 124
-0.117188 -0.179688 0.030518 192 152 125
-0.113281 -0.179688 0.036028 193 152 125
-0.109375 -0.179688 0.041007 201 158 131
-0.105469 -0.179688 0.045422 210 163 136
-0.101562 -0.179688 0.049178 215 164 137
-0.097656 -0.179688 0.052783 218 164 137
-0.093750 -0.179688 0.056186 221 168 140
-0.089844 -0.179688 0.059090 224 173 144
-0.085938 -0.179688 0.061437 224 174 145
-0.082031 -0.179688 0.063410 221 170 142
-0.078125 -0.179688 0.065107 218 167 139
-0.074219 -0.179688 0.066355 214 162 135
-0.070312 -0.179688 0.067151 208 157 131
-0.066406 -0.179688 0.067658 203 153 128
-0.062500 -0.179688 0.067948 199 151 127
-0.058594 -0.179688 0.067930 193 146 123
-0.054688 -0.179688 0.067552 185 140 117
-0.050781 -0.179688 0.067011 181 136 114
-0.046875 -0.179688 0.066377 176 131 109
-0.042969 -0.179688 0.065478 168 123 102
-0.039062 -0.179688 0.064233 166 122 100
-0.035156 -0.179688 0.062873 165 122 99
-0.031250 -0.179688 0.061486 158 115 93
-0.027344 -0.179688 0.059754 153 111 89
-0.023438 -0.179688 0.057563 155 114 91
-0.019531 -0.179688 0.055135 155 113 90
-0.015625 -0.179688 0.052568 148 107 84
-0.011719 -0.179688 0.049435 142 101 79
-0.007812 -0.179688 0.045429 138 98 76
-0.003906 -0.179688 0.041122 134 96 74
0.000000 -0.179688 0.036561 128 92 71
0.003906 -0.179688 0.031533 121 86 67
0.007812 -0.179688 0.025847 120 85 66
0.011719 -0.179688 0.019572 119 84 66
0.015625 -0.179688 0.012871 116 81 65
0.019531 -0.179688 0.005722 108 76 60
0.023438 -0.179688 -0.001945 118 87 66
0.109375 -0.179688 0.031727 198 177 159
0.113281 -0.179688 0.041846 183 145 117
0.117188 -0.179688 0.048550 202 157 128
0.121094 -0.179688 0.055156 219 181 151
0.125000 -0.179688 0.060012 224 185 156
0.128906 -0.179688 0.064586 228 187 158
0.132812 -0.179688 0.069332 231 188 158
0.136719 -0.179688 0.073939 234 194 164
0.140625 -0.179688 0.078483 235 195 166
0.144531 -0.179688 0.082572 234 194 165
0.148438 -0.179688 0.085982 234 195 166
0.152344 -0.179688 0.089260 234 195 167
0.156250 -0.179688 0.092485 234 196 169
0.160156 -0.179688 0.095480 234 196 169
0.164062 -0.179688 0.098290 234 196 170
0.167969 -0.179688 0.100992 235 197 170
0.171875 -0.179688 0.103576 235 196 170
0.175781 -0.179688 0.105983 235 196 170
0.179688 -0.179688 0.108185 236 197 171
0.183594 -0.179688 0.110192 237 199 174
0.187500 -0.179688 0.111986 238 199 173
0.191406 -0.179688 0.113490 238 199 173
0.195312 -0.179688 0.114696 238 199 173
0.199219 -0.179688 0.115674 237 197 171
0.203125 -0.179688 0.116458 237 196 169
0.207031 -0.179688 0.116984 237 194 167
0.210938 -0.179688 0.117246 235 190 162
0.214844 -0.179688 0.117301 233 186 157
0.218750 -0.179688 0.117182 231 182 154
0.222656 -0.179688 0.116841 227 178 149
0.226562 -0.179688 0.116221 223 172 144
0.230469 -0.179688 0.115420 218 168 140
0.234375 -0.179688 0.114489 211 161 134
0.238281 -0.179688 0.113190 204 154 128
0.242188 -0.179688 0.111412 197 147 123
0.246094 -0.179688 0.109361 188 138 113
0.250000 -0.179688 0.107106 180 131 105
0.253906 -0.179688 0.104013 164 117 94
0.257812 -0.179688 0.099487 153 110 90
0.261719 -0.179688 0.094124 149 110 90
0.265625 -0.179688 0.088237 136 101 81
0.269531 -0.179688 0.082430 145 109 88
0.273438 -0.179688 0.076117 140 107 88
0.277344 -0.179688 0.067753 106 87 77
0.281250 -0.179688 0.048028 68 63 66
-0.128906 -0.183594 0.005420 131 107 83
-0.125000 -0.183594 0.013966 169 133 104
-0.121094 -0.183594 0.021467 185 149 120
-0.117188 -0.183594 0.028148 188 150 123
-0.113281 -0.183594 0.033909 192 151 125
-0.109375 -0.183594 0.038909 200 157 131
-0.105469 -0.183594 0.043325 206 160 134
-0.101562 -0.183594 0.047276 210 160 133
-0.097656 -0.183594 0.051082 215 162 135
-0.093750 -0.183594 0.054637 220 166 139
-0.089844 -0.183594 0.057693 223 171 143
-0.085938 -0.183594 0.060126 222 171 142
-0.082031 -0.183594 0.062179 219 167 139
-0.078125 -0.183594 0.063966 217 166 138
-0.074219 -0.183594 0.065284 214 163 136
-0.070312 -0.183594 0.066120 208 156 131
-0.066406 -0.183594 0.066649 202 151 127
-0.062500 -0.183594 0.066981 198 149 125
-0.058594 -0.183594 0.067016 193 146 123
-0.054688 -0.183594 0.066688 186 141 118
-0.050781 -0.183594 0.066182 180 136 114
-0.046875 -0.183594 0.065582 175 131 109
-0.042969 -0.183594 0.064722 169 125 103
-0.039062 -0.183594 0.063496 167 123 101
-0.035156 -0.183594 0.062142 165 122 99
-0.031250 -0.183594 0.060766 159 116 94
-0.027344 -0.183594 0.059048 154 113 90
