ply
    format ascii 1.0
    element vertex 65792
    property float x
    property float y
    property float z
    property uchar red
    property uchar green
    property uchar blue
    end_header
-0.007812 0.074219 0.106545 145 149 152
-0.003906 0.074219 0.106707 151 151 149
0.000000 0.074219 0.106871 148 149 144
0.003906 0.074219 0.106972 145 144 139
0.007812 0.074219 0.106956 147 144 139
0.011719 0.074219 0.106865 148 143 137
0.015625 0.074219 0.106684 148 143 137
0.019531 0.074219 0.106651 144 139 133
0.023438 0.074219 0.106831 143 136 130
0.027344 0.074219 0.106958 142 134 131
0.031250 0.074219 0.106848 147 142 139
0.035156 0.074219 0.106394 152 148 147
0.039062 0.074219 0.105406 151 149 150
0.042969 0.074219 0.104174 147 146 151
0.046875 0.074219 0.102748 143 144 149
0.050781 0.074219 0.101212 141 144 151
0.054688 0.074219 0.099758 142 145 150
0.058594 0.074219 0.098295 146 147 151
0.062500 0.074219 0.096930 151 150 155
0.066406 0.074219 0.095128 149 148 153
0.070312 0.074219 0.092680 150 149 154
0.074219 0.074219 0.090089 168 168 171
0.078125 0.074219 0.087629 176 175 179
0.082031 0.074219 0.085255 175 172 179
0.085938 0.074219 0.082958 184 182 185
0.089844 0.074219 0.080773 187 186 187
0.093750 0.074219 0.078706 186 185 186
0.097656 0.074219 0.076223 183 183 181
0.101562 0.074219 0.073267 182 181 179
0.105469 0.074219 0.070037 177 176 173
0.109375 0.074219 0.066297 170 166 164
0.113281 0.074219 0.061698 171 162 161
0.117188 0.074219 0.053610 189 173 174
0.121094 0.074219 0.041698 189 172 174
-0.175781 0.070312 0.004935 174 172 178
-0.171875 0.070312 0.021303 161 161 170
-0.167969 0.070312 0.029000 154 152 162
-0.164062 0.070312 0.034362 151 149 159
-0.160156 0.070312 0.038184 149 146 157
-0.156250 0.070312 0.041670 146 143 152
-0.152344 0.070312 0.045192 146 143 150
-0.148438 0.070312 0.049038 152 147 151
-0.144531 0.070312 0.052754 151 147 148
-0.140625 0.070312 0.056236 147 143 142
-0.136719 0.070312 0.059131 146 141 137
-0.132812 0.070312 0.061260 148 144 141
-0.128906 0.070312 0.063318 139 139 139
-0.125000 0.070312 0.065547 142 143 145
-0.121094 0.070312 0.067824 137 138 140
-0.117188 0.070312 0.070232 137 138 140
-0.113281 0.070312 0.072617 147 148 150
-0.109375 0.070312 0.074923 148 149 151
-0.105469 0.070312 0.076972 147 148 150
-0.101562 0.070312 0.078704 153 154 156
-0.097656 0.070312 0.080350 144 145 147
-0.093750 0.070312 0.081994 148 149 151
-0.089844 0.070312 0.083846 146 147 149
-0.085938 0.070312 0.086025 136 137 139
-0.082031 0.070312 0.088252 131 132 134
-0.078125 0.070312 0.090503 134 135 137
-0.074219 0.070312 0.092664 141 142 144
-0.070312 0.070312 0.094653 143 145 144
-0.066406 0.070312 0.096521 149 149 141
-0.062500 0.070312 0.098246 146 146 136
-0.058594 0.070312 0.099742 144 144 134
-0.054688 0.070312 0.100913 146 146 138
-0.050781 0.070312 0.101904 145 145 137
-0.046875 0.070312 0.102716 141 142 136
-0.042969 0.070312 0.103364 140 141 136
-0.039062 0.070312 0.103879 143 144 139
-0.035156 0.070312 0.104273 140 140 138
-0.031250 0.070312 0.104559 141 143 142
-0.027344 0.070312 0.104845 142 143 145
-0.023438 0.070312 0.105220 144 145 147
-0.019531 0.070312 0.105546 144 145 149
-0.015625 0.070312 0.105834 140 144 147
-0.011719 0.070312 0.106075 138 141 146
-0.007812 0.070312 0.106258 139 140 142
-0.003906 0.070312 0.106402 148 147 143
0.000000 0.070312 0.106551 150 147 140
0.003906 0.070312 0.106646 148 145 138
0.007812 0.070312 0.106637 147 143 134
0.011719 0.070312 0.106563 146 139 131
0.015625 0.070312 0.106419 144 137 127
0.019531 0.070312 0.106434 143 134 127
0.023438 0.070312 0.106662 141 134 126
0.027344 0.070312 0.106831 143 136 130
0.031250 0.070312 0.106753 148 143 140
0.035156 0.070312 0.106322 151 147 146
0.039062 0.070312 0.105349 145 145 147
0.042969 0.070312 0.104127 139 140 144
0.046875 0.070312 0.102710 137 140 147
0.050781 0.070312 0.101178 138 142 151
0.054688 0.070312 0.099712 139 143 152
0.058594 0.070312 0.098245 145 146 151
0.062500 0.070312 0.096909 149 148 153
0.066406 0.070312 0.095192 147 146 151
0.070312 0.070312 0.092880 147 146 151
0.074219 0.070312 0.090439 165 164 169
0.078125 0.070312 0.088115 167 166 170
0.082031 0.070312 0.085839 164 161 167
0.085938 0.070312 0.083609 179 177 180
0.089844 0.070312 0.081484 184 183 184
0.093750 0.070312 0.079464 182 181 182
0.097656 0.070312 0.077024 179 178 177
0.101562 0.070312 0.074099 177 176 175
0.105469 0.070312 0.070941 172 171 167
0.109375 0.070312 0.067427 164 160 158
0.113281 0.070312 0.063054 165 155 155
0.117188 0.070312 0.055249 182 166 168
0.121094 0.070312 0.043099 183 165 167
-0.179688 0.066406 -0.016877 45 46 45
-0.175781 0.066406 0.007641 171 172 180
-0.171875 0.066406 0.022071 150 150 161
-0.167969 0.066406 0.029532 153 151 163
-0.164062 0.066406 0.034543 150 148 161
-0.160156 0.066406 0.038399 151 147 161
-0.156250 0.066406 0.041955 146 143 152
-0.152344 0.066406 0.045488 146 141 147
-0.148438 0.066406 0.049243 150 145 145
-0.144531 0.066406 0.052854 154 149 145
-0.140625 0.066406 0.056258 151 147 138
-0.136719 0.066406 0.059088 151 145 133
-0.132812 0.066406 0.061141 149 146 137
-0.128906 0.066406 0.063135 146 146 144
-0.125000 0.066406 0.065326 145 149 152
-0.121094 0.066406 0.067568 139 143 146
-0.117188 0.066406 0.069958 138 142 145
-0.113281 0.066406 0.072333 147 151 154
-0.109375 0.066406 0.074622 148 152 155
-0.105469 0.066406 0.076663 145 149 152
-0.101562 0.066406 0.078389 150 154 157
-0.097656 0.066406 0.080029 146 150 153
-0.093750 0.066406 0.081665 141 145 148
-0.089844 0.066406 0.083503 140 144 147
-0.085938 0.066406 0.085668 141 145 148
-0.082031 0.066406 0.087889 137 141 144
-0.078125 0.066406 0.090112 131 135 138
-0.074219 0.066406 0.092228 135 139 142
-0.070312 0.066406 0.094190 146 148 147
-0.066406 0.066406 0.096041 144 144 136
-0.062500 0.066406 0.097755 144 142 130
-0.058594 0.066406 0.099256 147 145 133
-0.054688 0.066406 0.100465 149 149 139
-0.050781 0.066406 0.101505 149 149 141
-0.046875 0.066406 0.102367 143 143 135
-0.042969 0.066406 0.103067 140 139 134
-0.039062 0.066406 0.103626 140 141 136
-0.035156 0.066406 0.104064 140 140 138
-0.031250 0.066406 0.104383 140 140 138
-0.027344 0.066406 0.104687 139 139 139
-0.023438 0.066406 0.105073 137 138 140
-0.019531 0.066406 0.105409 135 136 140
-0.015625 0.066406 0.105697 133 134 138
-0.011719 0.066406 0.105930 131 132 136
-0.007812 0.066406 0.106097 131 131 131
-0.003906 0.066406 0.106222 147 144 139
0.000000 0.066406 0.106349 150 146 135
0.003906 0.066406 0.106424 152 148 137
0.007812 0.066406 0.106422 151 144 134
0.011719 0.066406 0.106368 146 137 128
0.015625 0.066406 0.106264 143 135 124
0.019531 0.066406 0.106320 146 136 127
0.023438 0.066406 0.106584 147 138 129
0.027344 0.066406 0.106783 145 138 132
0.031250 0.066406 0.106730 149 144 140
0.035156 0.066406 0.106318 148 144 143
0.039062 0.066406 0.105371 136 136 138
0.042969 0.066406 0.104172 128 131 136
0.046875 0.066406 0.102756 131 136 142
0.050781 0.066406 0.101219 137 144 154
0.054688 0.066406 0.099736 143 147 158
0.058594 0.066406 0.098261 143 143 151
0.062500 0.066406 0.096955 147 146 152
0.066406 0.066406 0.095318 144 143 149
0.070312 0.066406 0.093121 145 144 149
0.074219 0.066406 0.090801 165 163 168
0.078125 0.066406 0.088581 163 161 168
0.082031 0.066406 0.086377 155 152 159
0.085938 0.066406 0.084200 173 171 175
0.089844 0.066406 0.082126 180 179 180
0.093750 0.066406 0.080148 178 178 178
0.097656 0.066406 0.077748 175 175 173
0.101562 0.066406 0.074830 173 172 171
0.105469 0.066406 0.071686 168 167 164
0.109375 0.066406 0.068315 161 157 155
0.113281 0.066406 0.064264 162 152 152
0.117188 0.066406 0.056853 179 162 164
0.121094 0.066406 0.044650 181 162 163
-0.179688 0.062500 -0.014927 108 109 109
-0.175781 0.062500 0.010114 179 181 187
-0.171875 0.062500 0.022981 142 145 153
-0.167969 0.062500 0.030031 150 150 160
-0.164062 0.062500 0.034830 147 147 157
-0.160156 0.062500 0.038703 154 152 163
-0.156250 0.062500 0.042300 147 144 153
-0.152344 0.062500 0.045825 143 138 144
-0.148438 0.062500 0.049476 146 140 142
-0.144531 0.062500 0.052974 150 145 142
-0.140625 0.062500 0.056287 150 143 137
-0.136719 0.062500 0.059048 146 139 132
-0.132812 0.062500 0.061026 143 138 132
-0.128906 0.062500 0.062963 145 145 145
-0.125000 0.062500 0.065113 147 148 152
-0.121094 0.062500 0.067314 141 142 145
-0.117188 0.062500 0.069674 139 140 144
-0.113281 0.062500 0.072030 147 148 152
-0.109375 0.062500 0.074301 146 147 151
-0.105469 0.062500 0.076334 140 141 145
-0.101562 0.062500 0.078059 144 145 149
-0.097656 0.062500 0.079703 155 156 160
-0.093750 0.062500 0.081348 132 133 137
-0.089844 0.062500 0.083189 127 128 132
-0.085938 0.062500 0.085344 145 146 150
-0.082031 0.062500 0.087556 152 153 157
-0.078125 0.062500 0.089759 139 140 144
-0.074219 0.062500 0.091842 132 133 137
-0.070312 0.062500 0.093762 139 141 140
-0.066406 0.062500 0.095579 130 131 125
-0.062500 0.062500 0.097279 132 132 122
-0.058594 0.062500 0.098786 138 138 128
-0.054688 0.062500 0.100026 145 145 135
-0.050781 0.062500 0.101105 147 147 139
-0.046875 0.062500 0.102012 142 142 134
-0.042969 0.062500 0.102759 138 138 130
-0.039062 0.062500 0.103363 138 137 132
-0.035156 0.062500 0.103841 144 143 139
-0.031250 0.062500 0.104191 142 143 138
-0.027344 0.062500 0.104521 140 140 138
-0.023438 0.062500 0.104920 138 138 136
-0.019531 0.062500 0.105259 135 135 137
-0.015625 0.062500 0.105551 132 133 135
-0.011719 0.062500 0.105792 130 131 133
-0.007812 0.062500 0.105959 130 130 130
-0.003906 0.062500 0.106076 144 144 136
0.000000 0.062500 0.106184 151 149 137
0.003906 0.062500 0.106247 154 152 140
0.007812 0.062500 0.106264 152 148 137
0.011719 0.062500 0.106246 148 141 131
0.015625 0.062500 0.106180 145 138 128
0.019531 0.062500 0.106268 148 141 131
0.023438 0.062500 0.106553 153 146 136
0.027344 0.062500 0.106767 146 141 135
0.031250 0.062500 0.106735 149 146 141
0.035156 0.062500 0.106346 143 142 140
0.039062 0.062500 0.105430 130 130 132
0.042969 0.062500 0.104255 123 124 128
0.046875 0.062500 0.102829 129 134 140
0.050781 0.062500 0.101271 142 146 155
0.054688 0.062500 0.099770 149 153 162
0.058594 0.062500 0.098288 142 142 150
0.062500 0.062500 0.097001 145 144 150
0.066406 0.062500 0.095430 142 141 147
0.070312 0.062500 0.093328 144 143 148
0.074219 0.062500 0.091108 165 164 169
0.078125 0.062500 0.088981 165 164 168
0.082031 0.062500 0.086841 150 147 155
0.085938 0.062500 0.084713 164 163 167
0.089844 0.062500 0.082690 173 172 174
0.093750 0.062500 0.080762 172 171 170
0.097656 0.062500 0.078405 168 168 166
0.101562 0.062500 0.075493 166 165 164
0.105469 0.062500 0.072361 161 159 158
0.109375 0.062500 0.069114 155 151 151
0.113281 0.062500 0.065403 156 146 147
0.117188 0.062500 0.058407 167 150 153
0.121094 0.062500 0.047450 164 142 145
-0.179688 0.058594 -0.010827 171 173 174
-0.175781 0.058594 0.012131 169 172 174
-0.171875 0.058594 0.023927 159 163 166
-0.167969 0.058594 0.030762 148 152 155
-0.164062 0.058594 0.035356 137 141 144
-0.160156 0.058594 0.039139 142 143 148
-0.156250 0.058594 0.042772 145 146 151
-0.152344 0.058594 0.046271 141 140 146
-0.148438 0.058594 0.049794 134 131 138
-0.144531 0.058594 0.053154 140 133 141
-0.140625 0.058594 0.056351 152 142 151
-0.136719 0.058594 0.059023 155 143 153
-0.132812 0.058594 0.060912 146 136 145
-0.128906 0.058594 0.062784 136 131 137
-0.125000 0.058594 0.064882 146 146 148
-0.121094 0.058594 0.067031 151 151 153
-0.117188 0.058594 0.069349 145 145 147
-0.113281 0.058594 0.071678 141 141 143
-0.109375 0.058594 0.073937 142 142 144
-0.105469 0.058594 0.075977 138 138 140
-0.101562 0.058594 0.077717 128 128 130
-0.097656 0.058594 0.079378 135 135 137
-0.093750 0.058594 0.081044 135 135 137
-0.089844 0.058594 0.082907 137 137 139
-0.085938 0.058594 0.085054 141 141 143
-0.082031 0.058594 0.087242 145 145 147
-0.078125 0.058594 0.089426 146 146 148
-0.074219 0.058594 0.091493 142 142 144
-0.070312 0.058594 0.093382 138 138 138
-0.066406 0.058594 0.095159 141 143 138
-0.062500 0.058594 0.096841 121 126 119
-0.058594 0.058594 0.098348 119 122 113
-0.054688 0.058594 0.099610 137 140 131
-0.050781 0.058594 0.100722 149 150 142
-0.046875 0.058594 0.101670 144 144 134
-0.042969 0.058594 0.102457 142 142 132
-0.039062 0.058594 0.103105 150 147 138
-0.035156 0.058594 0.103627 141 138 131
-0.031250 0.058594 0.104014 144 144 136
-0.027344 0.058594 0.104374 149 148 143
-0.023438 0.058594 0.104791 149 150 144
-0.019531 0.058594 0.105143 145 145 143
-0.015625 0.058594 0.105447 142 142 140
-0.011719 0.058594 0.105704 142 144 143
-0.007812 0.058594 0.105878 143 145 142
-0.003906 0.058594 0.105994 151 154 147
0.000000 0.058594 0.106094 143 146 137
0.003906 0.058594 0.106156 135 138 129
0.007812 0.058594 0.106200 134 136 125
0.011719 0.058594 0.106215 138 140 129
0.015625 0.058594 0.106177 142 144 133
0.019531 0.058594 0.106277 143 143 133
0.023438 0.058594 0.106568 142 142 132
0.027344 0.058594 0.106781 140 141 133
0.031250 0.058594 0.106766 140 141 135
0.035156 0.058594 0.106396 142 142 140
0.039062 0.058594 0.105496 147 147 147
0.042969 0.058594 0.104329 150 150 152
0.046875 0.058594 0.102894 146 147 151
0.050781 0.058594 0.101331 143 144 149
0.054688 0.058594 0.099833 141 141 149
0.058594 0.058594 0.098359 144 143 149
0.062500 0.058594 0.097085 149 148 153
0.066406 0.058594 0.095559 143 142 147
0.070312 0.058594 0.093524 150 150 152
0.074219 0.058594 0.091377 160 160 161
0.078125 0.058594 0.089321 160 159 160
0.082031 0.058594 0.087229 153 150 156
0.085938 0.058594 0.085138 159 157 161
0.089844 0.058594 0.083157 168 167 167
0.093750 0.058594 0.081273 167 167 166
0.097656 0.058594 0.078967 163 163 162
0.101562 0.058594 0.076070 161 160 159
0.105469 0.058594 0.072916 156 154 154
0.109375 0.058594 0.069791 150 146 147
0.113281 0.058594 0.066310 149 139 141
0.117188 0.058594 0.059647 148 132 138
0.121094 0.058594 0.050666 145 125 129
-0.179688 0.054688 -0.006847 187 187 189
-0.175781 0.054688 0.013882 171 175 176
-0.171875 0.054688 0.024932 159 165 165
-0.167969 0.054688 0.031573 149 155 155
-0.164062 0.054688 0.036008 140 145 148
-0.160156 0.054688 0.039735 138 140 145
-0.156250 0.054688 0.043363 139 142 147
-0.152344 0.054688 0.046791 137 136 144
-0.148438 0.054688 0.050179 130 127 138
-0.144531 0.054688 0.053396 136 130 142
-0.140625 0.054688 0.056465 149 139 154
-0.136719 0.054688 0.059027 151 138 156
-0.132812 0.054688 0.060819 144 132 146
-0.128906 0.054688 0.062617 146 141 147
-0.125000 0.054688 0.064654 141 139 140
-0.121094 0.054688 0.066753 142 140 143
-0.117188 0.054688 0.069034 146 144 145
-0.113281 0.054688 0.071337 149 147 150
-0.109375 0.054688 0.073591 147 145 146
-0.105469 0.054688 0.075646 142 140 143
-0.101562 0.054688 0.077413 139 137 140
-0.097656 0.054688 0.079107 139 137 140
-0.093750 0.054688 0.080805 138 136 139
-0.089844 0.054688 0.082690 139 137 140
-0.085938 0.054688 0.084835 143 141 144
-0.082031 0.054688 0.087006 146 144 147
-0.078125 0.054688 0.089168 147 145 148
-0.074219 0.054688 0.091215 145 143 146
-0.070312 0.054688 0.093080 141 141 141
-0.066406 0.054688 0.094832 135 139 138
-0.062500 0.054688 0.096489 133 139 135
-0.058594 0.054688 0.097987 136 141 135
-0.054688 0.054688 0.099266 143 145 140
-0.050781 0.054688 0.100401 147 148 142
-0.046875 0.054688 0.101381 146 147 139
-0.042969 0.054688 0.102205 148 145 138
-0.039062 0.054688 0.102892 149 146 137
-0.035156 0.054688 0.103456 150 147 140
-0.031250 0.054688 0.103883 150 147 140
-0.027344 0.054688 0.104276 147 146 141
-0.023438 0.054688 0.104716 147 146 141
-0.019531 0.054688 0.105085 147 147 145
-0.015625 0.054688 0.105400 147 147 145
-0.011719 0.054688 0.105666 145 147 146
-0.007812 0.054688 0.105827 142 146 145
-0.003906 0.054688 0.105934 140 145 139
0.000000 0.054688 0.106032 135 142 134
0.003906 0.054688 0.106106 131 136 129
0.007812 0.054688 0.106172 131 136 129
0.011719 0.054688 0.106205 134 139 132
0.015625 0.054688 0.106175 137 143 133
0.019531 0.054688 0.106268 140 143 134
0.023438 0.054688 0.106553 139 142 133
0.027344 0.054688 0.106757 142 145 138
0.031250 0.054688 0.106747 144 147 140
0.035156 0.054688 0.106384 147 147 145
0.039062 0.054688 0.105487 149 149 147
0.042969 0.054688 0.104318 148 148 150
0.046875 0.054688 0.102884 145 145 147
0.050781 0.054688 0.101342 142 141 146
0.054688 0.054688 0.099871 141 140 146
0.058594 0.054688 0.098422 147 146 151
0.062500 0.054688 0.097160 150 149 154
0.066406 0.054688 0.095659 140 140 142
0.070312 0.054688 0.093679 143 143 143
0.074219 0.054688 0.091599 152 152 152
0.078125 0.054688 0.089608 161 160 161
0.082031 0.054688 0.087566 159 157 161
0.085938 0.054688 0.085513 161 159 162
0.089844 0.054688 0.083564 167 166 165
0.093750 0.054688 0.081725 167 167 164
0.097656 0.054688 0.079480 163 163 161
0.101562 0.054688 0.076625 161 160 159
0.105469 0.054688 0.073496 156 155 155
0.109375 0.054688 0.070472 153 148 149
0.113281 0.054688 0.067272 151 141 144
0.117188 0.054688 0.061224 148 134 139
0.121094 0.054688 0.053424 168 149 153
0.125000 0.054688 0.022837 142 140 120
-0.179688 0.050781 -0.002591 196 196 200
-0.175781 0.050781 0.015742 170 173 178
-0.171875 0.050781 0.026026 155 158 163
-0.167969 0.050781 0.032482 149 154 160
-0.164062 0.050781 0.036803 142 147 153
-0.160156 0.050781 0.040476 138 141 150
-0.156250 0.050781 0.044092 138 141 149
-0.152344 0.050781 0.047424 135 133 144
-0.148438 0.050781 0.050659 129 126 137
-0.144531 0.050781 0.053725 134 128 140
-0.140625 0.050781 0.056652 146 135 149
-0.136719 0.050781 0.059085 148 137 150
-0.132812 0.050781 0.060779 142 132 143
-0.128906 0.050781 0.062501 151 146 150
-0.125000 0.050781 0.064460 132 131 129
-0.121094 0.050781 0.066492 127 125 126
-0.117188 0.050781 0.068736 139 138 136
-0.113281 0.050781 0.071021 149 147 148
-0.109375 0.050781 0.073263 146 145 143
-0.105469 0.050781 0.075325 142 140 141
-0.101562 0.050781 0.077126 145 143 144
-0.097656 0.050781 0.078868 141 139 140
-0.093750 0.050781 0.080614 140 138 139
-0.089844 0.050781 0.082527 140 138 139
-0.085938 0.050781 0.084680 141 139 140
-0.082031 0.050781 0.086857 144 142 145
-0.078125 0.050781 0.089006 145 143 146
-0.074219 0.050781 0.091028 145 143 146
-0.070312 0.050781 0.092862 143 143 145
-0.066406 0.050781 0.094584 135 139 140
-0.062500 0.050781 0.096213 147 153 153
-0.058594 0.050781 0.097697 155 159 158
-0.054688 0.050781 0.098985 151 153 152
-0.050781 0.050781 0.100130 147 147 145
-0.046875 0.050781 0.101138 149 150 145
-0.042969 0.050781 0.102005 154 150 147
-0.039062 0.050781 0.102736 150 146 143
-0.035156 0.050781 0.103341 151 147 144
-0.031250 0.050781 0.103808 147 143 140
-0.027344 0.050781 0.104236 141 140 138
-0.023438 0.050781 0.104696 142 141 139
-0.019531 0.050781 0.105083 146 146 148
-0.015625 0.050781 0.105413 149 149 151
-0.011719 0.050781 0.105677 147 148 152
-0.007812 0.050781 0.105828 142 146 149
-0.003906 0.050781 0.105935 132 136 135
0.000000 0.050781 0.106036 130 136 132
0.003906 0.050781 0.106120 130 135 131
0.007812 0.050781 0.106194 131 136 130
0.011719 0.050781 0.106225 133 138 132
0.015625 0.050781 0.106186 135 140 133
0.019531 0.050781 0.106252 140 143 136
0.023438 0.050781 0.106510 141 144 137
0.027344 0.050781 0.106684 146 149 142
0.031250 0.050781 0.106655 149 152 145
0.035156 0.050781 0.106284 152 152 150
0.039062 0.050781 0.105395 149 149 147
0.042969 0.050781 0.104236 144 144 146
0.046875 0.050781 0.102822 141 141 143
0.050781 0.050781 0.101331 140 139 144
0.054688 0.050781 0.099909 141 140 145
0.058594 0.050781 0.098496 146 145 150
0.062500 0.050781 0.097242 151 150 155
0.066406 0.050781 0.095753 144 144 146
0.070312 0.050781 0.093816 146 146 146
0.074219 0.050781 0.091787 150 150 150
0.078125 0.050781 0.089848 160 159 160
0.082031 0.050781 0.087849 161 158 163
0.085938 0.050781 0.085830 162 159 163
0.089844 0.050781 0.083911 167 166 166
0.093750 0.050781 0.082120 167 166 164
0.097656 0.050781 0.079949 162 161 161
0.101562 0.050781 0.077149 159 158 157
0.105469 0.050781 0.074065 154 152 152
0.109375 0.050781 0.071092 149 146 147
0.113281 0.050781 0.068065 145 137 140
0.117188 0.050781 0.062832 135 125 129
0.121094 0.050781 0.055438 154 141 145
0.125000 0.050781 0.032894 163 156 149
-0.179688 0.046875 0.002078 194 194 199
-0.175781 0.046875 0.017892 165 167 174
-0.171875 0.046875 0.027404 148 151 159
-0.167969 0.046875 0.033584 146 150 161
-0.164062 0.046875 0.037735 142 146 158
-0.160156 0.046875 0.041307 142 144 156
-0.156250 0.046875 0.044876 143 142 155
-0.152344 0.046875 0.048087 137 135 148
-0.148438 0.046875 0.051152 131 128 139
-0.144531 0.046875 0.054058 135 129 139
-0.140625 0.046875 0.056847 143 136 144
-0.136719 0.046875 0.059160 146 136 145
-0.132812 0.046875 0.060756 141 132 137
-0.128906 0.046875 0.062390 147 143 142
-0.125000 0.046875 0.064269 130 129 125
-0.121094 0.046875 0.066240 123 122 118
-0.117188 0.046875 0.068452 129 128 124
-0.113281 0.046875 0.070725 138 137 133
-0.109375 0.046875 0.072968 141 140 138
-0.105469 0.046875 0.075042 141 140 138
-0.101562 0.046875 0.076878 144 143 141
-0.097656 0.046875 0.078664 142 140 141
-0.093750 0.046875 0.080459 140 138 139
-0.089844 0.046875 0.082407 139 137 138
-0.085938 0.046875 0.084570 139 137 138
-0.082031 0.046875 0.086752 141 139 142
-0.078125 0.046875 0.088887 142 140 143
-0.074219 0.046875 0.090883 143 141 144
-0.070312 0.046875 0.092682 143 143 145
-0.066406 0.046875 0.094368 133 137 140
-0.062500 0.046875 0.095972 145 149 152
-0.058594 0.046875 0.097439 153 154 158
-0.054688 0.046875 0.098728 147 148 150
-0.050781 0.046875 0.099883 141 141 143
-0.046875 0.046875 0.100923 143 141 142
-0.042969 0.046875 0.101832 148 144 145
-0.039062 0.046875 0.102605 149 145 146
-0.035156 0.046875 0.103254 141 137 138
-0.031250 0.046875 0.103765 139 135 136
-0.027344 0.046875 0.104227 137 135 138
-0.023438 0.046875 0.104703 139 137 140
-0.019531 0.046875 0.105103 142 141 147
-0.015625 0.046875 0.105419 143 144 149
-0.011719 0.046875 0.105666 144 144 154
-0.007812 0.046875 0.105809 140 143 150
-0.003906 0.046875 0.105916 131 136 139
0.000000 0.046875 0.106013 131 137 137
0.003906 0.046875 0.106091 132 136 135
0.007812 0.046875 0.106161 132 136 135
0.011719 0.046875 0.106181 132 137 133
0.015625 0.046875 0.106137 135 140 134
0.019531 0.046875 0.106185 141 143 138
0.023438 0.046875 0.106414 145 148 141
0.027344 0.046875 0.106552 147 149 144
0.031250 0.046875 0.106495 151 153 148
0.035156 0.046875 0.106108 151 151 149
0.039062 0.046875 0.105230 143 143 141
0.042969 0.046875 0.104097 136 136 138
0.046875 0.046875 0.102717 137 137 139
0.050781 0.046875 0.101284 142 141 146
0.054688 0.046875 0.099921 145 144 149
0.058594 0.046875 0.098548 143 142 147
0.062500 0.046875 0.097308 153 152 157
0.066406 0.046875 0.095832 152 152 154
0.070312 0.046875 0.093924 158 158 158
0.074219 0.046875 0.091926 158 158 158
0.078125 0.046875 0.090027 161 161 161
0.082031 0.046875 0.088069 160 157 163
0.085938 0.046875 0.086087 161 158 163
0.089844 0.046875 0.084205 169 168 168
0.093750 0.046875 0.082467 168 168 165
0.097656 0.046875 0.080377 162 162 161
0.101562 0.046875 0.077648 157 157 156
0.105469 0.046875 0.074632 152 150 151
0.109375 0.046875 0.071713 147 144 144
0.113281 0.046875 0.068847 140 134 137
0.117188 0.046875 0.064216 127 119 123
0.121094 0.046875 0.057181 134 124 129
0.125000 0.046875 0.039171 141 130 131
-0.179688 0.042969 0.006747 188 187 195
-0.175781 0.042969 0.020261 160 162 173
-0.171875 0.042969 0.028867 144 146 160
-0.167969 0.042969 0.034677 146 147 164
-0.164062 0.042969 0.038654 143 144 164
-0.160156 0.042969 0.042135 146 144 164
-0.156250 0.042969 0.045640 143 142 159
-0.152344 0.042969 0.048724 138 136 150
-0.148438 0.042969 0.051620 134 131 142
-0.144531 0.042969 0.054368 137 132 139
-0.140625 0.042969 0.057026 141 135 139
-0.136719 0.042969 0.059231 140 134 136
-0.132812 0.042969 0.060735 137 132 129
-0.128906 0.042969 0.062275 142 139 134
-0.125000 0.042969 0.064077 141 141 134
-0.121094 0.042969 0.065997 136 135 130
-0.117188 0.042969 0.068167 128 127 122
-0.113281 0.042969 0.070414 131 130 125
-0.109375 0.042969 0.072649 141 140 136
-0.105469 0.042969 0.074739 145 144 140
-0.101562 0.042969 0.076602 143 142 138
-0.097656 0.042969 0.078425 144 143 141
-0.093750 0.042969 0.080267 143 142 140
-0.089844 0.042969 0.082252 142 140 141
-0.085938 0.042969 0.084426 141 139 140
-0.082031 0.042969 0.086613 141 139 140
-0.078125 0.042969 0.088733 142 140 141
-0.074219 0.042969 0.090703 144 142 145
-0.070312 0.042969 0.092478 145 144 149
-0.066406 0.042969 0.094145 134 135 140
-0.062500 0.042969 0.095728 130 133 140
-0.058594 0.042969 0.097176 133 133 141
-0.054688 0.042969 0.098475 135 136 141
-0.050781 0.042969 0.099660 134 133 138
-0.046875 0.042969 0.100730 131 129 132
-0.042969 0.042969 0.101666 137 132 136
-0.039062 0.042969 0.102477 145 140 144
-0.035156 0.042969 0.103172 136 131 137
-0.031250 0.042969 0.103727 139 134 140
-0.027344 0.042969 0.104224 141 138 145
-0.023438 0.042969 0.104715 141 138 145
-0.019531 0.042969 0.105120 138 136 147
-0.015625 0.042969 0.105431 135 135 145
-0.011719 0.042969 0.105667 135 134 148
-0.007812 0.042969 0.105796 134 136 148
-0.003906 0.042969 0.105890 136 141 147
0.000000 0.042969 0.105964 135 140 144
0.003906 0.042969 0.106015 135 139 142
0.007812 0.042969 0.106070 133 137 140
0.011719 0.042969 0.106080 133 137 138
0.015625 0.042969 0.106030 136 140 139
0.019531 0.042969 0.106063 144 146 143
0.023438 0.042969 0.106252 148 150 145
0.027344 0.042969 0.106348 145 147 144
0.031250 0.042969 0.106264 148 150 147
0.035156 0.042969 0.105860 145 145 143
0.039062 0.042969 0.104999 134 134 132
0.042969 0.042969 0.103907 129 129 131
0.046875 0.042969 0.102570 136 136 138
0.050781 0.042969 0.101183 145 144 149
0.054688 0.042969 0.099869 150 149 154
0.058594 0.042969 0.098544 147 146 151
0.062500 0.042969 0.097329 154 153 158
0.066406 0.042969 0.095871 153 153 155
0.070312 0.042969 0.093989 159 159 159
0.074219 0.042969 0.092026 157 157 157
0.078125 0.042969 0.090167 161 160 160
0.082031 0.042969 0.088251 163 160 166
0.085938 0.042969 0.086308 165 162 167
0.089844 0.042969 0.084467 170 169 170
0.093750 0.042969 0.082777 168 168 166
0.097656 0.042969 0.080767 162 161 161
0.101562 0.042969 0.078131 156 156 155
0.105469 0.042969 0.075211 151 150 150
0.109375 0.042969 0.072336 147 145 146
0.113281 0.042969 0.069563 144 138 140
0.117188 0.042969 0.065337 133 126 130
0.121094 0.042969 0.058753 142 130 136
0.125000 0.042969 0.044643 155 141 143
-0.179688 0.039062 0.010817 182 182 191
-0.175781 0.039062 0.022443 162 161 174
-0.171875 0.039062 0.030284 143 144 163
-0.167969 0.039062 0.035788 148 148 171
-0.164062 0.039062 0.039563 144 144 169
-0.160156 0.039062 0.042931 143 141 164
-0.156250 0.039062 0.046364 140 138 159
-0.152344 0.039062 0.049328 136 133 150
-0.148438 0.039062 0.052066 135 133 146
-0.144531 0.039062 0.054667 137 135 140
-0.140625 0.039062 0.057193 140 136 135
-0.136719 0.039062 0.059293 137 134 129
-0.132812 0.039062 0.060725 134 131 124
-0.128906 0.039062 0.062188 142 142 132
-0.125000 0.039062 0.063914 151 151 142
-0.121094 0.039062 0.065774 151 151 141
-0.117188 0.039062 0.067893 138 138 130
-0.113281 0.039062 0.070112 135 135 127
-0.109375 0.039062 0.072333 145 144 139
-0.105469 0.039062 0.074431 150 149 144
-0.101562 0.039062 0.076320 146 145 141
-0.097656 0.039062 0.078179 146 145 141
-0.093750 0.039062 0.080062 146 145 143
-0.089844 0.039062 0.082079 146 144 145
-0.085938 0.039062 0.084266 144 142 143
-0.082031 0.039062 0.086456 142 140 141
-0.078125 0.039062 0.088563 142 140 141
-0.074219 0.039062 0.090510 145 143 146
-0.070312 0.039062 0.092260 146 145 150
-0.066406 0.039062 0.093905 140 141 146
-0.062500 0.039062 0.095470 130 133 140
-0.058594 0.039062 0.096910 130 130 138
-0.054688 0.039062 0.098226 136 135 141
-0.050781 0.039062 0.099437 137 135 140
-0.046875 0.039062 0.100537 133 131 134
-0.042969 0.039062 0.101503 139 134 140
-0.039062 0.039062 0.102346 148 143 149
-0.035156 0.039062 0.103076 141 136 142
-0.031250 0.039062 0.103661 146 141 148
-0.027344 0.039062 0.104178 147 144 151
-0.023438 0.039062 0.104671 145 144 152
-0.019531 0.039062 0.105082 137 137 147
-0.015625 0.039062 0.105399 129 131 143
-0.011719 0.039062 0.105635 128 130 143
-0.007812 0.039062 0.105753 129 131 144
-0.003906 0.039062 0.105832 136 140 151
0.000000 0.039062 0.105885 135 140 146
0.003906 0.039062 0.105914 134 137 144
0.007812 0.039062 0.105957 134 137 142
0.011719 0.039062 0.105960 136 140 143
0.015625 0.039062 0.105899 140 144 145
0.019531 0.039062 0.105902 146 148 147
0.023438 0.039062 0.106038 148 150 147
0.027344 0.039062 0.106084 141 143 140
0.031250 0.039062 0.105973 145 147 144
0.035156 0.039062 0.105555 141 141 139
0.039062 0.039062 0.104719 130 130 128
0.042969 0.039062 0.103670 128 128 128
0.046875 0.039062 0.102380 139 139 141
0.050781 0.039062 0.101037 149 148 153
0.054688 0.039062 0.099766 151 150 155
0.058594 0.039062 0.098488 154 153 158
0.062500 0.039062 0.097306 154 153 158
0.066406 0.039062 0.095880 146 146 148
0.070312 0.039062 0.094038 148 148 148
0.074219 0.039062 0.092117 148 148 148
0.078125 0.039062 0.090299 155 155 154
0.082031 0.039062 0.088421 164 162 166
0.085938 0.039062 0.086514 167 165 170
0.089844 0.039062 0.084704 169 168 169
0.093750 0.039062 0.083058 168 167 166
0.097656 0.039062 0.081125 161 160 160
0.101562 0.039062 0.078572 154 153 152
0.105469 0.039062 0.075742 148 147 147
0.109375 0.039062 0.072934 145 143 144
0.113281 0.039062 0.070203 140 135 138
0.117188 0.039062 0.066320 128 122 126
0.121094 0.039062 0.060038 133 124 130
0.125000 0.039062 0.048098 145 131 136
-0.183594 0.035156 -0.013585 151 150 155
-0.179688 0.035156 0.013288 173 173 183
-0.175781 0.035156 0.024203 160 159 176
-0.171875 0.035156 0.031755 144 142 163
-0.167969 0.035156 0.036773 150 147 175
-0.164062 0.035156 0.040352 143 140 171
-0.160156 0.035156 0.043655 140 135 165
-0.156250 0.035156 0.047010 138 134 158
-0.152344 0.035156 0.049866 136 133 152
-0.148438 0.035156 0.052459 139 137 150
-0.144531 0.035156 0.054927 143 141 146
-0.140625 0.035156 0.057331 142 141 137
-0.136719 0.035156 0.059335 139 139 129
-0.132812 0.035156 0.060700 137 137 125
-0.128906 0.035156 0.062099 144 144 132
-0.125000 0.035156 0.063749 149 149 137
-0.121094 0.035156 0.065534 151 151 139
-0.117188 0.035156 0.067602 147 147 137
-0.113281 0.035156 0.069798 144 144 134
-0.109375 0.035156 0.072004 144 144 136
-0.105469 0.035156 0.074097 145 145 137
-0.101562 0.035156 0.076009 146 145 140
-0.097656 0.035156 0.077894 143 142 138
-0.093750 0.035156 0.079807 145 144 140
-0.089844 0.035156 0.081846 145 144 142
-0.085938 0.035156 0.084046 144 143 141
-0.082031 0.035156 0.086243 141 139 140
-0.078125 0.035156 0.088347 140 138 139
-0.074219 0.035156 0.090283 142 140 141
-0.070312 0.035156 0.092019 143 143 145
-0.066406 0.035156 0.093648 142 143 147
-0.062500 0.035156 0.095205 145 146 150
-0.058594 0.035156 0.096654 146 145 150
-0.054688 0.035156 0.097990 142 142 144
-0.050781 0.035156 0.099216 142 140 143
-0.046875 0.035156 0.100342 145 143 144
-0.042969 0.035156 0.101345 150 145 149
-0.039062 0.035156 0.102220 150 145 149
-0.035156 0.035156 0.102980 146 141 145
-0.031250 0.035156 0.103594 147 142 148
-0.027344 0.035156 0.104131 145 142 149
-0.023438 0.035156 0.104630 142 141 149
-0.019531 0.035156 0.105052 137 137 147
-0.015625 0.035156 0.105367 132 134 146
-0.011719 0.035156 0.105588 130 132 145
-0.007812 0.035156 0.105688 128 132 144
-0.003906 0.035156 0.105743 129 133 145
0.000000 0.035156 0.105779 128 132 143
0.003906 0.035156 0.105792 130 133 142
0.007812 0.035156 0.105815 135 138 145
0.011719 0.035156 0.105795 141 144 149
0.015625 0.035156 0.105704 144 148 151
0.019531 0.035156 0.105664 145 146 148
0.023438 0.035156 0.105745 142 144 143
0.027344 0.035156 0.105742 138 140 137
0.031250 0.035156 0.105599 142 144 141
0.035156 0.035156 0.105170 140 140 138
0.039062 0.035156 0.104351 131 131 129
0.042969 0.035156 0.103334 133 133 133
0.046875 0.035156 0.102088 144 144 144
0.050781 0.035156 0.100798 150 150 152
0.054688 0.035156 0.099585 148 148 150
0.058594 0.035156 0.098364 155 154 159
0.062500 0.035156 0.097230 151 150 155
0.066406 0.035156 0.095855 140 140 142
0.070312 0.035156 0.094064 144 144 144
0.074219 0.035156 0.092197 145 145 145
0.078125 0.035156 0.090423 153 152 151
0.082031 0.035156 0.088574 158 157 159
0.085938 0.035156 0.086689 158 156 161
0.089844 0.035156 0.084892 164 163 164
0.093750 0.035156 0.083276 166 166 165
0.097656 0.035156 0.081407 161 161 160
0.101562 0.035156 0.078934 154 153 152
0.105469 0.035156 0.076187 148 147 147
0.109375 0.035156 0.073449 145 143 144
0.113281 0.035156 0.070807 139 135 137
0.117188 0.035156 0.067172 125 120 124
0.121094 0.035156 0.060923 131 122 128
0.125000 0.035156 0.049978 148 133 139
0.128906 0.035156 0.023086 22 24 18
-0.183594 0.031250 -0.009440 140 139 143
-0.179688 0.031250 0.015338 165 163 175
-0.175781 0.031250 0.025679 157 154 173
-0.171875 0.031250 0.032946 141 139 162
-0.167969 0.031250 0.037567 148 143 174
-0.164062 0.031250 0.041015 140 135 166
-0.160156 0.031250 0.044294 138 133 165
-0.156250 0.031250 0.047592 137 133 159
-0.152344 0.031250 0.050362 138 135 155
-0.148438 0.031250 0.052820 142 140 151
-0.144531 0.031250 0.055166 147 147 149
-0.140625 0.031250 0.057457 148 149 143
-0.136719 0.031250 0.059370 146 146 134
-0.132812 0.031250 0.060668 143 144 130
-0.128906 0.031250 0.062008 143 144 130
-0.125000 0.031250 0.063599 138 139 125
-0.121094 0.031250 0.065328 141 141 129
-0.117188 0.031250 0.067344 149 149 137
-0.113281 0.031250 0.069508 148 148 138
-0.109375 0.031250 0.071698 138 138 128
-0.105469 0.031250 0.073790 136 136 128
-0.101562 0.031250 0.075718 142 142 134
-0.097656 0.031250 0.077629 138 137 132
-0.093750 0.031250 0.079569 141 140 136
-0.089844 0.031250 0.081629 142 141 139
-0.085938 0.031250 0.083834 141 140 138
-0.082031 0.031250 0.086033 137 135 136
-0.078125 0.031250 0.088133 135 133 134
-0.074219 0.031250 0.090063 137 135 136
-0.070312 0.031250 0.091796 139 137 138
-0.066406 0.031250 0.093416 137 137 137
-0.062500 0.031250 0.094967 153 155 154
-0.058594 0.031250 0.096421 157 157 157
-0.054688 0.031250 0.097772 143 143 141
-0.050781 0.031250 0.099010 139 138 136
-0.046875 0.031250 0.100159 149 148 146
-0.042969 0.031250 0.101191 153 149 148
-0.039062 0.031250 0.102093 145 141 140
-0.035156 0.031250 0.102875 147 143 144
-0.031250 0.031250 0.103513 140 138 139
-0.027344 0.031250 0.104072 136 134 137
-0.023438 0.031250 0.104584 134 135 140
-0.019531 0.031250 0.105020 135 138 145
-0.015625 0.031250 0.105329 135 139 148
-0.011719 0.031250 0.105530 134 138 149
-0.007812 0.031250 0.105611 131 135 146
-0.003906 0.031250 0.105642 121 125 137
0.000000 0.031250 0.105665 121 125 136
0.003906 0.031250 0.105668 126 128 140
0.007812 0.031250 0.105659 135 138 145
0.011719 0.031250 0.105594 144 147 154
0.015625 0.031250 0.105464 146 150 153
0.019531 0.031250 0.105382 143 144 148
0.023438 0.031250 0.105417 137 139 138
0.027344 0.031250 0.105375 136 138 137
0.031250 0.031250 0.105209 142 144 141
0.035156 0.031250 0.104767 141 141 139
0.039062 0.031250 0.103960 135 135 133
0.042969 0.031250 0.102963 138 138 138
0.046875 0.031250 0.101749 149 149 149
0.050781 0.031250 0.100513 150 150 152
0.054688 0.031250 0.099375 143 143 145
0.058594 0.031250 0.098228 151 150 155
0.062500 0.031250 0.097152 149 148 153
0.066406 0.031250 0.095836 140 140 142
0.070312 0.031250 0.094100 148 148 148
0.074219 0.031250 0.092290 151 151 151
0.078125 0.031250 0.090564 156 155 154
0.082031 0.031250 0.088740 150 150 152
0.085938 0.031250 0.086867 145 144 148
0.089844 0.031250 0.085071 158 158 159
0.093750 0.031250 0.083461 166 166 164
0.097656 0.031250 0.081632 163 162 162
0.101562 0.031250 0.079217 155 155 154
0.105469 0.031250 0.076535 149 148 149
0.109375 0.031250 0.073838 146 145 145
0.113281 0.031250 0.071218 140 137 139
0.117188 0.031250 0.067572 126 122 126
0.121094 0.031250 0.061506 130 123 128
0.125000 0.031250 0.050842 144 126 135
0.128906 0.031250 0.029194 26 25 21
-0.183594 0.027344 -0.003739 158 157 162
-0.179688 0.027344 0.017639 164 162 173
-0.175781 0.027344 0.026978 140 137 156
-0.171875 0.027344 0.033860 156 152 176
-0.167969 0.027344 0.038199 156 149 180
-0.164062 0.027344 0.041520 126 121 153
-0.160156 0.027344 0.044788 134 129 160
-0.156250 0.027344 0.048042 143 139 163
-0.152344 0.027344 0.050740 138 135 154
-0.148438 0.027344 0.053089 131 129 140
-0.144531 0.027344 0.055328 137 137 139
-0.140625 0.027344 0.057522 141 144 137
-0.136719 0.027344 0.059345 146 148 135
-0.132812 0.027344 0.060589 154 156 142
-0.128906 0.027344 0.061889 143 144 130
-0.125000 0.027344 0.063452 139 139 127
-0.121094 0.027344 0.065155 136 136 126
-0.117188 0.027344 0.067134 137 137 127
-0.113281 0.027344 0.069268 142 142 134
-0.109375 0.027344 0.071445 144 144 136
-0.105469 0.027344 0.073548 141 141 133
-0.101562 0.027344 0.075491 137 137 129
-0.097656 0.027344 0.077428 140 139 134
-0.093750 0.027344 0.079396 139 138 133
-0.089844 0.027344 0.081476 140 139 135
-0.085938 0.027344 0.083680 142 141 137
-0.082031 0.027344 0.085869 145 144 142
-0.078125 0.027344 0.087961 146 145 143
-0.074219 0.027344 0.089886 143 142 140
-0.070312 0.027344 0.091612 140 139 137
-0.066406 0.027344 0.093219 149 150 145
-0.062500 0.027344 0.094754 149 150 144
-0.058594 0.027344 0.096197 150 149 144
-0.054688 0.027344 0.097561 151 151 143
-0.050781 0.027344 0.098823 153 150 143
-0.046875 0.027344 0.099993 152 149 142
-0.042969 0.027344 0.101047 150 147 140
-0.039062 0.027344 0.101977 147 144 137
-0.035156 0.027344 0.102793 144 141 136
-0.031250 0.027344 0.103458 141 140 136
-0.027344 0.027344 0.104042 140 139 137
-0.023438 0.027344 0.104565 137 138 140
-0.019531 0.027344 0.105010 133 137 140
-0.015625 0.027344 0.105312 130 135 139
-0.011719 0.027344 0.105493 129 134 140
-0.007812 0.027344 0.105564 127 134 142
-0.003906 0.027344 0.105578 121 125 136
0.000000 0.027344 0.105582 134 138 149
0.003906 0.027344 0.105561 144 146 158
0.007812 0.027344 0.105500 141 144 151
0.011719 0.027344 0.105380 136 139 146
0.015625 0.027344 0.105207 136 140 143
0.019531 0.027344 0.105083 137 138 142
0.023438 0.027344 0.105070 134 136 135
0.027344 0.027344 0.104987 132 134 133
0.031250 0.027344 0.104784 134 136 133
0.035156 0.027344 0.104319 134 134 132
0.039062 0.027344 0.103509 142 142 140
0.042969 0.027344 0.102523 152 152 152
0.046875 0.027344 0.101343 143 143 143
0.050781 0.027344 0.100178 130 130 132
0.054688 0.027344 0.099131 132 132 134
0.058594 0.027344 0.098064 146 145 150
0.062500 0.027344 0.097038 146 145 150
0.066406 0.027344 0.095780 148 148 150
0.070312 0.027344 0.094101 150 150 150
0.074219 0.027344 0.092348 152 152 152
0.078125 0.027344 0.090673 154 154 153
0.082031 0.027344 0.088877 141 140 141
0.085938 0.027344 0.087018 146 146 149
0.089844 0.027344 0.085218 158 158 159
0.093750 0.027344 0.083606 168 168 166
0.097656 0.027344 0.081801 166 166 165
0.101562 0.027344 0.079420 159 159 158
0.105469 0.027344 0.076781 152 152 152
0.109375 0.027344 0.074079 149 148 148
0.113281 0.027344 0.071376 142 139 141
0.117188 0.027344 0.067556 128 125 128
0.121094 0.027344 0.061505 130 122 128
0.125000 0.027344 0.051316 141 121 133
0.128906 0.027344 0.032526 39 33 32
-0.183594 0.023438 0.000851 195 194 199
-0.179688 0.023438 0.019333 164 162 172
-0.175781 0.023438 0.028036 141 137 153
-0.171875 0.023438 0.034506 142 137 159
-0.167969 0.023438 0.038577 146 140 167
-0.164062 0.023438 0.041858 143 137 165
-0.160156 0.023438 0.045159 137 131 158
-0.156250 0.023438 0.048370 146 142 165
-0.152344 0.023438 0.051005 145 142 159
-0.148438 0.023438 0.053277 141 140 148
-0.144531 0.023438 0.055440 144 145 147
-0.140625 0.023438 0.057564 142 145 138
-0.136719 0.023438 0.059315 134 138 125
-0.132812 0.023438 0.060512 135 139 124
-0.128906 0.023438 0.061786 138 140 129
-0.125000 0.023438 0.063337 136 136 126
-0.121094 0.023438 0.065022 134 134 126
-0.117188 0.023438 0.066970 135 135 127
-0.113281 0.023438 0.069080 140 140 132
-0.109375 0.023438 0.071238 143 143 135
-0.105469 0.023438 0.073337 144 143 138
-0.101562 0.023438 0.075289 143 142 137
-0.097656 0.023438 0.077242 142 141 136
-0.093750 0.023438 0.079227 138 137 132
-0.089844 0.023438 0.081319 136 135 131
-0.085938 0.023438 0.083518 140 139 135
-0.082031 0.023438 0.085692 146 145 143
-0.078125 0.023438 0.087769 149 148 146
-0.074219 0.023438 0.089675 147 146 144
-0.070312 0.023438 0.091389 143 142 138
-0.066406 0.023438 0.092981 142 143 135
-0.062500 0.023438 0.094501 142 144 133
-0.058594 0.023438 0.095937 144 144 134
-0.054688 0.023438 0.097306 145 145 133
-0.050781 0.023438 0.098580 149 147 135
-0.046875 0.023438 0.099770 149 147 135
-0.042969 0.023438 0.100849 149 147 135
-0.039062 0.023438 0.101811 148 145 136
-0.035156 0.023438 0.102662 140 137 128
-0.031250 0.023438 0.103355 138 138 130
-0.027344 0.023438 0.103957 137 138 133
-0.023438 0.023438 0.104487 136 138 135
-0.019531 0.023438 0.104934 134 138 139
-0.015625 0.023438 0.105234 132 137 140
-0.011719 0.023438 0.105412 129 137 140
-0.007812 0.023438 0.105485 129 136 142
-0.003906 0.023438 0.105491 139 143 152
0.000000 0.023438 0.105476 141 145 156
0.003906 0.023438 0.105417 140 143 152
0.007812 0.023438 0.105308 133 136 143
0.011719 0.023438 0.105146 130 133 138
0.015625 0.023438 0.104933 132 136 139
0.019531 0.023438 0.104764 135 136 138
0.023438 0.023438 0.104705 132 134 133
0.027344 0.023438 0.104578 127 129 126
0.031250 0.023438 0.104332 137 139 136
0.035156 0.023438 0.103833 143 143 141
0.039062 0.023438 0.103014 146 146 144
0.042969 0.023438 0.102032 147 147 147
0.046875 0.023438 0.100893 135 135 135
0.050781 0.023438 0.099812 129 129 131
0.054688 0.023438 0.098860 139 139 141
0.058594 0.023438 0.097869 145 144 149
0.062500 0.023438 0.096889 145 144 149
0.066406 0.023438 0.095680 147 147 149
0.070312 0.023438 0.094053 149 149 149
0.074219 0.023438 0.092358 150 150 150
0.078125 0.023438 0.090739 154 153 152
0.082031 0.023438 0.088981 143 143 142
0.085938 0.023438 0.087141 146 146 148
0.089844 0.023438 0.085344 158 159 159
0.093750 0.023438 0.083723 170 170 168
0.097656 0.023438 0.081923 170 170 169
0.101562 0.023438 0.079562 163 163 162
0.105469 0.023438 0.076941 155 155 156
0.109375 0.023438 0.074205 151 151 151
0.113281 0.023438 0.071354 144 143 144
0.117188 0.023438 0.067313 133 130 132
0.121094 0.023438 0.061361 138 131 137
0.125000 0.023438 0.051793 165 144 156
0.128906 0.023438 0.035920 91 75 76
-0.183594 0.019531 0.003942 197 194 198
-0.179688 0.019531 0.020733 166 163 172
-0.175781 0.019531 0.028930 150 143 159
-0.171875 0.019531 0.034910 132 125 145
-0.167969 0.019531 0.038789 131 123 145
-0.164062 0.019531 0.042046 150 145 168
-0.160156 0.019531 0.045372 134 129 151
-0.156250 0.019531 0.048532 143 138 158
-0.152344 0.019531 0.051108 140 138 152
-0.148438 0.019531 0.053316 140 139 146
-0.144531 0.019531 0.055421 147 148 150
-0.140625 0.019531 0.057498 143 148 142
-0.136719 0.019531 0.059216 134 140 130
-0.132812 0.019531 0.060389 131 137 125
-0.128906 0.019531 0.061655 138 139 133
-0.125000 0.019531 0.063212 139 138 133
-0.121094 0.019531 0.064899 138 137 132
-0.117188 0.019531 0.066829 138 137 132
-0.113281 0.019531 0.068919 139 138 133
-0.109375 0.019531 0.071057 143 142 137
-0.105469 0.019531 0.073138 146 145 141
-0.101562 0.019531 0.075095 148 147 143
-0.097656 0.019531 0.077064 147 146 142
-0.093750 0.019531 0.079061 142 141 137
-0.089844 0.019531 0.081158 136 135 131
-0.085938 0.019531 0.083349 135 134 130
-0.082031 0.019531 0.085507 139 138 134
-0.078125 0.019531 0.087568 141 140 136
-0.074219 0.019531 0.089449 139 138 134
-0.070312 0.019531 0.091152 136 135 130
-0.066406 0.019531 0.092733 140 140 130
-0.062500 0.019531 0.094239 140 140 128
-0.058594 0.019531 0.095665 142 140 128
-0.054688 0.019531 0.097031 142 140 127
-0.050781 0.019531 0.098309 143 139 127
-0.046875 0.019531 0.099517 144 140 128
-0.042969 0.019531 0.100626 146 142 130
-0.039062 0.019531 0.101615 145 143 131
-0.035156 0.019531 0.102491 142 139 130
-0.031250 0.019531 0.103202 141 141 133
-0.027344 0.019531 0.103810 142 143 138
-0.023438 0.019531 0.104337 143 145 142
-0.019531 0.019531 0.104776 141 145 146
-0.015625 0.019531 0.105066 140 146 146
-0.011719 0.019531 0.105247 137 145 147
-0.007812 0.019531 0.105327 136 144 147
-0.003906 0.019531 0.105329 144 149 155
0.000000 0.019531 0.105305 142 147 153
0.003906 0.019531 0.105228 137 140 147
0.007812 0.019531 0.105086 132 135 140
0.011719 0.019531 0.104896 133 137 140
0.015625 0.019531 0.104648 138 142 143
0.019531 0.019531 0.104427 140 142 141
0.023438 0.019531 0.104312 137 139 136
0.027344 0.019531 0.104135 130 132 129
0.031250 0.019531 0.103832 138 140 137
0.035156 0.019531 0.103289 142 142 140
0.039062 0.019531 0.102452 146 146 144
0.042969 0.019531 0.101469 150 150 150
0.046875 0.019531 0.100369 143 143 145
0.050781 0.019531 0.099363 137 136 141
0.054688 0.019531 0.098504 145 144 149
0.058594 0.019531 0.097600 144 143 148
0.062500 0.019531 0.096682 144 143 148
0.066406 0.019531 0.095533 146 146 148
0.070312 0.019531 0.093967 148 148 148
0.074219 0.019531 0.092340 149 149 149
0.078125 0.019531 0.090783 155 155 154
0.082031 0.019531 0.089074 152 152 150
0.085938 0.019531 0.087262 153 153 154
0.089844 0.019531 0.085472 161 162 161
0.093750 0.019531 0.083849 173 174 171
0.097656 0.019531 0.082060 174 174 173
0.101562 0.019531 0.079733 168 168 166
0.105469 0.019531 0.077142 160 159 160
0.109375 0.019531 0.074382 155 154 154
0.113281 0.019531 0.071356 148 147 148
0.117188 0.019531 0.067103 138 137 138
0.121094 0.019531 0.061379 147 142 146
0.125000 0.019531 0.052152 181 165 175
0.128906 0.019531 0.038364 143 126 130
-0.183594 0.015625 0.006395 194 191 195
-0.179688 0.015625 0.021853 167 165 170
-0.175781 0.015625 0.029584 162 156 168
-0.171875 0.015625 0.035122 140 134 148
-0.167969 0.015625 0.038792 124 117 133
-0.164062 0.015625 0.042040 143 136 154
-0.160156 0.015625 0.045393 143 136 154
-0.156250 0.015625 0.048515 143 139 154
-0.152344 0.015625 0.051067 132 130 141
-0.148438 0.015625 0.053248 126 127 132
-0.144531 0.015625 0.055330 135 139 142
-0.140625 0.015625 0.057391 139 145 143
-0.136719 0.015625 0.059107 134 141 134
-0.132812 0.015625 0.060269 134 139 133
-0.128906 0.015625 0.061539 140 140 138
-0.125000 0.015625 0.063106 142 141 140
-0.121094 0.015625 0.064798 144 143 141
-0.117188 0.015625 0.066713 143 142 140
-0.113281 0.015625 0.068785 142 141 139
-0.109375 0.015625 0.070900 142 141 139
-0.105469 0.015625 0.072964 143 142 140
-0.101562 0.015625 0.074913 145 144 140
-0.097656 0.015625 0.076884 147 146 142
-0.093750 0.015625 0.078877 144 143 139
-0.089844 0.015625 0.080966 140 139 135
-0.085938 0.015625 0.083149 137 136 132
-0.082031 0.015625 0.085300 136 135 131
-0.078125 0.015625 0.087357 137 136 132
-0.074219 0.015625 0.089223 139 138 134
-0.070312 0.015625 0.090918 141 140 135
-0.066406 0.015625 0.092492 143 143 133
-0.062500 0.015625 0.093989 143 143 131
-0.058594 0.015625 0.095416 143 141 129
-0.054688 0.015625 0.096787 141 139 126
-0.050781 0.015625 0.098075 140 136 124
-0.046875 0.015625 0.099301 140 136 124
-0.042969 0.015625 0.100432 141 137 126
-0.039062 0.015625 0.101433 142 140 128
-0.035156 0.015625 0.102314 144 141 132
-0.031250 0.015625 0.103022 143 144 136
-0.027344 0.015625 0.103621 145 146 141
-0.023438 0.015625 0.104139 143 147 146
-0.019531 0.015625 0.104564 143 149 149
-0.015625 0.015625 0.104840 140 148 150
-0.011719 0.015625 0.105021 137 147 149
-0.007812 0.015625 0.105113 136 146 148
-0.003906 0.015625 0.105124 134 142 145
0.000000 0.015625 0.105109 137 142 146
0.003906 0.015625 0.105033 137 141 144
0.007812 0.015625 0.104870 136 140 143
0.011719 0.015625 0.104658 136 140 141
0.015625 0.015625 0.104393 135 139 138
0.019531 0.015625 0.104136 134 136 133
0.023438 0.015625 0.103967 131 133 128
0.027344 0.015625 0.103721 141 143 140
0.031250 0.015625 0.103343 139 141 138
0.035156 0.015625 0.102747 134 134 132
0.039062 0.015625 0.101898 141 141 139
0.042969 0.015625 0.100924 160 160 162
0.046875 0.015625 0.099867 162 162 164
0.050781 0.015625 0.098930 150 149 154
0.054688 0.015625 0.098162 146 145 150
