ply
    format ascii 1.0
    element vertex 62948
    property float x
    property float y
    property float z
    property uchar red
    property uchar green
    property uchar blue
    end_header
0.054688 -0.687500 -0.036528 19 34 62
0.058594 -0.687500 -0.041169 18 33 61
0.062500 -0.687500 -0.046080 20 35 64
0.066406 -0.687500 -0.052383 21 37 66
0.070312 -0.687500 -0.060156 24 36 67
-0.281250 -0.691406 -0.008690 60 80 123
-0.277344 -0.691406 0.010013 47 75 128
-0.273438 -0.691406 0.020547 35 60 109
-0.269531 -0.691406 0.027799 34 58 104
-0.265625 -0.691406 0.032987 30 53 95
-0.261719 -0.691406 0.036496 29 51 91
-0.257812 -0.691406 0.039133 23 43 80
-0.253906 -0.691406 0.041580 22 41 76
-0.250000 -0.691406 0.043963 22 41 76
-0.246094 -0.691406 0.045549 22 42 76
-0.242188 -0.691406 0.046414 24 46 81
-0.238281 -0.691406 0.047074 25 48 83
-0.234375 -0.691406 0.047459 25 48 83
-0.230469 -0.691406 0.047111 25 48 83
-0.226562 -0.691406 0.045994 25 47 81
-0.222656 -0.691406 0.044559 24 46 78
-0.218750 -0.691406 0.043021 23 43 74
-0.214844 -0.691406 0.041112 21 40 69
-0.210938 -0.691406 0.038692 19 36 63
-0.207031 -0.691406 0.036208 19 36 61
-0.203125 -0.691406 0.033707 18 33 57
-0.199219 -0.691406 0.030675 16 31 54
-0.195312 -0.691406 0.026906 15 30 52
-0.191406 -0.691406 0.023372 15 28 49
-0.187500 -0.691406 0.019613 17 29 50
-0.183594 -0.691406 0.013373 12 22 41
-0.179688 -0.691406 -0.000332 24 40 66
-0.027344 -0.691406 -0.037172 37 55 77
-0.023438 -0.691406 -0.059760 29 49 79
-0.019531 -0.691406 -0.050757 24 44 75
-0.015625 -0.691406 -0.044867 24 41 68
-0.011719 -0.691406 -0.041699 20 34 57
-0.007812 -0.691406 -0.039066 17 30 50
-0.003906 -0.691406 -0.036424 18 30 51
0.000000 -0.691406 -0.033613 17 30 50
0.003906 -0.691406 -0.031343 15 28 49
0.007812 -0.691406 -0.029648 15 29 50
0.011719 -0.691406 -0.028102 15 28 50
0.015625 -0.691406 -0.026383 14 27 49
0.019531 -0.691406 -0.025385 15 29 50
0.023438 -0.691406 -0.025279 16 29 51
0.027344 -0.691406 -0.025389 16 29 50
0.031250 -0.691406 -0.025363 17 30 52
0.035156 -0.691406 -0.025845 17 31 54
0.039062 -0.691406 -0.027111 17 31 54
0.042969 -0.691406 -0.028498 17 31 56
0.046875 -0.691406 -0.030203 17 31 56
0.050781 -0.691406 -0.032818 17 32 58
0.054688 -0.691406 -0.036758 18 34 61
0.058594 -0.691406 -0.041370 17 31 59
0.062500 -0.691406 -0.046227 18 34 62
0.066406 -0.691406 -0.052764 20 36 64
0.070312 -0.691406 -0.060815 20 29 57
-0.281250 -0.695312 -0.006712 58 78 119
-0.277344 -0.695312 0.010592 47 74 125
-0.273438 -0.695312 0.020577 34 58 105
-0.269531 -0.695312 0.027490 33 57 102
-0.265625 -0.695312 0.032514 31 54 96
-0.261719 -0.695312 0.035867 30 54 94
-0.257812 -0.695312 0.038310 25 47 84
-0.253906 -0.695312 0.040430 22 43 77
-0.250000 -0.695312 0.042468 20 39 71
-0.246094 -0.695312 0.043736 18 36 67
-0.242188 -0.695312 0.044334 19 36 67
-0.238281 -0.695312 0.044782 18 35 65
-0.234375 -0.695312 0.045051 18 35 64
-0.230469 -0.695312 0.044686 18 35 64
-0.226562 -0.695312 0.043613 18 35 63
-0.222656 -0.695312 0.042254 18 35 63
-0.218750 -0.695312 0.040785 18 34 61
-0.214844 -0.695312 0.038950 17 32 57
-0.210938 -0.695312 0.036622 15 29 52
-0.207031 -0.695312 0.034236 16 30 53
-0.203125 -0.695312 0.031837 16 29 51
-0.199219 -0.695312 0.028911 15 28 50
-0.195312 -0.695312 0.025180 15 28 50
-0.191406 -0.695312 0.021608 14 26 47
-0.187500 -0.695312 0.017610 17 30 50
-0.183594 -0.695312 0.010403 14 25 45
-0.179688 -0.695312 -0.007212 29 44 75
-0.027344 -0.695312 -0.037851 39 59 81
-0.023438 -0.695312 -0.059633 31 51 81
-0.019531 -0.695312 -0.050872 24 43 74
-0.015625 -0.695312 -0.044985 23 40 66
-0.011719 -0.695312 -0.041755 18 32 54
-0.007812 -0.695312 -0.039093 17 28 50
-0.003906 -0.695312 -0.036447 18 31 52
0.000000 -0.695312 -0.033622 17 30 52
0.003906 -0.695312 -0.031325 16 30 52
0.007812 -0.695312 -0.029592 17 32 55
0.011719 -0.695312 -0.028008 18 34 58
0.015625 -0.695312 -0.026251 19 36 62
0.019531 -0.695312 -0.025242 22 39 66
0.023438 -0.695312 -0.025169 22 40 66
0.027344 -0.695312 -0.025314 21 38 64
0.031250 -0.695312 -0.025333 22 38 64
0.035156 -0.695312 -0.025864 20 36 62
0.039062 -0.695312 -0.027177 18 34 60
0.042969 -0.695312 -0.028608 18 34 60
0.046875 -0.695312 -0.030351 16 31 56
0.050781 -0.695312 -0.033042 16 31 57
0.054688 -0.695312 -0.037014 17 32 59
0.058594 -0.695312 -0.041595 17 31 59
0.062500 -0.695312 -0.046490 19 35 63
0.066406 -0.695312 -0.053688 22 39 67
0.070312 -0.695312 -0.062085 26 36 63
-0.281250 -0.699219 -0.005237 51 68 107
-0.277344 -0.699219 0.011010 43 66 112
-0.273438 -0.699219 0.020615 35 57 100
-0.269531 -0.699219 0.027252 33 57 97
-0.265625 -0.699219 0.032170 29 52 91
-0.261719 -0.699219 0.035451 28 51 89
-0.257812 -0.699219 0.037803 26 49 86
-0.253906 -0.699219 0.039750 24 47 84
-0.250000 -0.699219 0.041564 23 45 80
-0.246094 -0.699219 0.042594 21 42 77
-0.242188 -0.699219 0.042881 19 39 72
-0.238281 -0.699219 0.042955 17 33 63
-0.234375 -0.699219 0.042897 16 31 59
-0.230469 -0.699219 0.042282 15 29 57
-0.226562 -0.699219 0.041055 15 29 56
-0.222656 -0.699219 0.039604 15 29 55
-0.218750 -0.699219 0.038127 14 28 52
-0.214844 -0.699219 0.036366 14 28 51
-0.210938 -0.699219 0.034179 14 27 49
-0.207031 -0.699219 0.031950 14 28 49
-0.203125 -0.699219 0.029680 14 27 49
-0.199219 -0.699219 0.026921 14 27 49
-0.195312 -0.699219 0.023220 15 29 51
-0.191406 -0.699219 0.019748 13 26 47
-0.187500 -0.699219 0.015514 16 29 50
-0.183594 -0.699219 0.006487 13 22 42
-0.027344 -0.699219 -0.045098 37 57 79
-0.023438 -0.699219 -0.059621 30 51 81
-0.019531 -0.699219 -0.050977 25 45 77
-0.015625 -0.699219 -0.045071 26 46 73
-0.011719 -0.699219 -0.041695 23 40 65
-0.007812 -0.699219 -0.038971 21 36 61
-0.003906 -0.699219 -0.036312 22 38 62
0.000000 -0.699219 -0.033485 20 35 59
0.003906 -0.699219 -0.031171 18 33 57
0.007812 -0.699219 -0.029446 17 33 57
0.011719 -0.699219 -0.027886 17 33 57
0.015625 -0.699219 -0.026129 19 35 60
0.019531 -0.699219 -0.025118 20 36 62
0.023438 -0.699219 -0.025060 19 35 60
0.027344 -0.699219 -0.025220 18 34 58
0.031250 -0.699219 -0.025282 19 34 59
0.035156 -0.699219 -0.025864 18 33 57
0.039062 -0.699219 -0.027226 17 33 58
0.042969 -0.699219 -0.028705 18 35 60
0.046875 -0.699219 -0.030456 18 33 59
0.050781 -0.699219 -0.033199 17 33 58
0.054688 -0.699219 -0.037228 18 33 60
0.058594 -0.699219 -0.041864 19 33 60
0.062500 -0.699219 -0.046703 21 37 63
0.066406 -0.699219 -0.054292 25 43 69
0.070312 -0.699219 -0.063827 36 50 75
-0.285156 -0.703125 -0.021525 35 38 55
-0.281250 -0.703125 -0.003552 62 84 128
-0.277344 -0.703125 0.011281 41 64 110
-0.273438 -0.703125 0.020534 35 56 99
-0.269531 -0.703125 0.026945 32 55 95
-0.265625 -0.703125 0.031790 28 50 89
-0.261719 -0.703125 0.035052 26 49 86
-0.257812 -0.703125 0.037352 24 47 84
-0.253906 -0.703125 0.039224 23 46 83
-0.250000 -0.703125 0.040944 21 44 80
-0.246094 -0.703125 0.041839 21 44 80
-0.242188 -0.703125 0.041927 20 41 76
-0.238281 -0.703125 0.041751 18 37 69
-0.234375 -0.703125 0.041416 17 35 65
-0.230469 -0.703125 0.040517 17 34 63
-0.226562 -0.703125 0.039040 17 33 61
-0.222656 -0.703125 0.037356 16 31 57
-0.218750 -0.703125 0.035734 15 30 54
-0.214844 -0.703125 0.033937 15 30 54
-0.210938 -0.703125 0.031823 15 29 52
-0.207031 -0.703125 0.029706 15 30 52
-0.203125 -0.703125 0.027502 14 28 48
-0.199219 -0.703125 0.024836 14 27 48
-0.195312 -0.703125 0.021189 15 29 52
-0.191406 -0.703125 0.017785 14 26 48
-0.187500 -0.703125 0.013080 18 32 54
-0.183594 -0.703125 0.003051 17 28 52
-0.027344 -0.703125 -0.046726 32 49 72
-0.023438 -0.703125 -0.059635 27 46 76
-0.019531 -0.703125 -0.051116 22 41 72
-0.015625 -0.703125 -0.045149 24 42 70
-0.011719 -0.703125 -0.041622 22 38 63
-0.007812 -0.703125 -0.038803 18 33 57
-0.003906 -0.703125 -0.036117 18 32 56
0.000000 -0.703125 -0.033277 17 31 55
0.003906 -0.703125 -0.030951 16 30 54
0.007812 -0.703125 -0.029251 15 29 53
0.011719 -0.703125 -0.027730 15 29 52
0.015625 -0.703125 -0.026003 17 31 55
0.019531 -0.703125 -0.025013 18 33 57
0.023438 -0.703125 -0.024968 18 34 58
0.027344 -0.703125 -0.025142 20 36 60
0.031250 -0.703125 -0.025231 21 37 63
0.035156 -0.703125 -0.025841 20 36 61
0.039062 -0.703125 -0.027234 19 35 60
0.042969 -0.703125 -0.028748 19 35 61
0.046875 -0.703125 -0.030490 18 34 59
0.050781 -0.703125 -0.033251 17 33 59
0.054688 -0.703125 -0.037320 18 32 58
0.058594 -0.703125 -0.042028 18 31 56
0.062500 -0.703125 -0.046973 19 33 58
0.066406 -0.703125 -0.054898 25 41 66
0.070312 -0.703125 -0.065227 41 56 77
-0.285156 -0.707031 -0.021669 59 71 98
-0.281250 -0.707031 -0.001901 48 75 120
-0.277344 -0.707031 0.011287 34 59 103
-0.273438 -0.707031 0.020306 32 54 96
-0.269531 -0.707031 0.026536 32 55 95
-0.265625 -0.707031 0.031290 29 52 90
-0.261719 -0.707031 0.034570 26 48 84
-0.257812 -0.707031 0.036842 24 46 81
-0.253906 -0.707031 0.038694 22 44 78
-0.250000 -0.707031 0.040369 21 43 77
-0.246094 -0.707031 0.041157 21 43 77
-0.242188 -0.707031 0.041095 19 40 72
-0.238281 -0.707031 0.040752 18 37 68
-0.234375 -0.707031 0.040207 17 35 65
-0.230469 -0.707031 0.039068 17 34 61
-0.226562 -0.707031 0.037330 16 32 59
-0.222656 -0.707031 0.035371 15 30 55
-0.218750 -0.707031 0.033552 14 28 51
-0.214844 -0.707031 0.031643 14 29 51
-0.210938 -0.707031 0.029504 14 28 50
-0.207031 -0.707031 0.027431 15 30 51
-0.203125 -0.707031 0.025258 14 28 47
-0.199219 -0.707031 0.022660 13 26 46
-0.195312 -0.707031 0.019062 14 27 49
-0.191406 -0.707031 0.015575 13 25 45
-0.187500 -0.707031 0.010501 17 29 48
-0.183594 -0.707031 0.000174 15 24 46
-0.027344 -0.707031 -0.044220 33 51 74
-0.023438 -0.707031 -0.059815 29 49 79
-0.019531 -0.707031 -0.051048 24 43 74
-0.015625 -0.707031 -0.045082 26 45 72
-0.011719 -0.707031 -0.041485 26 43 69
-0.007812 -0.707031 -0.038586 21 37 61
-0.003906 -0.707031 -0.035852 21 36 61
0.000000 -0.707031 -0.032987 20 37 61
0.003906 -0.707031 -0.030670 20 37 62
0.007812 -0.707031 -0.029006 19 37 62
0.011719 -0.707031 -0.027532 19 36 61
0.015625 -0.707031 -0.025850 20 37 61
0.019531 -0.707031 -0.024893 20 36 61
0.023438 -0.707031 -0.024861 20 36 60
0.027344 -0.707031 -0.025045 20 37 61
0.031250 -0.707031 -0.025143 20 36 61
0.035156 -0.707031 -0.025769 19 35 59
0.039062 -0.707031 -0.027189 18 33 57
0.042969 -0.707031 -0.028741 18 34 59
0.046875 -0.707031 -0.030504 18 34 60
0.050781 -0.707031 -0.033281 18 34 62
0.054688 -0.707031 -0.037420 18 33 61
0.058594 -0.707031 -0.042306 17 30 56
0.062500 -0.707031 -0.047372 19 32 57
0.066406 -0.707031 -0.055624 26 42 68
0.070312 -0.707031 -0.066253 42 56 76
-0.285156 -0.710938 -0.018728 44 56 87
-0.281250 -0.710938 -0.000700 41 67 110
-0.277344 -0.710938 0.011472 33 59 100
-0.273438 -0.710938 0.020212 31 54 94
-0.269531 -0.710938 0.026186 32 55 94
-0.265625 -0.710938 0.030797 29 53 90
-0.261719 -0.710938 0.034039 25 46 81
-0.257812 -0.710938 0.036248 22 43 76
-0.253906 -0.710938 0.038024 20 40 73
-0.250000 -0.710938 0.039597 20 40 73
-0.246094 -0.710938 0.040261 20 41 74
-0.242188 -0.710938 0.040042 19 39 70
-0.238281 -0.710938 0.039527 19 38 68
-0.234375 -0.710938 0.038803 18 35 65
-0.230469 -0.710938 0.037493 16 33 61
-0.226562 -0.710938 0.035581 16 32 58
-0.222656 -0.710938 0.033448 14 30 54
-0.218750 -0.710938 0.031490 14 29 51
-0.214844 -0.710938 0.029485 14 29 51
-0.210938 -0.710938 0.027292 14 29 50
-0.207031 -0.710938 0.025220 15 31 51
-0.203125 -0.710938 0.023047 14 28 48
-0.199219 -0.710938 0.020491 13 26 46
-0.195312 -0.710938 0.016905 14 27 49
-0.191406 -0.710938 0.013215 13 24 44
-0.187500 -0.710938 0.007692 16 27 46
-0.183594 -0.710938 -0.002661 19 31 55
-0.027344 -0.710938 -0.040614 33 51 74
-0.023438 -0.710938 -0.060347 30 50 81
-0.019531 -0.710938 -0.050972 24 43 74
-0.015625 -0.710938 -0.045064 27 46 73
-0.011719 -0.710938 -0.041361 28 46 72
-0.007812 -0.710938 -0.038373 24 39 64
-0.003906 -0.710938 -0.035588 22 38 63
0.000000 -0.710938 -0.032698 21 37 62
0.003906 -0.710938 -0.030388 20 36 61
0.007812 -0.710938 -0.028754 19 36 61
0.011719 -0.710938 -0.027319 19 35 60
0.015625 -0.710938 -0.025681 19 35 59
0.019531 -0.710938 -0.024743 18 34 57
0.023438 -0.710938 -0.024716 18 33 56
0.027344 -0.710938 -0.024906 18 33 56
0.031250 -0.710938 -0.025014 18 33 56
0.035156 -0.710938 -0.025659 18 33 56
0.039062 -0.710938 -0.027105 17 32 56
0.042969 -0.710938 -0.028702 18 34 59
0.046875 -0.710938 -0.030509 18 34 61
0.050781 -0.710938 -0.033324 19 35 63
0.054688 -0.710938 -0.037522 19 34 62
0.058594 -0.710938 -0.042542 18 31 57
0.062500 -0.710938 -0.047803 20 33 58
0.066406 -0.710938 -0.056266 28 43 70
0.070312 -0.710938 -0.067255 40 52 75
-0.285156 -0.714844 -0.016573 52 74 101
-0.281250 -0.714844 0.000830 45 74 118
-0.277344 -0.714844 0.012016 34 59 102
-0.273438 -0.714844 0.020173 30 52 93
-0.269531 -0.714844 0.025893 31 54 93
-0.265625 -0.714844 0.030314 28 51 88
-0.261719 -0.714844 0.033426 24 45 81
-0.257812 -0.714844 0.035528 22 43 77
-0.253906 -0.714844 0.037196 20 40 73
-0.250000 -0.714844 0.038632 20 39 72
-0.246094 -0.714844 0.039155 20 40 72
-0.242188 -0.714844 0.038795 19 37 68
-0.238281 -0.714844 0.038133 19 37 66
-0.234375 -0.714844 0.037272 18 35 62
-0.230469 -0.714844 0.035850 17 33 60
-0.226562 -0.714844 0.033825 16 32 58
-0.222656 -0.714844 0.031585 15 30 53
-0.218750 -0.714844 0.029537 15 30 52
-0.214844 -0.714844 0.027462 15 30 52
-0.210938 -0.714844 0.025210 15 30 51
-0.207031 -0.714844 0.023107 15 30 50
-0.203125 -0.714844 0.020866 14 28 47
-0.199219 -0.714844 0.018242 14 27 47
-0.195312 -0.714844 0.014584 15 28 49
-0.191406 -0.714844 0.010657 13 23 43
-0.187500 -0.714844 0.004529 17 26 45
-0.183594 -0.714844 -0.005678 33 47 73
-0.027344 -0.714844 -0.033718 32 50 73
-0.023438 -0.714844 -0.060121 29 49 80
-0.019531 -0.714844 -0.050862 22 41 71
-0.015625 -0.714844 -0.044992 24 41 68
-0.011719 -0.714844 -0.041226 25 42 67
-0.007812 -0.714844 -0.038167 22 36 60
-0.003906 -0.714844 -0.035330 21 35 59
0.000000 -0.714844 -0.032394 20 34 58
0.003906 -0.714844 -0.030080 18 33 57
0.007812 -0.714844 -0.028464 18 33 58
0.011719 -0.714844 -0.027064 18 33 57
0.015625 -0.714844 -0.025471 18 33 58
0.019531 -0.714844 -0.024553 18 34 59
0.023438 -0.714844 -0.024531 19 36 61
0.027344 -0.714844 -0.024746 19 35 60
0.031250 -0.714844 -0.024883 19 35 59
0.035156 -0.714844 -0.025554 18 34 59
0.039062 -0.714844 -0.027040 18 33 58
0.042969 -0.714844 -0.028704 18 34 60
0.046875 -0.714844 -0.030566 18 33 60
0.050781 -0.714844 -0.033413 17 32 59
0.054688 -0.714844 -0.037633 18 32 60
0.058594 -0.714844 -0.042678 17 30 56
0.062500 -0.714844 -0.048198 20 33 58
0.066406 -0.714844 -0.056920 27 42 70
0.070312 -0.714844 -0.068186 35 45 71
-0.285156 -0.718750 -0.014417 52 74 94
-0.281250 -0.718750 0.002369 46 77 118
-0.277344 -0.718750 0.012618 32 56 99
-0.273438 -0.718750 0.020125 31 54 95
-0.269531 -0.718750 0.025562 31 55 94
-0.265625 -0.718750 0.029833 27 49 86
-0.261719 -0.718750 0.032817 24 45 81
-0.257812 -0.718750 0.034770 23 44 79
-0.253906 -0.718750 0.036273 21 42 75
-0.250000 -0.718750 0.037528 20 41 73
-0.246094 -0.718750 0.037887 20 40 71
-0.242188 -0.718750 0.037382 18 36 66
-0.238281 -0.718750 0.036573 18 35 63
-0.234375 -0.718750 0.035573 16 33 59
-0.230469 -0.718750 0.034041 16 32 58
-0.226562 -0.718750 0.031922 15 31 55
-0.222656 -0.718750 0.029601 14 29 51
-0.218750 -0.718750 0.027493 14 29 50
-0.214844 -0.718750 0.025370 14 29 50
-0.210938 -0.718750 0.023066 14 29 49
-0.207031 -0.718750 0.020924 14 29 48
-0.203125 -0.718750 0.018623 14 28 48
-0.199219 -0.718750 0.015952 14 28 49
-0.195312 -0.718750 0.012176 15 28 49
-0.191406 -0.718750 0.008027 13 23 41
-0.187500 -0.718750 0.001184 15 21 38
-0.183594 -0.718750 -0.009536 17 21 41
-0.027344 -0.718750 -0.042878 32 51 74
-0.023438 -0.718750 -0.059354 30 51 82
-0.019531 -0.718750 -0.050499 23 42 73
-0.015625 -0.718750 -0.044752 25 43 70
-0.011719 -0.718750 -0.040958 27 45 70
-0.007812 -0.718750 -0.037870 23 37 61
-0.003906 -0.718750 -0.035024 22 36 59
0.000000 -0.718750 -0.032051 21 36 60
0.003906 -0.718750 -0.029733 19 35 59
0.007812 -0.718750 -0.028131 20 36 61
0.011719 -0.718750 -0.026751 19 35 60
0.015625 -0.718750 -0.025195 19 35 60
0.019531 -0.718750 -0.024306 20 36 62
0.023438 -0.718750 -0.024300 20 37 63
0.027344 -0.718750 -0.024548 19 35 60
0.031250 -0.718750 -0.024723 18 33 57
0.035156 -0.718750 -0.025435 17 32 57
0.039062 -0.718750 -0.026974 17 33 58
0.042969 -0.718750 -0.028711 18 35 61
0.046875 -0.718750 -0.030640 18 34 61
0.050781 -0.718750 -0.033518 17 32 59
0.054688 -0.718750 -0.037760 18 33 60
0.058594 -0.718750 -0.042864 18 31 57
0.062500 -0.718750 -0.048675 20 33 59
0.066406 -0.718750 -0.057410 25 38 67
0.070312 -0.718750 -0.068744 24 31 55
-0.285156 -0.722656 -0.012179 44 67 91
-0.281250 -0.722656 0.003616 47 78 119
-0.277344 -0.722656 0.013161 30 54 96
-0.273438 -0.722656 0.020084 31 54 94
-0.269531 -0.722656 0.025199 31 55 93
-0.265625 -0.722656 0.029294 26 48 85
-0.261719 -0.722656 0.032143 24 46 82
-0.257812 -0.722656 0.033948 22 43 79
-0.253906 -0.722656 0.035270 20 40 74
-0.250000 -0.722656 0.036337 19 39 72
-0.246094 -0.722656 0.036544 19 39 71
-0.242188 -0.722656 0.035903 18 36 66
-0.238281 -0.722656 0.034965 18 35 64
-0.234375 -0.722656 0.033859 17 34 62
-0.230469 -0.722656 0.032241 17 34 60
-0.226562 -0.722656 0.030057 16 31 55
-0.222656 -0.722656 0.027705 14 29 51
-0.218750 -0.722656 0.025575 14 29 50
-0.214844 -0.722656 0.023401 15 30 50
-0.210938 -0.722656 0.021022 14 29 49
-0.207031 -0.722656 0.018796 14 29 49
-0.203125 -0.722656 0.016397 14 29 49
-0.199219 -0.722656 0.013670 14 28 49
-0.195312 -0.722656 0.009649 15 28 50
-0.191406 -0.722656 0.005168 15 26 46
-0.187500 -0.722656 -0.002152 21 31 51
-0.183594 -0.722656 -0.014008 22 26 44
-0.027344 -0.722656 -0.064285 31 49 72
-0.023438 -0.722656 -0.058612 29 50 80
-0.019531 -0.722656 -0.050035 22 40 71
-0.015625 -0.722656 -0.044479 24 42 70
-0.011719 -0.722656 -0.040628 28 47 73
-0.007812 -0.722656 -0.037488 23 39 63
-0.003906 -0.722656 -0.034645 21 35 59
0.000000 -0.722656 -0.031674 20 35 60
0.003906 -0.722656 -0.029360 19 34 59
0.007812 -0.722656 -0.027769 19 35 60
0.011719 -0.722656 -0.026393 19 35 60
0.015625 -0.722656 -0.024860 18 34 59
0.019531 -0.722656 -0.024010 19 35 60
0.023438 -0.722656 -0.024042 19 35 60
0.027344 -0.722656 -0.024330 18 34 59
0.031250 -0.722656 -0.024550 17 33 57
0.035156 -0.722656 -0.025327 17 33 58
0.039062 -0.722656 -0.026933 18 34 59
0.042969 -0.722656 -0.028741 19 36 62
0.046875 -0.722656 -0.030700 19 35 62
0.050781 -0.722656 -0.033580 18 33 60
0.054688 -0.722656 -0.037780 19 34 62
0.058594 -0.722656 -0.042793 19 32 59
0.062500 -0.722656 -0.048994 21 34 61
0.066406 -0.722656 -0.057774 24 38 68
0.070312 -0.722656 -0.069351 18 24 46
-0.289062 -0.726562 -0.019679 4 4 11
-0.285156 -0.726562 -0.009726 42 67 103
-0.281250 -0.726562 0.004772 43 75 119
-0.277344 -0.726562 0.013535 28 51 92
-0.273438 -0.726562 0.019935 29 51 90
-0.269531 -0.726562 0.024747 29 51 89
-0.265625 -0.726562 0.028632 25 46 82
-0.261719 -0.726562 0.031328 24 46 82
-0.257812 -0.726562 0.033011 22 43 78
-0.253906 -0.726562 0.034186 20 41 75
-0.250000 -0.726562 0.035081 20 39 72
-0.246094 -0.726562 0.035142 19 38 69
-0.242188 -0.726562 0.034381 19 36 66
-0.238281 -0.726562 0.033344 18 35 64
-0.234375 -0.726562 0.032157 17 33 61
-0.230469 -0.726562 0.030478 17 33 59
-0.226562 -0.726562 0.028249 15 30 54
-0.222656 -0.726562 0.025855 14 29 51
-0.218750 -0.726562 0.023679 15 30 51
-0.214844 -0.726562 0.021445 15 30 51
-0.210938 -0.726562 0.018967 15 30 50
-0.207031 -0.726562 0.016628 14 29 50
-0.203125 -0.726562 0.014141 14 29 50
-0.199219 -0.726562 0.011316 14 27 48
-0.195312 -0.726562 0.007005 15 27 47
-0.191406 -0.726562 0.002147 15 26 45
-0.187500 -0.726562 -0.005401 25 39 60
-0.183594 -0.726562 -0.018781 31 37 54
-0.027344 -0.726562 -0.069266 31 49 72
-0.023438 -0.726562 -0.057555 29 50 80
-0.019531 -0.726562 -0.049415 22 40 72
-0.015625 -0.726562 -0.043969 24 42 70
-0.011719 -0.726562 -0.040195 29 49 75
-0.007812 -0.726562 -0.037086 25 42 67
-0.003906 -0.726562 -0.034244 22 37 61
0.000000 -0.726562 -0.031277 21 36 61
0.003906 -0.726562 -0.028963 19 34 59
0.007812 -0.726562 -0.027381 19 35 60
0.011719 -0.726562 -0.026020 19 35 61
0.015625 -0.726562 -0.024513 19 35 60
0.019531 -0.726562 -0.023690 19 35 61
0.023438 -0.726562 -0.023756 19 36 62
0.027344 -0.726562 -0.024083 19 35 61
0.031250 -0.726562 -0.024344 18 34 60
0.035156 -0.726562 -0.025185 17 33 58
0.039062 -0.726562 -0.026868 17 33 57
0.042969 -0.726562 -0.028753 18 35 60
0.046875 -0.726562 -0.030735 18 34 60
0.050781 -0.726562 -0.033586 18 33 60
0.054688 -0.726562 -0.037770 18 33 61
0.058594 -0.726562 -0.042727 18 32 59
0.062500 -0.726562 -0.049182 21 34 63
0.066406 -0.726562 -0.057831 27 42 73
0.070312 -0.726562 -0.069776 25 33 56
-0.289062 -0.730469 -0.021334 18 22 46
-0.285156 -0.730469 -0.007886 41 67 106
-0.281250 -0.730469 0.005480 42 70 113
-0.277344 -0.730469 0.013654 31 55 95
-0.273438 -0.730469 0.019620 33 56 95
-0.269531 -0.730469 0.024158 30 52 90
-0.265625 -0.730469 0.027861 24 44 79
-0.261719 -0.730469 0.030428 23 44 79
-0.257812 -0.730469 0.032018 21 41 76
-0.253906 -0.730469 0.033077 20 39 72
-0.250000 -0.730469 0.033825 18 37 68
-0.246094 -0.730469 0.033762 18 35 64
-0.242188 -0.730469 0.032907 17 34 62
-0.238281 -0.730469 0.031793 16 32 60
-0.234375 -0.730469 0.030549 16 31 58
-0.230469 -0.730469 0.028807 15 31 56
-0.226562 -0.730469 0.026488 14 29 51
-0.222656 -0.730469 0.024016 14 28 50
-0.218750 -0.730469 0.021772 15 30 51
-0.214844 -0.730469 0.019450 15 31 51
-0.210938 -0.730469 0.016853 15 30 50
-0.207031 -0.730469 0.014390 14 28 48
-0.203125 -0.730469 0.011841 13 27 47
-0.199219 -0.730469 0.008935 13 25 44
-0.195312 -0.730469 0.004471 14 25 43
-0.191406 -0.730469 -0.000892 14 23 41
-0.187500 -0.730469 -0.008758 27 42 63
-0.027344 -0.730469 -0.068497 33 52 75
-0.023438 -0.730469 -0.057092 31 52 83
-0.019531 -0.730469 -0.048955 23 41 73
-0.015625 -0.730469 -0.043579 23 41 69
-0.011719 -0.730469 -0.039827 28 46 73
-0.007812 -0.730469 -0.036741 23 39 64
-0.003906 -0.730469 -0.033881 19 33 56
0.000000 -0.730469 -0.030898 18 32 57
0.003906 -0.730469 -0.028563 18 32 57
0.007812 -0.730469 -0.026982 18 33 59
0.011719 -0.730469 -0.025649 19 34 60
0.015625 -0.730469 -0.024171 19 35 60
0.019531 -0.730469 -0.023355 19 35 61
0.023438 -0.730469 -0.023435 19 35 62
0.027344 -0.730469 -0.023790 19 36 62
0.031250 -0.730469 -0.024078 19 35 61
0.035156 -0.730469 -0.024960 18 33 58
0.039062 -0.730469 -0.026713 17 32 56
0.042969 -0.730469 -0.028682 17 33 57
0.046875 -0.730469 -0.030683 17 33 58
0.050781 -0.730469 -0.033467 17 32 59
0.054688 -0.730469 -0.037590 18 32 59
0.058594 -0.730469 -0.042687 18 31 58
0.062500 -0.730469 -0.049265 20 34 61
0.066406 -0.730469 -0.057330 27 41 70
0.070312 -0.730469 -0.069204 30 39 61
-0.289062 -0.734375 -0.025003 32 44 82
-0.285156 -0.734375 -0.006222 35 58 97
-0.281250 -0.734375 0.005953 39 63 104
-0.277344 -0.734375 0.013694 33 56 95
-0.273438 -0.734375 0.019209 34 57 96
-0.269531 -0.734375 0.023447 30 52 89
-0.265625 -0.734375 0.026988 24 43 78
-0.261719 -0.734375 0.029458 23 43 78
-0.257812 -0.734375 0.030976 21 41 75
-0.253906 -0.734375 0.031950 19 39 72
-0.250000 -0.734375 0.032607 18 36 67
-0.246094 -0.734375 0.032467 18 35 64
-0.242188 -0.734375 0.031546 17 34 63
-0.238281 -0.734375 0.030386 17 33 61
-0.234375 -0.734375 0.029078 16 32 60
-0.230469 -0.734375 0.027259 16 32 58
-0.226562 -0.734375 0.024856 14 29 52
-0.222656 -0.734375 0.022299 14 29 50
-0.218750 -0.734375 0.019954 15 29 50
-0.214844 -0.734375 0.017497 15 30 49
-0.210938 -0.734375 0.014748 14 29 48
-0.207031 -0.734375 0.012135 14 28 47
-0.203125 -0.734375 0.009462 13 27 47
-0.199219 -0.734375 0.006317 13 25 44
-0.195312 -0.734375 0.001648 16 27 45
-0.191406 -0.734375 -0.004471 14 22 39
-0.187500 -0.734375 -0.013273 25 34 55
-0.027344 -0.734375 -0.068432 35 54 77
-0.023438 -0.734375 -0.057067 31 53 84
-0.019531 -0.734375 -0.048579 22 40 72
-0.015625 -0.734375 -0.043102 22 39 66
-0.011719 -0.734375 -0.039451 25 42 69
-0.007812 -0.734375 -0.036366 22 38 63
-0.003906 -0.734375 -0.033464 19 33 56
0.000000 -0.734375 -0.030464 18 32 57
0.003906 -0.734375 -0.028121 18 33 59
0.007812 -0.734375 -0.026555 18 33 59
0.011719 -0.734375 -0.025245 18 33 59
0.015625 -0.734375 -0.023796 18 32 58
0.019531 -0.734375 -0.023001 18 33 59
0.023438 -0.734375 -0.023097 18 34 60
0.027344 -0.734375 -0.023469 19 35 62
0.031250 -0.734375 -0.023776 19 36 63
0.035156 -0.734375 -0.024686 19 36 61
0.039062 -0.734375 -0.026487 18 34 59
0.042969 -0.734375 -0.028507 18 34 58
0.046875 -0.734375 -0.030521 18 33 59
0.050781 -0.734375 -0.033246 17 32 60
0.054688 -0.734375 -0.037242 18 32 60
0.058594 -0.734375 -0.042298 18 32 58
0.062500 -0.734375 -0.048799 20 34 59
0.066406 -0.734375 -0.056613 29 44 73
-0.289062 -0.738281 -0.022580 60 80 121
-0.285156 -0.738281 -0.004777 44 69 109
-0.281250 -0.738281 0.006290 42 65 106
-0.277344 -0.738281 0.013664 35 57 97
-0.273438 -0.738281 0.018756 30 53 91
-0.269531 -0.738281 0.022653 27 48 85
-0.265625 -0.738281 0.026027 24 43 78
-0.261719 -0.738281 0.028397 23 43 78
-0.257812 -0.738281 0.029839 21 41 74
-0.253906 -0.738281 0.030747 20 39 71
-0.250000 -0.738281 0.031352 19 37 68
-0.246094 -0.738281 0.031174 18 36 65
-0.242188 -0.738281 0.030216 18 34 62
-0.238281 -0.738281 0.029009 17 33 61
-0.234375 -0.738281 0.027658 17 33 60
-0.230469 -0.738281 0.025784 16 32 58
-0.226562 -0.738281 0.023311 15 30 53
-0.222656 -0.738281 0.020678 14 29 51
-0.218750 -0.738281 0.018225 14 29 49
-0.214844 -0.738281 0.015619 14 29 48
-0.210938 -0.738281 0.012699 14 28 47
-0.207031 -0.738281 0.009940 14 28 48
-0.203125 -0.738281 0.007172 14 28 48
-0.199219 -0.738281 0.003778 14 26 45
-0.195312 -0.738281 -0.001147 17 29 47
-0.191406 -0.738281 -0.007992 12 18 35
-0.187500 -0.738281 -0.017970 12 15 31
-0.027344 -0.738281 -0.067837 37 56 78
-0.023438 -0.738281 -0.056767 32 53 84
-0.019531 -0.738281 -0.048212 23 40 72
-0.015625 -0.738281 -0.042616 22 38 66
-0.011719 -0.738281 -0.039017 25 42 69
-0.007812 -0.738281 -0.035939 25 41 67
-0.003906 -0.738281 -0.033024 21 36 62
0.000000 -0.738281 -0.030008 20 35 61
0.003906 -0.738281 -0.027670 19 35 62
0.007812 -0.738281 -0.026122 19 34 61
0.011719 -0.738281 -0.024821 18 34 61
0.015625 -0.738281 -0.023396 18 33 60
0.019531 -0.738281 -0.022630 18 33 60
0.023438 -0.738281 -0.022741 18 34 61
0.027344 -0.738281 -0.023118 18 35 61
0.031250 -0.738281 -0.023431 19 35 62
0.035156 -0.738281 -0.024360 18 34 60
0.039062 -0.738281 -0.026192 17 33 57
0.042969 -0.738281 -0.028230 17 32 57
0.046875 -0.738281 -0.030270 17 33 58
0.050781 -0.738281 -0.032945 17 32 59
0.054688 -0.738281 -0.036908 17 31 59
0.058594 -0.738281 -0.041815 18 31 58
0.062500 -0.738281 -0.048363 21 34 60
0.066406 -0.738281 -0.057002 33 48 78
-0.289062 -0.742188 -0.020040 68 91 129
-0.285156 -0.742188 -0.003806 50 75 114
-0.281250 -0.742188 0.006508 42 65 104
-0.277344 -0.742188 0.013488 36 59 98
-0.273438 -0.742188 0.018211 30 51 90
-0.269531 -0.742188 0.021830 26 47 84
-0.265625 -0.742188 0.025038 24 43 78
-0.261719 -0.742188 0.027272 22 42 76
-0.257812 -0.742188 0.028630 20 39 71
-0.253906 -0.742188 0.029491 19 37 68
-0.250000 -0.742188 0.030058 18 36 65
-0.246094 -0.742188 0.029852 18 35 63
-0.242188 -0.742188 0.028862 17 33 61
-0.238281 -0.742188 0.027625 17 33 60
-0.234375 -0.742188 0.026244 16 32 59
-0.230469 -0.742188 0.024334 15 30 55
-0.226562 -0.742188 0.021809 14 29 52
-0.222656 -0.742188 0.019112 15 30 52
-0.218750 -0.742188 0.016566 14 29 50
-0.214844 -0.742188 0.013830 14 29 49
-0.210938 -0.742188 0.010725 14 28 48
-0.207031 -0.742188 0.007805 14 28 48
-0.203125 -0.742188 0.004902 14 28 48
-0.199219 -0.742188 0.001285 13 25 43
-0.195312 -0.742188 -0.003844 17 29 47
-0.191406 -0.742188 -0.011315 14 22 41
-0.187500 -0.742188 -0.022291 14 18 35
-0.027344 -0.742188 -0.065801 41 60 81
-0.023438 -0.742188 -0.056173 34 54 84
-0.019531 -0.742188 -0.047907 23 40 73
-0.015625 -0.742188 -0.042220 22 37 66
-0.011719 -0.742188 -0.038542 24 40 67
-0.007812 -0.742188 -0.035448 24 40 67
-0.003906 -0.742188 -0.032541 21 35 61
0.000000 -0.742188 -0.029501 18 32 58
0.003906 -0.742188 -0.027163 18 32 59
0.007812 -0.742188 -0.025629 17 32 59
0.011719 -0.742188 -0.024336 18 33 60
0.015625 -0.742188 -0.022940 18 34 61
0.019531 -0.742188 -0.022203 18 34 60
0.023438 -0.742188 -0.022337 18 34 60
0.027344 -0.742188 -0.022733 18 34 60
0.031250 -0.742188 -0.023050 19 36 62
0.035156 -0.742188 -0.023986 18 35 61
0.039062 -0.742188 -0.025838 17 32 57
0.042969 -0.742188 -0.027889 17 32 57
0.046875 -0.742188 -0.029955 17 32 58
0.050781 -0.742188 -0.032557 17 31 58
0.054688 -0.742188 -0.036523 17 32 60
0.058594 -0.742188 -0.041445 19 34 61
0.062500 -0.742188 -0.048315 23 36 61
0.066406 -0.742188 -0.058391 24 35 64
-0.289062 -0.746094 -0.018251 57 75 117
-0.285156 -0.746094 -0.002921 47 70 111
-0.281250 -0.746094 0.006705 37 58 97
-0.277344 -0.746094 0.013232 34 56 95
-0.273438 -0.746094 0.017564 28 49 87
-0.269531 -0.746094 0.020953 25 45 81
-0.265625 -0.746094 0.024023 24 43 77
-0.261719 -0.746094 0.026133 22 40 74
-0.257812 -0.746094 0.027419 20 38 71
-0.253906 -0.746094 0.028243 19 37 67
-0.250000 -0.746094 0.028760 18 35 64
-0.246094 -0.746094 0.028515 18 34 62
-0.242188 -0.746094 0.027507 17 33 60
-0.238281 -0.746094 0.026244 17 33 60
-0.234375 -0.746094 0.024835 16 32 58
-0.230469 -0.746094 0.022902 15 29 54
-0.226562 -0.746094 0.020351 14 29 52
-0.222656 -0.746094 0.017614 14 30 52
-0.218750 -0.746094 0.014994 14 28 49
-0.214844 -0.746094 0.012133 14 28 48
-0.210938 -0.746094 0.008826 14 28 47
-0.207031 -0.746094 0.005743 14 28 48
-0.203125 -0.746094 0.002742 14 28 47
-0.199219 -0.746094 -0.001088 13 25 42
-0.195312 -0.746094 -0.006492 18 30 48
-0.191406 -0.746094 -0.014419 20 33 57
-0.187500 -0.746094 -0.026701 26 36 57
-0.027344 -0.746094 -0.059322 39 55 77
-0.023438 -0.746094 -0.055970 33 51 81
-0.019531 -0.746094 -0.047495 25 41 74
-0.015625 -0.746094 -0.041696 24 39 69
-0.011719 -0.746094 -0.037967 25 41 67
-0.007812 -0.746094 -0.034902 25 41 67
-0.003906 -0.746094 -0.032025 21 36 62
0.000000 -0.746094 -0.028960 19 33 59
0.003906 -0.746094 -0.026598 18 33 60
0.007812 -0.746094 -0.025072 17 33 60
0.011719 -0.746094 -0.023793 18 34 61
0.015625 -0.746094 -0.022431 18 34 61
0.019531 -0.746094 -0.021729 17 33 59
0.023438 -0.746094 -0.021896 17 33 58
0.027344 -0.746094 -0.022334 18 34 59
0.031250 -0.746094 -0.022671 19 36 62
0.035156 -0.746094 -0.023611 19 36 62
0.039062 -0.746094 -0.025467 18 34 60
0.042969 -0.746094 -0.027513 18 34 59
0.046875 -0.746094 -0.029582 18 33 59
0.050781 -0.746094 -0.032081 17 32 59
0.054688 -0.746094 -0.036140 18 33 60
0.058594 -0.746094 -0.041327 20 35 63
0.062500 -0.746094 -0.048408 24 37 66
0.066406 -0.746094 -0.058778 17 24 49
-0.289062 -0.750000 -0.016453 55 70 115
-0.285156 -0.750000 -0.002286 51 74 117
-0.281250 -0.750000 0.006711 38 60 100
-0.277344 -0.750000 0.012893 34 57 97
-0.273438 -0.750000 0.016870 28 49 87
-0.269531 -0.750000 0.020016 25 45 81
-0.265625 -0.750000 0.022978 24 43 78
-0.261719 -0.750000 0.024994 22 40 73
-0.257812 -0.750000 0.026210 21 39 72
-0.253906 -0.750000 0.026974 20 38 68
-0.250000 -0.750000 0.027443 18 34 63
-0.246094 -0.750000 0.027168 17 33 61
-0.242188 -0.750000 0.026145 16 32 59
-0.238281 -0.750000 0.024858 16 32 58
-0.234375 -0.750000 0.023423 15 30 55
-0.230469 -0.750000 0.021471 14 27 51
-0.226562 -0.750000 0.018902 14 28 51
-0.222656 -0.750000 0.016146 14 29 52
-0.218750 -0.750000 0.013473 14 28 49
-0.214844 -0.750000 0.010492 13 27 47
-0.210938 -0.750000 0.006998 13 27 47
-0.207031 -0.750000 0.003797 14 28 48
-0.203125 -0.750000 0.000742 14 28 48
-0.199219 -0.750000 -0.003230 14 25 42
-0.195312 -0.750000 -0.009005 17 28 45
-0.191406 -0.750000 -0.017730 18 29 53
-0.027344 -0.750000 -0.041864 33 45 68
-0.023438 -0.750000 -0.056424 29 44 74
-0.019531 -0.750000 -0.047456 25 41 73
-0.015625 -0.750000 -0.041352 25 40 70
-0.011719 -0.750000 -0.037486 25 40 67
-0.007812 -0.750000 -0.034371 24 39 65
-0.003906 -0.750000 -0.031460 21 35 60
0.000000 -0.750000 -0.028362 18 32 57
0.003906 -0.750000 -0.025980 17 31 58
0.007812 -0.750000 -0.024470 16 31 58
0.011719 -0.750000 -0.023221 17 33 60
0.015625 -0.750000 -0.021900 18 34 60
0.019531 -0.750000 -0.021233 17 33 59
0.023438 -0.750000 -0.021430 18 34 58
0.027344 -0.750000 -0.021909 18 34 58
0.031250 -0.750000 -0.022288 18 34 58
0.035156 -0.750000 -0.023260 17 32 56
0.039062 -0.750000 -0.025128 16 31 55
0.042969 -0.750000 -0.027157 16 30 55
0.046875 -0.750000 -0.029208 16 30 55
0.050781 -0.750000 -0.031605 16 30 56
0.054688 -0.750000 -0.035754 16 31 57
0.058594 -0.750000 -0.041198 19 34 61
0.062500 -0.750000 -0.048446 26 38 68
0.066406 -0.750000 -0.058866 19 24 48
-0.292969 -0.753906 -0.019232 11 9 20
-0.289062 -0.753906 -0.014537 48 64 110
-0.285156 -0.753906 -0.001732 43 65 109
-0.281250 -0.753906 0.006538 35 56 97
-0.277344 -0.753906 0.012454 33 56 96
-0.273438 -0.753906 0.016201 29 50 88
-0.269531 -0.753906 0.019128 26 46 82
-0.265625 -0.753906 0.021963 25 45 79
-0.261719 -0.753906 0.023881 22 41 74
-0.257812 -0.753906 0.025012 22 40 72
-0.253906 -0.753906 0.025716 20 38 69
-0.250000 -0.753906 0.026150 18 34 63
-0.246094 -0.753906 0.025857 18 34 62
-0.242188 -0.753906 0.024822 17 33 60
-0.238281 -0.753906 0.023525 16 32 58
-0.234375 -0.753906 0.022084 15 30 54
-0.230469 -0.753906 0.020122 13 27 50
-0.226562 -0.753906 0.017538 13 27 50
-0.222656 -0.753906 0.014770 15 29 52
-0.218750 -0.753906 0.012056 14 28 50
-0.214844 -0.753906 0.008968 14 28 48
-0.210938 -0.753906 0.005268 14 28 47
-0.207031 -0.753906 0.001910 14 29 49
-0.203125 -0.753906 -0.001353 15 28 49
-0.199219 -0.753906 -0.005570 14 25 42
-0.195312 -0.753906 -0.011763 15 24 40
-0.191406 -0.753906 -0.021474 15 23 45
-0.027344 -0.753906 -0.020797 31 44 68
-0.023438 -0.753906 -0.055929 27 42 73
-0.019531 -0.753906 -0.047286 24 40 72
-0.015625 -0.753906 -0.040883 24 39 69
-0.011719 -0.753906 -0.036947 24 38 64
-0.007812 -0.753906 -0.033805 24 39 64
-0.003906 -0.753906 -0.030824 22 37 63
0.000000 -0.753906 -0.027697 19 33 59
0.003906 -0.753906 -0.025330 18 33 60
0.007812 -0.753906 -0.023848 17 32 59
0.011719 -0.753906 -0.022635 16 32 58
0.015625 -0.753906 -0.021362 17 32 58
0.019531 -0.753906 -0.020733 17 32 57
0.023438 -0.753906 -0.020960 18 34 59
0.027344 -0.753906 -0.021479 18 34 59
0.031250 -0.753906 -0.021904 17 32 56
0.035156 -0.753906 -0.022910 16 30 53
0.039062 -0.753906 -0.024782 15 29 53
0.042969 -0.753906 -0.026799 16 30 55
0.046875 -0.753906 -0.028836 16 31 57
0.050781 -0.753906 -0.031216 16 31 57
0.054688 -0.753906 -0.035317 18 32 59
0.058594 -0.753906 -0.040741 19 33 60
0.062500 -0.753906 -0.048282 25 39 67
0.066406 -0.753906 -0.058533 22 27 50
-0.292969 -0.757812 -0.024292 46 51 74
-0.289062 -0.757812 -0.013831 48 66 110
-0.285156 -0.757812 -0.001483 38 60 104
-0.281250 -0.757812 0.006356 32 54 95
-0.277344 -0.757812 0.011828 33 55 95
-0.273438 -0.757812 0.015377 30 51 89
-0.269531 -0.757812 0.018173 27 47 82
-0.265625 -0.757812 0.020908 25 45 79
-0.261719 -0.757812 0.022718 22 40 73
-0.257812 -0.757812 0.023772 21 38 70
-0.253906 -0.757812 0.024435 19 36 67
-0.250000 -0.757812 0.024850 18 34 63
-0.246094 -0.757812 0.024546 17 34 61
-0.242188 -0.757812 0.023512 16 32 59
-0.238281 -0.757812 0.022224 16 32 58
-0.234375 -0.757812 0.020798 15 30 55
-0.230469 -0.757812 0.018847 14 28 51
-0.226562 -0.757812 0.016258 14 28 51
-0.222656 -0.757812 0.013480 15 29 52
-0.218750 -0.757812 0.010724 14 28 49
-0.214844 -0.757812 0.007521 14 28 48
-0.210938 -0.757812 0.003633 14 27 47
-0.207031 -0.757812 0.000097 14 28 48
-0.203125 -0.757812 -0.003418 15 28 48
-0.199219 -0.757812 -0.007815 14 25 41
-0.195312 -0.757812 -0.014328 17 27 43
-0.191406 -0.757812 -0.024005 26 37 62
-0.027344 -0.757812 -0.016028 22 33 57
-0.023438 -0.757812 -0.056674 25 40 71
-0.019531 -0.757812 -0.047054 24 41 74
-0.015625 -0.757812 -0.040450 25 41 70
-0.011719 -0.757812 -0.036502 24 38 64
-0.007812 -0.757812 -0.033218 25 41 66
-0.003906 -0.757812 -0.030176 24 41 67
0.000000 -0.757812 -0.027058 20 35 61
0.003906 -0.757812 -0.024711 19 34 61
0.007812 -0.757812 -0.023252 18 34 61
0.011719 -0.757812 -0.022061 16 32 58
0.015625 -0.757812 -0.020823 16 32 57
0.019531 -0.757812 -0.020231 16 32 56
0.023438 -0.757812 -0.020495 17 33 57
0.027344 -0.757812 -0.021050 18 34 58
0.031250 -0.757812 -0.021507 17 32 56
0.035156 -0.757812 -0.022530 16 30 54
0.039062 -0.757812 -0.024402 15 30 54
0.042969 -0.757812 -0.026427 17 32 59
0.046875 -0.757812 -0.028472 17 33 60
0.050781 -0.757812 -0.030811 17 32 59
0.054688 -0.757812 -0.034862 18 33 60
0.058594 -0.757812 -0.040237 20 34 60
0.062500 -0.757812 -0.047827 29 45 74
0.066406 -0.757812 -0.058455 31 41 63
-0.292969 -0.761719 -0.028294 60 68 98
-0.289062 -0.761719 -0.013436 43 63 107
-0.285156 -0.761719 -0.001615 38 63 107
-0.281250 -0.761719 0.005943 32 55 97
-0.277344 -0.761719 0.011008 31 52 92
-0.273438 -0.761719 0.014379 28 48 86
-0.269531 -0.761719 0.017098 26 45 79
-0.265625 -0.761719 0.019777 25 44 78
-0.261719 -0.761719 0.021513 22 39 71
-0.257812 -0.761719 0.022502 20 37 68
-0.253906 -0.761719 0.023133 20 36 67
-0.250000 -0.761719 0.023537 18 35 63
-0.246094 -0.761719 0.023231 17 33 61
-0.242188 -0.761719 0.022212 16 31 58
-0.238281 -0.761719 0.020947 16 32 58
-0.234375 -0.761719 0.019544 16 31 56
-0.230469 -0.761719 0.017608 14 29 52
-0.226562 -0.761719 0.015014 14 29 51
-0.222656 -0.761719 0.012233 15 29 51
-0.218750 -0.761719 0.009455 14 28 48
-0.214844 -0.761719 0.006158 14 28 48
-0.210938 -0.761719 0.002095 14 27 47
-0.207031 -0.761719 -0.001645 14 27 46
-0.203125 -0.761719 -0.005478 14 27 47
-0.199219 -0.761719 -0.010127 14 24 40
-0.195312 -0.761719 -0.016741 17 26 43
-0.191406 -0.761719 -0.028838 24 35 57
-0.027344 -0.761719 -0.019958 22 33 57
-0.023438 -0.761719 -0.058244 26 43 74
-0.019531 -0.761719 -0.047024 25 43 76
-0.015625 -0.761719 -0.040090 24 39 67
-0.011719 -0.761719 -0.036105 23 36 61
-0.007812 -0.761719 -0.032649 24 39 64
-0.003906 -0.761719 -0.029549 24 40 66
0.000000 -0.761719 -0.026438 19 33 58
0.003906 -0.761719 -0.024093 17 31 56
0.007812 -0.761719 -0.022654 16 31 57
0.011719 -0.761719 -0.021477 16 31 56
0.015625 -0.761719 -0.020265 17 33 57
0.019531 -0.761719 -0.019707 16 32 56
0.023438 -0.761719 -0.020004 17 32 56
0.027344 -0.761719 -0.020576 17 33 58
0.031250 -0.761719 -0.021041 16 31 55
0.035156 -0.761719 -0.022076 15 29 53
0.039062 -0.761719 -0.023963 14 29 53
0.042969 -0.761719 -0.026013 16 31 56
0.046875 -0.761719 -0.028105 16 32 59
0.050781 -0.761719 -0.030414 16 31 57
0.054688 -0.761719 -0.034451 19 33 59
0.058594 -0.761719 -0.039896 22 35 61
0.062500 -0.761719 -0.046903 35 49 76
0.066406 -0.761719 -0.059002 45 54 76
-0.292969 -0.765625 -0.029988 69 83 115
-0.289062 -0.765625 -0.012961 40 62 105
-0.285156 -0.765625 -0.001782 38 64 108
-0.281250 -0.765625 0.005379 32 55 97
-0.277344 -0.765625 0.010105 29 51 89
-0.273438 -0.765625 0.013342 27 46 81
-0.269531 -0.765625 0.015975 25 43 76
-0.265625 -0.765625 0.018578 25 43 76
-0.261719 -0.765625 0.020271 22 39 72
-0.257812 -0.765625 0.021211 21 38 69
-0.253906 -0.765625 0.021809 21 38 68
-0.250000 -0.765625 0.022204 19 36 65
-0.246094 -0.765625 0.021909 18 34 61
-0.242188 -0.765625 0.020927 16 32 59
-0.238281 -0.765625 0.019699 16 32 58
-0.234375 -0.765625 0.018326 16 31 55
-0.230469 -0.765625 0.016405 14 28 50
-0.226562 -0.765625 0.013809 14 28 49
-0.222656 -0.765625 0.011030 14 28 49
-0.218750 -0.765625 0.008231 14 28 48
-0.214844 -0.765625 0.004842 15 29 50
-0.210938 -0.765625 0.000599 14 28 48
-0.207031 -0.765625 -0.003389 14 27 47
-0.203125 -0.765625 -0.007592 15 28 48
-0.199219 -0.765625 -0.012732 14 24 40
-0.195312 -0.765625 -0.020225 18 26 43
-0.023438 -0.765625 -0.058082 29 44 73
-0.019531 -0.765625 -0.046477 29 47 81
-0.015625 -0.765625 -0.039439 25 40 68
-0.011719 -0.765625 -0.035454 23 36 60
-0.007812 -0.765625 -0.032049 23 37 61
-0.003906 -0.765625 -0.028964 24 41 66
0.000000 -0.765625 -0.025832 20 36 61
0.003906 -0.765625 -0.023495 18 33 58
0.007812 -0.765625 -0.022075 18 34 59
0.011719 -0.765625 -0.020915 17 33 58
0.015625 -0.765625 -0.019729 18 34 58
0.019531 -0.765625 -0.019199 17 33 56
0.023438 -0.765625 -0.019522 17 33 57
0.027344 -0.765625 -0.020111 17 34 59
0.031250 -0.765625 -0.020575 16 32 57
0.035156 -0.765625 -0.021611 16 31 56
0.039062 -0.765625 -0.023521 15 30 55
0.042969 -0.765625 -0.025615 16 32 57
0.046875 -0.765625 -0.027733 17 33 60
0.050781 -0.765625 -0.030049 17 31 57
0.054688 -0.765625 -0.034124 19 33 58
0.058594 -0.765625 -0.039634 21 33 57
0.062500 -0.765625 -0.046249 26 37 62
-0.292969 -0.769531 -0.030443 61 85 116
-0.289062 -0.769531 -0.012829 36 60 102
-0.285156 -0.769531 -0.002025 36 61 104
-0.281250 -0.769531 0.004755 30 53 94
-0.277344 -0.769531 0.009168 28 49 86
-0.273438 -0.769531 0.012288 26 44 79
-0.269531 -0.769531 0.014827 24 41 74
-0.265625 -0.769531 0.017367 23 40 73
-0.261719 -0.769531 0.019021 21 38 69
-0.257812 -0.769531 0.019920 21 37 68
-0.253906 -0.769531 0.020486 20 36 65
-0.250000 -0.769531 0.020874 18 34 62
-0.246094 -0.769531 0.020604 17 32 59
-0.242188 -0.769531 0.019673 16 32 58
-0.238281 -0.769531 0.018492 16 32 58
-0.234375 -0.769531 0.017150 15 30 53
-0.230469 -0.769531 0.015248 14 28 49
-0.226562 -0.769531 0.012641 14 27 47
-0.222656 -0.769531 0.009835 14 28 47
-0.218750 -0.769531 0.007007 14 28 47
-0.214844 -0.769531 0.003569 15 29 50
-0.210938 -0.769531 -0.000797 14 28 49
-0.207031 -0.769531 -0.005088 14 26 47
-0.203125 -0.769531 -0.009498 16 29 50
-0.199219 -0.769531 -0.015064 14 24 42
-0.195312 -0.769531 -0.023892 24 35 55
-0.023438 -0.769531 -0.058175 19 28 50
-0.019531 -0.769531 -0.045807 31 49 81
-0.015625 -0.769531 -0.038834 27 42 69
-0.011719 -0.769531 -0.034781 24 37 62
-0.007812 -0.769531 -0.031382 22 36 59
-0.003906 -0.769531 -0.028321 24 40 65
0.000000 -0.769531 -0.025187 21 37 61
0.003906 -0.769531 -0.022890 18 33 57
0.007812 -0.769531 -0.021503 18 34 59
0.011719 -0.769531 -0.020357 17 34 57
0.015625 -0.769531 -0.019193 18 34 58
0.019531 -0.769531 -0.018679 17 33 56
0.023438 -0.769531 -0.019030 16 32 55
0.027344 -0.769531 -0.019650 16 33 57
0.031250 -0.769531 -0.020116 16 32 57
0.035156 -0.769531 -0.021149 16 32 57
0.039062 -0.769531 -0.023081 15 31 56
0.042969 -0.769531 -0.025221 16 31 57
0.046875 -0.769531 -0.027375 17 33 59
0.050781 -0.769531 -0.029748 16 31 56
0.054688 -0.769531 -0.033787 18 32 57
0.058594 -0.769531 -0.039279 20 33 59
0.062500 -0.769531 -0.045787 25 35 63
-0.292969 -0.773438 -0.030277 56 81 117
-0.289062 -0.773438 -0.012830 35 61 106
-0.285156 -0.773438 -0.002478 32 58 101
-0.281250 -0.773438 0.003964 29 52 92
-0.277344 -0.773438 0.008263 27 49 85
-0.273438 -0.773438 0.011285 25 45 79
-0.269531 -0.773438 0.013713 24 42 74
-0.265625 -0.773438 0.016182 23 40 72
-0.261719 -0.773438 0.017776 21 38 69
-0.257812 -0.773438 0.018618 20 37 67
-0.253906 -0.773438 0.019146 19 35 64
-0.250000 -0.773438 0.019532 18 34 61
-0.246094 -0.773438 0.019297 17 32 59
-0.242188 -0.773438 0.018420 16 32 57
-0.238281 -0.773438 0.017277 16 32 57
-0.234375 -0.773438 0.015972 15 30 53
-0.230469 -0.773438 0.014108 15 29 51
-0.226562 -0.773438 0.011505 14 28 48
-0.222656 -0.773438 0.008683 14 28 48
-0.218750 -0.773438 0.005817 14 28 48
-0.214844 -0.773438 0.002354 15 30 51
-0.210938 -0.773438 -0.002128 14 28 49
-0.207031 -0.773438 -0.006732 14 26 47
-0.203125 -0.773438 -0.011490 16 27 49
-0.199219 -0.773438 -0.017739 13 21 39
-0.195312 -0.773438 -0.026933 23 33 58
-0.023438 -0.773438 -0.057799 24 34 60
-0.019531 -0.773438 -0.045561 36 53 87
-0.015625 -0.773438 -0.038237 28 43 71
-0.011719 -0.773438 -0.034048 25 39 65
-0.007812 -0.773438 -0.030699 21 36 59
-0.003906 -0.773438 -0.027656 24 40 65
0.000000 -0.773438 -0.024546 22 38 62
0.003906 -0.773438 -0.022279 17 33 55
0.007812 -0.773438 -0.020931 17 33 56
0.011719 -0.773438 -0.019817 17 33 56
0.015625 -0.773438 -0.018678 17 34 56
0.019531 -0.773438 -0.018183 17 33 56
0.023438 -0.773438 -0.018560 16 32 55
0.027344 -0.773438 -0.019203 16 32 55
0.031250 -0.773438 -0.019668 15 31 55
0.035156 -0.773438 -0.020710 15 31 56
0.039062 -0.773438 -0.022664 15 30 55
0.042969 -0.773438 -0.024846 15 30 54
0.046875 -0.773438 -0.027038 16 31 57
0.050781 -0.773438 -0.029448 16 29 55
0.054688 -0.773438 -0.033447 18 32 57
0.058594 -0.773438 -0.039120 22 37 64
0.062500 -0.773438 -0.045814 32 47 76
-0.292969 -0.777344 -0.029981 52 80 115
-0.289062 -0.777344 -0.012840 34 62 108
-0.285156 -0.777344 -0.002866 30 56 98
-0.281250 -0.777344 0.003225 31 55 94
-0.277344 -0.777344 0.007437 28 50 86
-0.273438 -0.777344 0.010365 25 45 79
-0.269531 -0.777344 0.012671 24 41 74
-0.265625 -0.777344 0.015037 22 39 71
-0.261719 -0.777344 0.016557 21 38 68
-0.257812 -0.777344 0.017331 20 36 65
-0.253906 -0.777344 0.017818 18 34 62
-0.250000 -0.777344 0.018200 18 33 60
-0.246094 -0.777344 0.017986 17 32 58
-0.242188 -0.777344 0.017144 16 32 57
-0.238281 -0.777344 0.016031 16 31 55
-0.234375 -0.777344 0.014756 15 29 52
-0.230469 -0.777344 0.012923 15 30 51
-0.226562 -0.777344 0.010318 15 29 49
-0.222656 -0.777344 0.007467 15 29 48
-0.218750 -0.777344 0.004551 15 29 48
-0.214844 -0.777344 0.001092 15 29 51
-0.210938 -0.777344 -0.003452 14 28 49
-0.207031 -0.777344 -0.008311 13 25 47
-0.203125 -0.777344 -0.013628 15 27 49
-0.199219 -0.777344 -0.020578 14 24 44
-0.195312 -0.777344 -0.030088 32 46 74
-0.023438 -0.777344 -0.057935 26 34 61
-0.019531 -0.777344 -0.045617 37 54 88
-0.015625 -0.777344 -0.037526 27 42 70
-0.011719 -0.777344 -0.033266 27 42 69
-0.007812 -0.777344 -0.029958 22 37 63
-0.003906 -0.777344 -0.026953 25 42 67
0.000000 -0.777344 -0.023888 24 41 67
0.003906 -0.777344 -0.021653 19 35 59
0.007812 -0.777344 -0.020351 19 35 59
0.011719 -0.777344 -0.019280 17 33 57
0.015625 -0.777344 -0.018175 17 33 55
0.019531 -0.777344 -0.017704 16 33 56
0.023438 -0.777344 -0.018104 16 32 56
0.027344 -0.777344 -0.018756 16 32 56
0.031250 -0.777344 -0.019220 16 32 57
0.035156 -0.777344 -0.020274 15 32 57
0.039062 -0.777344 -0.022248 15 30 56
0.042969 -0.777344 -0.024483 15 31 56
0.046875 -0.777344 -0.026688 16 32 59
0.050781 -0.777344 -0.029071 16 31 56
0.054688 -0.777344 -0.033080 18 32 57
0.058594 -0.777344 -0.039179 23 41 66
0.062500 -0.777344 -0.046597 28 41 67
-0.292969 -0.781250 -0.029083 60 90 123
-0.289062 -0.781250 -0.012406 36 64 110
-0.285156 -0.781250 -0.002841 27 51 91
-0.281250 -0.781250 0.002780 30 54 92
-0.277344 -0.781250 0.006729 27 49 84
-0.273438 -0.781250 0.009493 24 43 76
-0.269531 -0.781250 0.011675 23 40 73
-0.265625 -0.781250 0.013914 21 37 68
-0.261719 -0.781250 0.015348 20 36 66
-0.257812 -0.781250 0.016066 19 35 63
-0.253906 -0.781250 0.016526 18 34 61
-0.250000 -0.781250 0.016899 17 33 59
-0.246094 -0.781250 0.016685 17 32 57
-0.242188 -0.781250 0.015861 16 32 56
-0.238281 -0.781250 0.014767 15 30 53
-0.234375 -0.781250 0.013514 15 29 50
-0.230469 -0.781250 0.011702 15 30 51
-0.226562 -0.781250 0.009096 15 30 50
-0.222656 -0.781250 0.006237 14 29 47
-0.218750 -0.781250 0.003309 14 28 47
-0.214844 -0.781250 -0.000107 14 28 49
-0.210938 -0.781250 -0.004689 14 27 50
-0.207031 -0.781250 -0.009721 13 25 47
-0.203125 -0.781250 -0.015535 16 30 52
-0.199219 -0.781250 -0.023010 16 28 54
-0.195312 -0.781250 -0.035086 28 37 67
-0.023438 -0.781250 -0.057674 20 25 50
-0.019531 -0.781250 -0.045571 35 51 85
-0.015625 -0.781250 -0.037063 25 40 67
-0.011719 -0.781250 -0.032635 27 43 71
-0.007812 -0.781250 -0.029274 22 38 64
-0.003906 -0.781250 -0.026241 24 41 66
0.000000 -0.781250 -0.023242 23 41 65
0.003906 -0.781250 -0.021044 19 35 58
0.007812 -0.781250 -0.019800 19 35 59
0.011719 -0.781250 -0.018758 17 33 57
0.015625 -0.781250 -0.017678 16 32 54
0.019531 -0.781250 -0.017235 16 32 55
0.023438 -0.781250 -0.017656 15 31 55
0.027344 -0.781250 -0.018313 15 31 56
0.031250 -0.781250 -0.018774 16 32 57
0.035156 -0.781250 -0.019835 16 32 58
0.039062 -0.781250 -0.021822 16 32 58
0.042969 -0.781250 -0.024092 16 33 60
0.046875 -0.781250 -0.026318 17 34 62
0.050781 -0.781250 -0.028667 17 32 59
0.054688 -0.781250 -0.032599 19 34 59
0.058594 -0.781250 -0.039260 28 47 72
0.062500 -0.781250 -0.047523 30 42 66
-0.292969 -0.785156 -0.026766 62 88 124
