ply
    format ascii 1.0
    element vertex 65856
    property float x
    property float y
    property float z
    property uchar red
    property uchar green
    property uchar blue
    end_header
0.199219 0.417969 0.006774 83 90 87
0.203125 0.417969 0.004100 146 151 149
0.207031 0.417969 0.001094 186 188 187
0.210938 0.417969 -0.002317 186 188 188
0.214844 0.417969 -0.005874 183 183 183
0.218750 0.417969 -0.009433 176 176 176
0.222656 0.417969 -0.013791 173 171 174
0.226562 0.417969 -0.018891 175 172 178
0.230469 0.417969 -0.025790 103 102 108
-0.148438 0.414062 -0.044664 111 119 148
-0.144531 0.414062 -0.034272 137 147 171
-0.140625 0.414062 -0.026865 93 103 127
-0.136719 0.414062 -0.022404 88 104 121
-0.132812 0.414062 -0.018922 85 102 109
-0.128906 0.414062 -0.016073 99 118 125
-0.125000 0.414062 -0.012928 56 78 98
-0.121094 0.414062 -0.009961 60 85 109
-0.117188 0.414062 -0.006964 70 98 125
-0.113281 0.414062 -0.003760 72 103 132
-0.109375 0.414062 -0.000255 83 116 146
-0.105469 0.414062 0.003188 96 134 164
-0.101562 0.414062 0.006462 106 146 179
-0.097656 0.414062 0.009745 93 133 169
-0.093750 0.414062 0.012982 89 130 168
-0.089844 0.414062 0.016181 86 123 163
-0.085938 0.414062 0.019382 84 117 160
-0.082031 0.414062 0.022571 78 109 154
-0.078125 0.414062 0.025619 76 103 149
-0.074219 0.414062 0.028583 79 104 150
-0.070312 0.414062 0.031481 89 109 150
-0.066406 0.414062 0.034199 121 136 163
-0.062500 0.414062 0.036635 110 122 143
-0.058594 0.414062 0.038729 91 103 125
-0.054688 0.414062 0.040486 76 89 108
-0.050781 0.414062 0.042078 66 78 94
-0.046875 0.414062 0.043638 60 72 86
-0.042969 0.414062 0.045055 65 75 85
-0.039062 0.414062 0.046297 70 81 87
-0.035156 0.414062 0.047437 68 78 80
-0.031250 0.414062 0.048525 57 67 66
-0.027344 0.414062 0.049610 57 66 61
-0.023438 0.414062 0.050686 70 80 71
-0.019531 0.414062 0.051761 75 83 72
-0.015625 0.414062 0.052783 70 78 65
-0.011719 0.414062 0.053641 80 88 75
-0.007812 0.414062 0.054320 97 107 96
-0.003906 0.414062 0.054970 101 118 112
0.000000 0.414062 0.055577 100 119 117
0.003906 0.414062 0.056130 83 99 96
0.007812 0.414062 0.056672 69 86 80
0.011719 0.414062 0.057175 68 87 81
0.015625 0.414062 0.057610 58 81 75
0.019531 0.414062 0.058055 61 87 84
0.023438 0.414062 0.058538 89 120 122
0.027344 0.414062 0.059079 123 160 166
0.031250 0.414062 0.059630 99 137 146
0.035156 0.414062 0.060186 96 136 148
0.039062 0.414062 0.060742 108 146 159
0.042969 0.414062 0.061355 109 143 155
0.046875 0.414062 0.061787 60 88 99
0.050781 0.414062 0.062067 43 68 75
0.054688 0.414062 0.062219 55 84 98
0.058594 0.414062 0.062332 80 126 152
0.062500 0.414062 0.062282 87 140 174
0.066406 0.414062 0.061944 91 141 178
0.070312 0.414062 0.061450 90 138 178
0.074219 0.414062 0.060890 91 136 178
0.078125 0.414062 0.060090 81 124 169
0.082031 0.414062 0.059386 74 114 160
0.085938 0.414062 0.058627 81 117 161
0.089844 0.414062 0.057543 78 110 151
0.093750 0.414062 0.056619 103 132 168
0.097656 0.414062 0.055376 130 156 186
0.101562 0.414062 0.054105 130 156 178
0.105469 0.414062 0.053203 103 126 139
0.109375 0.414062 0.052349 69 89 98
0.113281 0.414062 0.051653 49 68 74
0.117188 0.414062 0.050801 45 64 68
0.121094 0.414062 0.049694 58 77 83
0.125000 0.414062 0.048634 97 114 121
0.128906 0.414062 0.047104 88 106 110
0.132812 0.414062 0.045228 87 102 105
0.136719 0.414062 0.043311 123 137 138
0.140625 0.414062 0.041222 110 120 119
0.144531 0.414062 0.039568 69 78 75
0.148438 0.414062 0.037952 75 81 77
0.152344 0.414062 0.036169 80 87 80
0.156250 0.414062 0.034556 80 85 79
0.160156 0.414062 0.032578 73 78 71
0.164062 0.414062 0.029889 61 67 60
0.167969 0.414062 0.026855 60 66 58
0.171875 0.414062 0.023850 68 75 65
0.175781 0.414062 0.021109 78 84 77
0.179688 0.414062 0.018855 85 91 84
0.183594 0.414062 0.016728 114 120 115
0.187500 0.414062 0.014521 82 87 85
0.191406 0.414062 0.012215 59 64 63
0.195312 0.414062 0.009676 133 141 139
0.199219 0.414062 0.006984 95 102 101
0.203125 0.414062 0.004282 138 143 141
0.207031 0.414062 0.001298 182 185 184
0.210938 0.414062 -0.001989 190 191 191
0.214844 0.414062 -0.005483 186 186 186
0.218750 0.414062 -0.009056 182 182 183
0.222656 0.414062 -0.013074 180 179 181
0.226562 0.414062 -0.018053 178 175 181
0.230469 0.414062 -0.024880 165 163 171
-0.148438 0.410156 -0.043823 142 151 178
-0.144531 0.410156 -0.033736 153 165 186
-0.140625 0.410156 -0.026658 108 123 147
-0.136719 0.410156 -0.022561 97 119 136
-0.132812 0.410156 -0.019218 94 114 122
-0.128906 0.410156 -0.016402 89 110 126
-0.125000 0.410156 -0.013221 51 74 103
-0.121094 0.410156 -0.010081 63 88 120
-0.117188 0.410156 -0.006845 71 98 130
-0.113281 0.410156 -0.003384 73 104 136
-0.109375 0.410156 0.000450 82 115 143
-0.105469 0.410156 0.004289 89 126 150
-0.101562 0.410156 0.008037 96 135 159
-0.097656 0.410156 0.011782 102 140 166
-0.093750 0.410156 0.015349 104 141 170
-0.089844 0.410156 0.018765 105 139 171
-0.085938 0.410156 0.022058 102 134 169
-0.082031 0.410156 0.025286 100 130 169
-0.078125 0.410156 0.028358 99 127 168
-0.074219 0.410156 0.031278 92 117 161
-0.070312 0.410156 0.034112 85 105 148
-0.066406 0.410156 0.036727 105 121 160
-0.062500 0.410156 0.039065 115 129 165
-0.058594 0.410156 0.041183 117 133 167
-0.054688 0.410156 0.043029 106 122 155
-0.050781 0.410156 0.044721 90 104 137
-0.046875 0.410156 0.046356 79 92 124
-0.042969 0.410156 0.047829 77 88 116
-0.039062 0.410156 0.049121 76 88 112
-0.035156 0.410156 0.050302 75 86 108
-0.031250 0.410156 0.051419 82 93 111
-0.027344 0.410156 0.052508 78 87 104
-0.023438 0.410156 0.053552 66 76 88
-0.019531 0.410156 0.054578 70 78 89
-0.015625 0.410156 0.055555 85 94 101
-0.011719 0.410156 0.056360 84 91 99
-0.007812 0.410156 0.056951 66 77 83
-0.003906 0.410156 0.057498 75 94 98
0.000000 0.410156 0.058031 84 108 110
0.003906 0.410156 0.058544 74 98 100
0.007812 0.410156 0.059057 62 86 88
0.011719 0.410156 0.059519 64 90 91
0.015625 0.410156 0.059933 53 83 85
0.019531 0.410156 0.060391 46 79 84
0.023438 0.410156 0.060878 61 98 106
0.027344 0.410156 0.061402 123 163 173
0.031250 0.410156 0.061954 103 145 159
0.035156 0.410156 0.062537 89 130 148
0.039062 0.410156 0.063106 103 144 162
0.042969 0.410156 0.063713 93 130 149
0.046875 0.410156 0.064152 58 93 112
0.050781 0.410156 0.064465 37 68 86
0.054688 0.410156 0.064620 50 88 111
0.058594 0.410156 0.064703 74 128 162
0.062500 0.410156 0.064727 80 142 183
0.066406 0.410156 0.064413 82 141 185
0.070312 0.410156 0.064009 75 131 178
0.074219 0.410156 0.063497 72 123 176
0.078125 0.410156 0.062782 65 112 166
0.082031 0.410156 0.062209 66 108 163
0.085938 0.410156 0.061439 78 117 169
0.089844 0.410156 0.060473 97 129 180
0.093750 0.410156 0.059703 79 109 155
0.097656 0.410156 0.058540 92 119 156
0.101562 0.410156 0.057302 131 157 186
0.105469 0.410156 0.056245 139 163 183
0.109375 0.410156 0.055192 102 126 137
0.113281 0.410156 0.054203 63 86 94
0.117188 0.410156 0.053311 52 76 80
0.121094 0.410156 0.052351 51 72 77
0.125000 0.410156 0.051111 70 91 96
0.128906 0.410156 0.049474 86 105 109
0.132812 0.410156 0.047510 107 125 127
0.136719 0.410156 0.045403 130 146 146
0.140625 0.410156 0.043339 120 134 134
0.144531 0.410156 0.041575 95 107 105
0.148438 0.410156 0.039738 86 97 91
0.152344 0.410156 0.037705 71 81 73
0.156250 0.410156 0.035804 85 92 85
0.160156 0.410156 0.033540 79 86 78
0.164062 0.410156 0.030618 60 69 58
0.167969 0.410156 0.027365 61 68 58
0.171875 0.410156 0.024156 73 80 68
0.175781 0.410156 0.021264 80 87 77
0.179688 0.410156 0.018980 83 89 82
0.183594 0.410156 0.016872 109 115 110
0.187500 0.410156 0.014724 94 99 97
0.191406 0.410156 0.012452 56 61 59
0.195312 0.410156 0.009882 112 118 117
0.199219 0.410156 0.007174 117 124 125
0.203125 0.410156 0.004471 122 128 128
0.207031 0.410156 0.001505 164 167 166
0.210938 0.410156 -0.001672 183 184 184
0.214844 0.410156 -0.005037 182 183 183
0.218750 0.410156 -0.008574 182 183 184
0.222656 0.410156 -0.012488 179 179 180
0.226562 0.410156 -0.017290 164 163 166
0.230469 0.410156 -0.024067 159 157 164
-0.148438 0.406250 -0.042604 123 132 159
-0.144531 0.406250 -0.033205 133 144 166
-0.140625 0.406250 -0.026646 95 109 132
-0.136719 0.406250 -0.022819 88 108 127
-0.132812 0.406250 -0.019642 99 119 128
-0.128906 0.406250 -0.016858 73 93 117
-0.125000 0.406250 -0.013638 59 82 120
-0.121094 0.406250 -0.010344 66 89 128
-0.117188 0.406250 -0.006882 78 103 139
-0.113281 0.406250 -0.003157 80 108 139
-0.109375 0.406250 0.001030 83 113 140
-0.105469 0.406250 0.005316 74 107 128
-0.101562 0.406250 0.009531 75 110 127
-0.097656 0.406250 0.013709 68 103 120
-0.093750 0.406250 0.017598 89 122 141
-0.089844 0.406250 0.021228 103 133 154
-0.085938 0.406250 0.024603 100 130 153
-0.082031 0.406250 0.027846 101 128 155
-0.078125 0.406250 0.030929 110 134 166
-0.074219 0.406250 0.033847 106 128 162
-0.070312 0.406250 0.036636 92 110 149
-0.066406 0.406250 0.039148 87 105 145
-0.062500 0.406250 0.041494 96 114 154
-0.058594 0.406250 0.043641 102 119 158
-0.054688 0.406250 0.045569 95 113 153
-0.050781 0.406250 0.047369 91 109 149
-0.046875 0.406250 0.049084 95 113 152
-0.042969 0.406250 0.050623 99 114 153
-0.039062 0.406250 0.051976 97 113 149
-0.035156 0.406250 0.053206 98 112 147
-0.031250 0.406250 0.054353 103 118 151
-0.027344 0.406250 0.055441 104 117 149
-0.023438 0.406250 0.056454 90 104 133
-0.019531 0.406250 0.057432 70 81 109
-0.015625 0.406250 0.058360 58 69 97
-0.011719 0.406250 0.059108 63 73 100
-0.007812 0.406250 0.059624 70 85 108
-0.003906 0.406250 0.060085 60 82 96
0.000000 0.406250 0.060546 63 91 102
0.003906 0.406250 0.061011 59 87 98
0.007812 0.406250 0.061493 61 91 102
0.011719 0.406250 0.061917 66 98 109
0.015625 0.406250 0.062302 49 85 97
0.019531 0.406250 0.062762 42 80 93
0.023438 0.406250 0.063266 64 103 118
0.027344 0.406250 0.063794 92 135 152
0.031250 0.406250 0.064335 95 138 157
0.035156 0.406250 0.064916 82 124 146
0.039062 0.406250 0.065491 93 135 159
0.042969 0.406250 0.066092 77 117 142
0.046875 0.406250 0.066525 70 107 133
0.050781 0.406250 0.066838 54 91 118
0.054688 0.406250 0.066982 69 114 145
0.058594 0.406250 0.066970 90 152 191
0.062500 0.406250 0.067077 85 152 195
0.066406 0.406250 0.066854 73 137 183
0.070312 0.406250 0.066564 66 126 176
0.074219 0.406250 0.066187 71 126 182
0.078125 0.406250 0.065572 71 120 178
0.082031 0.406250 0.065038 70 115 174
0.085938 0.406250 0.064282 79 118 175
0.089844 0.406250 0.063379 69 103 157
0.093750 0.406250 0.062619 73 104 151
0.097656 0.406250 0.061462 77 105 145
0.101562 0.406250 0.060273 93 118 151
0.105469 0.406250 0.059154 123 148 171
0.109375 0.406250 0.057877 137 163 177
0.113281 0.406250 0.056500 102 129 138
0.117188 0.406250 0.055396 55 80 87
0.121094 0.406250 0.054442 50 75 80
0.125000 0.406250 0.053141 41 65 69
0.128906 0.406250 0.051642 76 97 102
0.132812 0.406250 0.049625 118 139 142
0.136719 0.406250 0.047513 123 143 144
0.140625 0.406250 0.045480 122 140 140
0.144531 0.406250 0.043520 121 137 136
0.148438 0.406250 0.041367 106 118 114
0.152344 0.406250 0.039151 106 117 112
0.156250 0.406250 0.037005 110 120 112
0.160156 0.406250 0.034504 85 96 87
0.164062 0.406250 0.031348 60 69 58
0.167969 0.406250 0.027861 69 75 65
0.171875 0.406250 0.024431 83 90 78
0.175781 0.406250 0.021387 81 85 74
0.179688 0.406250 0.019066 71 74 65
0.183594 0.406250 0.016981 105 111 107
0.187500 0.406250 0.014883 101 106 105
0.191406 0.406250 0.012634 71 76 75
0.195312 0.406250 0.010030 71 76 75
0.199219 0.406250 0.007327 158 166 167
0.203125 0.406250 0.004657 119 126 129
0.207031 0.406250 0.001732 143 148 148
0.210938 0.406250 -0.001364 176 179 178
0.214844 0.406250 -0.004606 184 185 185
0.218750 0.406250 -0.007999 192 193 193
0.222656 0.406250 -0.011861 190 190 191
0.226562 0.406250 -0.016732 167 167 169
0.230469 0.406250 -0.023398 154 153 159
0.234375 0.406250 -0.031151 160 161 168
-0.152344 0.402344 -0.018286 25 26 36
-0.148438 0.402344 -0.040557 153 166 190
-0.144531 0.402344 -0.032901 140 153 175
-0.140625 0.402344 -0.027175 98 112 134
-0.136719 0.402344 -0.023228 91 110 128
-0.132812 0.402344 -0.020217 91 108 125
-0.128906 0.402344 -0.017431 60 77 112
-0.125000 0.402344 -0.014157 64 82 129
-0.121094 0.402344 -0.010711 71 90 134
-0.117188 0.402344 -0.007042 77 96 135
-0.113281 0.402344 -0.003048 77 99 130
-0.109375 0.402344 0.001468 84 107 131
-0.105469 0.402344 0.006225 85 112 125
-0.101562 0.402344 0.010974 74 101 112
-0.097656 0.402344 0.015656 69 98 104
-0.093750 0.402344 0.019855 77 105 111
-0.089844 0.402344 0.023649 79 105 114
-0.085938 0.402344 0.027054 76 102 112
-0.082031 0.402344 0.030276 84 106 121
-0.078125 0.402344 0.033360 103 124 144
-0.074219 0.402344 0.036268 120 139 161
-0.070312 0.402344 0.038993 123 142 168
-0.066406 0.402344 0.041529 111 132 166
-0.062500 0.402344 0.043910 99 122 157
-0.058594 0.402344 0.046095 90 112 147
-0.054688 0.402344 0.048119 89 111 148
-0.050781 0.402344 0.050030 106 129 167
-0.046875 0.402344 0.051833 125 147 187
-0.042969 0.402344 0.053451 123 146 187
-0.039062 0.402344 0.054863 109 130 173
-0.035156 0.402344 0.056125 101 120 163
-0.031250 0.402344 0.057289 116 135 178
-0.027344 0.402344 0.058371 132 151 194
-0.023438 0.402344 0.059367 131 150 193
-0.019531 0.402344 0.060327 108 125 169
-0.015625 0.402344 0.061225 81 98 142
-0.011719 0.402344 0.061921 73 90 134
-0.007812 0.402344 0.062381 78 97 137
-0.003906 0.402344 0.062799 60 86 113
0.000000 0.402344 0.063192 69 100 121
0.003906 0.402344 0.063573 113 148 170
0.007812 0.402344 0.064004 137 173 195
0.011719 0.402344 0.064401 120 158 181
0.015625 0.402344 0.064752 73 113 138
0.019531 0.402344 0.065184 39 81 105
0.023438 0.402344 0.065685 55 100 123
0.027344 0.402344 0.066224 97 142 165
0.031250 0.402344 0.066744 98 142 167
0.035156 0.402344 0.067288 91 132 160
0.039062 0.402344 0.067858 84 125 153
0.042969 0.402344 0.068462 80 121 151
0.046875 0.402344 0.068901 71 112 144
0.050781 0.402344 0.069226 68 108 143
0.054688 0.402344 0.069391 74 122 160
0.058594 0.402344 0.069378 82 145 186
0.062500 0.402344 0.069432 76 145 187
0.066406 0.402344 0.069356 76 140 186
0.070312 0.402344 0.069104 74 134 184
0.074219 0.402344 0.068722 72 125 177
0.078125 0.402344 0.068248 69 119 172
0.082031 0.402344 0.067712 79 122 177
0.085938 0.402344 0.066954 91 128 183
0.089844 0.402344 0.066070 85 118 171
0.093750 0.402344 0.065307 103 133 180
0.097656 0.402344 0.064247 101 129 169
0.101562 0.402344 0.063186 84 112 144
0.105469 0.402344 0.062050 94 121 145
0.109375 0.402344 0.060700 118 145 163
0.113281 0.402344 0.059382 111 139 151
0.117188 0.402344 0.058143 81 110 118
0.121094 0.402344 0.056982 52 79 86
0.125000 0.402344 0.055639 47 72 77
0.128906 0.402344 0.054057 46 71 76
0.132812 0.402344 0.052031 63 88 92
0.136719 0.402344 0.049835 89 113 117
0.140625 0.402344 0.047630 107 128 129
0.144531 0.402344 0.045392 107 127 126
0.148438 0.402344 0.042901 102 118 117
0.152344 0.402344 0.040577 101 116 114
0.156250 0.402344 0.038210 127 139 135
0.160156 0.402344 0.035493 116 126 118
0.164062 0.402344 0.032136 66 74 66
0.167969 0.402344 0.028419 71 77 67
0.171875 0.402344 0.024747 101 104 94
0.175781 0.402344 0.021539 85 88 77
0.179688 0.402344 0.019172 73 76 67
0.183594 0.402344 0.017117 99 105 101
0.187500 0.402344 0.015051 122 129 127
0.191406 0.402344 0.012808 71 78 76
0.195312 0.402344 0.010166 72 78 77
0.199219 0.402344 0.007480 147 154 155
0.203125 0.402344 0.004859 120 130 136
0.207031 0.402344 0.001996 128 135 138
0.210938 0.402344 -0.001017 159 164 164
0.214844 0.402344 -0.004160 179 181 181
0.218750 0.402344 -0.007464 194 195 195
0.222656 0.402344 -0.011254 194 195 196
0.226562 0.402344 -0.016143 171 172 174
0.230469 0.402344 -0.022741 160 160 164
0.234375 0.402344 -0.030183 171 171 177
-0.152344 0.398438 -0.025441 25 26 36
-0.148438 0.398438 -0.040156 130 140 168
-0.144531 0.398438 -0.032806 126 139 161
-0.140625 0.398438 -0.027523 92 106 128
-0.136719 0.398438 -0.023630 96 113 134
-0.132812 0.398438 -0.020778 96 112 132
-0.128906 0.398438 -0.017995 69 83 123
-0.125000 0.398438 -0.014714 69 83 133
-0.121094 0.398438 -0.011218 71 85 130
-0.117188 0.398438 -0.007427 74 90 126
-0.113281 0.398438 -0.003255 75 91 118
-0.109375 0.398438 0.001578 80 99 116
-0.105469 0.398438 0.006944 80 99 109
-0.101562 0.398438 0.012312 70 90 93
-0.097656 0.398438 0.017526 55 77 75
-0.093750 0.398438 0.022022 72 94 91
-0.089844 0.398438 0.025939 80 99 97
-0.085938 0.398438 0.029357 70 89 88
-0.082031 0.398438 0.032545 61 79 83
-0.078125 0.398438 0.035653 69 88 94
-0.074219 0.398438 0.038548 85 102 112
-0.070312 0.398438 0.041272 90 110 126
-0.066406 0.398438 0.043869 107 132 157
-0.062500 0.398438 0.046292 111 140 168
-0.058594 0.398438 0.048541 120 148 176
-0.054688 0.398438 0.050672 119 147 178
-0.050781 0.398438 0.052705 113 141 174
-0.046875 0.398438 0.054605 107 136 171
-0.042969 0.398438 0.056296 103 131 169
-0.039062 0.398438 0.057770 101 129 168
-0.035156 0.398438 0.059077 95 119 163
-0.031250 0.398438 0.060278 93 117 163
-0.027344 0.398438 0.061376 96 120 168
-0.023438 0.398438 0.062378 103 126 176
-0.019531 0.398438 0.063340 101 124 174
-0.015625 0.398438 0.064229 88 111 163
-0.011719 0.398438 0.064889 75 96 149
-0.007812 0.398438 0.065294 67 91 139
-0.003906 0.398438 0.065654 95 125 163
0.000000 0.398438 0.065976 102 137 169
0.003906 0.398438 0.066270 100 139 170
0.007812 0.398438 0.066625 99 140 172
0.011719 0.398438 0.066964 117 162 195
0.015625 0.398438 0.067277 96 142 175
0.019531 0.398438 0.067690 48 94 127
0.023438 0.398438 0.068181 57 102 133
0.027344 0.398438 0.068708 97 141 170
0.031250 0.398438 0.069203 99 140 168
0.035156 0.398438 0.069722 88 127 156
0.039062 0.398438 0.070301 77 116 147
0.042969 0.398438 0.070915 73 114 146
0.046875 0.398438 0.071376 66 109 144
0.050781 0.398438 0.071716 70 114 151
0.054688 0.398438 0.071882 85 134 174
0.058594 0.398438 0.071865 82 144 183
0.062500 0.398438 0.071792 73 138 178
0.066406 0.398438 0.071791 70 129 171
0.070312 0.398438 0.071669 68 122 166
0.074219 0.398438 0.071294 65 116 161
0.078125 0.398438 0.070892 67 111 158
0.082031 0.398438 0.070484 76 114 163
0.085938 0.398438 0.069836 87 119 166
0.089844 0.398438 0.069008 99 127 174
0.093750 0.398438 0.068292 105 132 175
0.097656 0.398438 0.067306 106 131 168
0.101562 0.398438 0.066292 98 124 154
0.105469 0.398438 0.065136 101 128 152
0.109375 0.398438 0.063778 114 141 162
0.113281 0.398438 0.062543 119 151 165
0.117188 0.398438 0.061256 117 147 157
0.121094 0.398438 0.059961 79 107 118
0.125000 0.398438 0.058379 77 106 114
0.128906 0.398438 0.056535 73 102 108
0.132812 0.398438 0.054344 69 96 103
0.136719 0.398438 0.051973 68 93 98
0.140625 0.398438 0.049632 70 93 99
0.144531 0.398438 0.047130 77 98 101
0.148438 0.398438 0.044524 82 102 103
0.152344 0.398438 0.042096 90 106 106
0.156250 0.398438 0.039548 97 112 110
0.160156 0.398438 0.036641 102 113 109
0.164062 0.398438 0.033111 80 88 81
0.167969 0.398438 0.029160 80 86 79
0.171875 0.398438 0.025208 94 97 89
0.175781 0.398438 0.021804 83 85 75
0.179688 0.398438 0.019355 83 85 77
0.183594 0.398438 0.017292 107 112 109
0.187500 0.398438 0.015248 118 124 123
0.191406 0.398438 0.013012 68 75 73
0.195312 0.398438 0.010342 60 67 65
0.199219 0.398438 0.007682 115 120 120
0.203125 0.398438 0.005117 112 121 130
0.207031 0.398438 0.002309 99 106 115
0.210938 0.398438 -0.000658 139 144 146
0.214844 0.398438 -0.003746 171 173 174
0.218750 0.398438 -0.006978 194 196 197
0.222656 0.398438 -0.010737 196 197 198
0.226562 0.398438 -0.015743 170 171 173
0.230469 0.398438 -0.022391 156 156 159
0.234375 0.398438 -0.029880 164 164 167
-0.152344 0.394531 -0.052820 49 50 65
-0.148438 0.394531 -0.040721 107 115 144
-0.144531 0.394531 -0.032720 100 111 136
-0.140625 0.394531 -0.027788 82 95 116
-0.136719 0.394531 -0.024198 93 108 129
-0.132812 0.394531 -0.021424 85 100 123
-0.128906 0.394531 -0.018642 75 88 125
-0.125000 0.394531 -0.015381 76 89 133
-0.121094 0.394531 -0.011912 75 87 125
-0.117188 0.394531 -0.008080 74 88 118
-0.113281 0.394531 -0.003804 81 93 113
-0.109375 0.394531 0.001416 86 97 110
-0.105469 0.394531 0.007510 80 94 96
-0.101562 0.394531 0.013580 70 85 80
-0.097656 0.394531 0.019343 62 75 66
-0.093750 0.394531 0.024126 77 90 80
-0.089844 0.394531 0.028138 81 97 86
-0.085938 0.394531 0.031554 70 86 76
-0.082031 0.394531 0.034704 58 73 66
-0.078125 0.394531 0.037834 60 75 72
-0.074219 0.394531 0.040742 68 82 82
-0.070312 0.394531 0.043530 67 86 90
-0.066406 0.394531 0.046158 78 107 116
-0.062500 0.394531 0.048620 80 116 128
-0.058594 0.394531 0.050946 96 130 144
-0.054688 0.394531 0.053201 110 145 160
-0.050781 0.394531 0.055355 115 149 168
-0.046875 0.394531 0.057349 110 144 166
-0.042969 0.394531 0.059116 105 138 165
-0.039062 0.394531 0.060657 104 138 166
-0.035156 0.394531 0.062023 102 135 170
-0.031250 0.394531 0.063275 86 118 156
-0.027344 0.394531 0.064408 72 104 145
-0.023438 0.394531 0.065425 70 101 145
-0.019531 0.394531 0.066378 73 104 151
-0.015625 0.394531 0.067260 71 101 151
-0.011719 0.394531 0.067903 66 94 144
-0.007812 0.394531 0.068248 58 89 136
-0.003906 0.394531 0.068513 79 112 155
0.000000 0.394531 0.068760 117 155 194
0.003906 0.394531 0.069004 112 154 196
0.007812 0.394531 0.069284 88 133 175
0.011719 0.394531 0.069534 111 160 201
0.015625 0.394531 0.069793 104 153 194
0.019531 0.394531 0.070190 62 112 149
0.023438 0.394531 0.070668 83 129 163
0.027344 0.394531 0.071167 113 157 186
0.031250 0.394531 0.071631 100 139 168
0.035156 0.394531 0.072127 76 113 140
0.039062 0.394531 0.072718 68 105 134
0.042969 0.394531 0.073351 78 117 148
0.046875 0.394531 0.073841 83 123 158
0.050781 0.394531 0.074203 81 125 164
0.054688 0.394531 0.074393 87 135 173
0.058594 0.394531 0.074398 77 131 167
0.062500 0.394531 0.074298 72 128 161
0.066406 0.394531 0.074176 75 125 160
0.070312 0.394531 0.074153 81 127 161
0.074219 0.394531 0.073983 83 123 159
0.078125 0.394531 0.073593 80 114 151
0.082031 0.394531 0.073095 78 108 144
0.085938 0.394531 0.072485 80 106 141
0.089844 0.394531 0.071725 88 111 145
0.093750 0.394531 0.071047 89 112 144
0.097656 0.394531 0.070132 94 117 148
0.101562 0.394531 0.069140 99 124 151
0.105469 0.394531 0.068011 97 122 147
0.109375 0.394531 0.066660 94 124 145
0.113281 0.394531 0.065375 109 141 160
0.117188 0.394531 0.064095 129 161 178
0.121094 0.394531 0.062783 121 152 165
0.125000 0.394531 0.061148 109 139 149
0.128906 0.394531 0.059255 90 120 130
0.132812 0.394531 0.056917 76 106 116
0.136719 0.394531 0.054387 72 100 111
0.140625 0.394531 0.051802 72 99 108
0.144531 0.394531 0.048983 75 100 107
0.148438 0.394531 0.046320 78 98 105
0.152344 0.394531 0.043757 86 104 108
0.156250 0.394531 0.041073 89 105 108
0.160156 0.394531 0.037970 106 118 118
0.164062 0.394531 0.034248 91 100 98
0.167969 0.394531 0.030032 81 86 81
0.171875 0.394531 0.025758 92 93 88
0.175781 0.394531 0.022123 85 85 78
0.179688 0.394531 0.019558 77 78 73
0.183594 0.394531 0.017452 109 114 111
0.187500 0.394531 0.015423 113 122 120
0.191406 0.394531 0.013194 73 80 78
0.195312 0.394531 0.010528 57 64 62
0.199219 0.394531 0.007923 73 79 78
0.203125 0.394531 0.005415 119 131 139
0.207031 0.394531 0.002650 92 101 115
0.210938 0.394531 -0.000318 122 128 135
0.214844 0.394531 -0.003403 162 167 169
0.218750 0.394531 -0.006587 194 198 199
0.222656 0.394531 -0.010269 200 201 203
0.226562 0.394531 -0.015291 178 179 181
0.230469 0.394531 -0.022001 167 168 170
0.234375 0.394531 -0.029743 172 173 175
-0.152344 0.390625 -0.050308 142 147 168
-0.148438 0.390625 -0.039312 111 120 148
-0.144531 0.390625 -0.032565 84 96 122
-0.140625 0.390625 -0.027943 82 95 113
-0.136719 0.390625 -0.024635 90 105 124
-0.132812 0.390625 -0.021933 77 91 112
-0.128906 0.390625 -0.019139 73 85 117
-0.125000 0.390625 -0.015940 77 90 125
-0.121094 0.390625 -0.012553 78 89 117
-0.117188 0.390625 -0.008779 79 90 113
-0.113281 0.390625 -0.004543 93 102 116
-0.109375 0.390625 0.000939 98 107 113
-0.105469 0.390625 0.007820 87 97 94
-0.101562 0.390625 0.014684 75 85 76
-0.097656 0.390625 0.021058 78 86 75
-0.093750 0.390625 0.026099 80 91 77
-0.089844 0.390625 0.030179 78 89 73
-0.085938 0.390625 0.033583 73 84 70
-0.082031 0.390625 0.036717 73 85 75
-0.078125 0.390625 0.039862 79 90 82
-0.074219 0.390625 0.042885 76 88 84
-0.070312 0.390625 0.045746 62 81 79
-0.066406 0.390625 0.048424 48 78 80
-0.062500 0.390625 0.050950 40 77 80
-0.058594 0.390625 0.053380 48 84 90
-0.054688 0.390625 0.055774 69 105 113
-0.050781 0.390625 0.058054 86 121 133
-0.046875 0.390625 0.060150 91 127 140
-0.042969 0.390625 0.062000 95 130 150
-0.039062 0.390625 0.063608 101 137 161
-0.035156 0.390625 0.065026 105 140 168
-0.031250 0.390625 0.066319 101 136 168
-0.027344 0.390625 0.067480 94 128 166
-0.023438 0.390625 0.068509 86 119 160
-0.019531 0.390625 0.069449 76 109 154
-0.015625 0.390625 0.070311 67 99 146
-0.011719 0.390625 0.070919 61 93 142
-0.007812 0.390625 0.071204 59 93 141
-0.003906 0.390625 0.071385 45 82 127
0.000000 0.390625 0.071546 91 132 178
0.003906 0.390625 0.071718 114 161 207
0.007812 0.390625 0.071925 97 148 195
0.011719 0.390625 0.072107 102 154 202
0.015625 0.390625 0.072302 93 146 190
0.019531 0.390625 0.072653 62 114 154
0.023438 0.390625 0.073099 75 123 159
0.027344 0.390625 0.073573 102 143 173
0.031250 0.390625 0.074017 90 126 152
0.035156 0.390625 0.074512 67 102 124
0.039062 0.390625 0.075111 61 95 120
0.042969 0.390625 0.075751 73 108 136
0.046875 0.390625 0.076264 76 115 146
0.050781 0.390625 0.076639 72 116 151
0.054688 0.390625 0.076865 79 125 159
0.058594 0.390625 0.076916 87 134 162
0.062500 0.390625 0.076851 80 126 150
0.066406 0.390625 0.076687 79 119 144
0.070312 0.390625 0.076481 83 119 143
0.074219 0.390625 0.076304 86 116 140
0.078125 0.390625 0.076111 83 109 132
0.082031 0.390625 0.075676 79 99 123
0.085938 0.390625 0.075070 78 96 118
0.089844 0.390625 0.074345 76 92 115
0.093750 0.390625 0.073722 79 97 119
0.097656 0.390625 0.072921 91 109 133
0.101562 0.390625 0.072017 99 121 144
0.105469 0.390625 0.070954 93 119 142
0.109375 0.390625 0.069628 87 117 138
0.113281 0.390625 0.068284 98 130 153
0.117188 0.390625 0.066945 116 151 171
0.121094 0.390625 0.065545 146 179 196
0.125000 0.390625 0.063837 136 169 184
0.128906 0.390625 0.061834 121 153 166
0.132812 0.390625 0.059382 106 137 150
0.136719 0.390625 0.056705 96 125 138
0.140625 0.390625 0.053839 89 117 131
0.144531 0.390625 0.050926 86 112 125
0.148438 0.390625 0.048126 85 109 119
0.152344 0.390625 0.045363 88 106 116
0.156250 0.390625 0.042537 99 114 122
0.160156 0.390625 0.039255 119 130 134
0.164062 0.390625 0.035345 91 100 102
0.167969 0.390625 0.030861 72 77 76
0.171875 0.390625 0.026246 99 100 96
0.175781 0.390625 0.022378 96 95 91
0.179688 0.390625 0.019701 70 71 67
0.183594 0.390625 0.017559 100 105 102
0.187500 0.390625 0.015565 115 124 122
0.191406 0.390625 0.013366 85 92 90
0.195312 0.390625 0.010717 66 73 71
0.199219 0.390625 0.008172 63 69 68
0.203125 0.390625 0.005730 127 138 143
0.207031 0.390625 0.003005 107 116 134
0.210938 0.390625 0.000019 113 118 130
0.214844 0.390625 -0.003066 155 160 165
0.218750 0.390625 -0.006269 193 197 199
0.222656 0.390625 -0.009928 200 201 203
0.226562 0.390625 -0.014899 179 180 183
0.230469 0.390625 -0.021646 168 169 171
0.234375 0.390625 -0.029567 167 168 170
-0.152344 0.386719 -0.046900 167 175 196
-0.148438 0.386719 -0.037706 101 110 136
-0.144531 0.386719 -0.032352 73 85 109
-0.140625 0.386719 -0.028064 91 103 117
-0.136719 0.386719 -0.024882 84 97 115
-0.132812 0.386719 -0.022270 68 82 101
-0.128906 0.386719 -0.019501 61 76 96
-0.125000 0.386719 -0.016396 74 89 109
-0.121094 0.386719 -0.013153 77 91 105
-0.117188 0.386719 -0.009556 82 95 106
-0.113281 0.386719 -0.005547 104 115 122
-0.109375 0.386719 -0.000011 110 119 121
-0.105469 0.386719 0.007863 93 100 94
-0.101562 0.386719 0.015674 78 86 76
-0.097656 0.386719 0.022673 71 77 65
-0.093750 0.386719 0.027962 75 81 67
-0.089844 0.386719 0.032079 75 81 69
-0.085938 0.386719 0.035453 70 78 65
-0.082031 0.386719 0.038563 73 83 74
-0.078125 0.386719 0.041835 81 92 84
-0.074219 0.386719 0.045002 80 92 88
-0.070312 0.386719 0.047960 68 87 85
-0.066406 0.386719 0.050738 68 95 96
-0.062500 0.386719 0.053371 61 91 94
-0.058594 0.386719 0.055925 59 92 97
-0.054688 0.386719 0.058449 60 93 100
-0.050781 0.386719 0.060851 53 87 97
-0.046875 0.386719 0.063044 49 83 95
-0.042969 0.386719 0.064956 60 93 112
-0.039062 0.386719 0.066598 75 110 132
-0.035156 0.386719 0.068035 77 111 138
-0.031250 0.386719 0.069330 90 123 154
-0.027344 0.386719 0.070479 103 137 174
-0.023438 0.386719 0.071504 108 142 180
-0.019531 0.386719 0.072435 100 135 177
-0.015625 0.386719 0.073272 89 123 169
-0.011719 0.386719 0.073827 78 112 158
-0.007812 0.386719 0.074053 69 105 153
-0.003906 0.386719 0.074184 65 106 152
0.000000 0.386719 0.074269 61 105 152
0.003906 0.386719 0.074342 84 134 183
0.007812 0.386719 0.074482 93 146 196
0.011719 0.386719 0.074624 92 148 197
0.015625 0.386719 0.074774 89 146 191
0.019531 0.386719 0.075081 59 112 152
0.023438 0.386719 0.075494 37 86 119
0.027344 0.386719 0.075943 84 124 149
0.031250 0.386719 0.076379 87 122 141
0.035156 0.386719 0.076873 82 111 127
0.039062 0.386719 0.077469 77 106 122
0.042969 0.386719 0.078098 76 111 130
0.046875 0.386719 0.078608 72 110 133
0.050781 0.386719 0.078975 71 115 142
0.054688 0.386719 0.079218 85 129 154
0.058594 0.386719 0.079308 95 132 151
0.062500 0.386719 0.079277 83 116 131
0.066406 0.386719 0.079138 72 100 114
0.070312 0.386719 0.078878 70 94 106
0.074219 0.386719 0.078542 74 94 103
0.078125 0.386719 0.078250 79 94 101
0.082031 0.386719 0.078058 83 96 102
0.085938 0.386719 0.077698 88 99 103
0.089844 0.386719 0.077131 86 97 103
0.093750 0.386719 0.076563 92 105 113
0.097656 0.386719 0.075784 97 113 126
0.101562 0.386719 0.074900 95 117 131
0.105469 0.386719 0.073849 92 117 137
0.109375 0.386719 0.072509 92 123 144
0.113281 0.386719 0.071136 96 130 155
0.117188 0.386719 0.069679 102 136 161
0.121094 0.386719 0.068052 125 160 180
0.125000 0.386719 0.066178 145 180 199
0.128906 0.386719 0.064014 163 196 215
0.132812 0.386719 0.061409 152 185 204
0.136719 0.386719 0.058573 121 154 173
0.140625 0.386719 0.055672 96 127 145
0.144531 0.386719 0.052782 95 122 139
0.148438 0.386719 0.049802 102 128 143
0.152344 0.386719 0.046821 93 112 127
0.156250 0.386719 0.043814 95 111 124
0.160156 0.386719 0.040372 109 122 130
0.164062 0.386719 0.036290 84 94 99
0.167969 0.386719 0.031551 71 75 78
0.171875 0.386719 0.026606 99 99 100
0.175781 0.386719 0.022518 100 99 98
0.179688 0.386719 0.019736 77 77 76
0.183594 0.386719 0.017558 91 95 95
0.187500 0.386719 0.015598 119 128 126
0.191406 0.386719 0.013462 93 103 100
0.195312 0.386719 0.010852 67 77 74
0.199219 0.386719 0.008358 70 76 75
0.203125 0.386719 0.005978 110 118 120
0.207031 0.386719 0.003300 119 128 146
0.210938 0.386719 0.000308 99 106 122
0.214844 0.386719 -0.002791 141 145 153
0.218750 0.386719 -0.006019 187 190 194
0.222656 0.386719 -0.009683 194 197 199
0.226562 0.386719 -0.014618 176 178 180
0.230469 0.386719 -0.021343 167 167 169
0.234375 0.386719 -0.029396 162 163 165
-0.156250 0.382812 -0.019052 56 70 114
-0.152344 0.382812 -0.044597 150 163 187
-0.148438 0.382812 -0.036684 92 102 127
-0.144531 0.382812 -0.032035 77 89 110
-0.140625 0.382812 -0.027964 102 114 130
-0.136719 0.382812 -0.024950 69 82 99
-0.132812 0.382812 -0.022375 59 72 89
-0.128906 0.382812 -0.019626 59 78 86
-0.125000 0.382812 -0.016642 80 99 104
-0.121094 0.382812 -0.013532 81 99 102
-0.117188 0.382812 -0.010234 89 104 106
-0.113281 0.382812 -0.006644 118 129 129
-0.109375 0.382812 -0.001461 122 133 128
-0.105469 0.382812 0.007301 98 105 97
-0.101562 0.382812 0.016307 82 88 76
-0.097656 0.382812 0.024043 63 66 55
-0.093750 0.382812 0.029591 78 84 72
-0.089844 0.382812 0.033731 88 94 84
-0.085938 0.382812 0.037084 79 86 78
-0.082031 0.382812 0.040280 71 80 75
-0.078125 0.382812 0.043696 75 86 82
-0.074219 0.382812 0.047006 84 96 96
-0.070312 0.382812 0.050096 87 102 105
-0.066406 0.382812 0.053015 104 127 135
-0.062500 0.382812 0.055794 90 117 127
-0.058594 0.382812 0.058495 79 104 117
-0.054688 0.382812 0.061171 71 99 113
-0.050781 0.382812 0.063704 66 93 110
-0.046875 0.382812 0.065998 59 87 108
-0.042969 0.382812 0.067957 54 84 108
-0.039062 0.382812 0.069606 54 84 112
-0.035156 0.382812 0.071029 49 80 111
-0.031250 0.382812 0.072302 51 84 119
-0.027344 0.382812 0.073419 58 90 129
-0.023438 0.382812 0.074425 67 100 143
-0.019531 0.382812 0.075337 81 114 159
-0.015625 0.382812 0.076149 90 124 170
-0.011719 0.382812 0.076658 90 124 172
-0.007812 0.382812 0.076822 81 119 166
-0.003906 0.382812 0.076894 90 130 179
0.000000 0.382812 0.076914 52 98 147
0.003906 0.382812 0.076921 68 120 170
0.007812 0.382812 0.077005 83 139 190
0.011719 0.382812 0.077103 78 138 188
0.015625 0.382812 0.077212 89 147 193
0.019531 0.382812 0.077488 79 133 171
0.023438 0.382812 0.077869 56 103 133
0.027344 0.382812 0.078290 90 128 147
0.031250 0.382812 0.078690 86 118 131
0.035156 0.382812 0.079154 75 104 112
0.039062 0.382812 0.079718 77 106 112
0.042969 0.382812 0.080310 89 121 132
0.046875 0.382812 0.080801 84 121 137
0.050781 0.382812 0.081153 70 113 132
0.054688 0.382812 0.081411 74 112 131
0.058594 0.382812 0.081532 73 101 113
0.062500 0.382812 0.081553 71 91 98
0.066406 0.382812 0.081468 70 88 92
0.070312 0.382812 0.081239 78 92 93
0.074219 0.382812 0.080884 89 100 96
0.078125 0.382812 0.080488 96 103 96
0.082031 0.382812 0.080095 99 104 97
0.085938 0.382812 0.079741 103 106 97
0.089844 0.382812 0.079399 92 97 91
0.093750 0.382812 0.078962 94 103 100
0.097656 0.382812 0.078250 87 101 104
0.101562 0.382812 0.077407 75 93 103
0.105469 0.382812 0.076390 70 96 113
0.109375 0.382812 0.075056 77 108 129
0.113281 0.382812 0.073659 79 113 140
0.117188 0.382812 0.072166 74 109 137
0.121094 0.382812 0.070449 81 115 140
0.125000 0.382812 0.068477 107 142 164
0.128906 0.382812 0.066149 139 174 196
0.132812 0.382812 0.063409 153 188 210
0.136719 0.382812 0.060511 149 181 204
0.140625 0.382812 0.057524 135 167 188
0.144531 0.382812 0.054479 130 158 179
0.148438 0.382812 0.051290 131 156 176
0.152344 0.382812 0.048106 116 137 156
0.156250 0.382812 0.044916 95 113 127
0.160156 0.382812 0.041300 95 107 119
0.164062 0.382812 0.037054 86 95 104
0.167969 0.382812 0.032093 82 86 93
0.171875 0.382812 0.026846 89 89 94
0.175781 0.382812 0.022561 84 80 81
0.179688 0.382812 0.019695 81 79 80
0.183594 0.382812 0.017508 87 91 91
0.187500 0.382812 0.015583 119 128 126
0.191406 0.382812 0.013511 97 107 104
0.195312 0.382812 0.010955 61 70 67
0.199219 0.382812 0.008523 70 77 75
0.203125 0.382812 0.006209 84 92 91
0.207031 0.382812 0.003572 139 149 163
0.210938 0.382812 0.000566 101 108 129
0.214844 0.382812 -0.002564 135 140 153
0.218750 0.382812 -0.005826 186 190 194
0.222656 0.382812 -0.009490 194 197 201
0.226562 0.382812 -0.014338 178 180 184
0.230469 0.382812 -0.021000 171 171 174
0.234375 0.382812 -0.029152 163 164 166
-0.156250 0.378906 -0.019592 56 79 131
-0.152344 0.378906 -0.042104 144 164 189
-0.148438 0.378906 -0.035932 97 111 135
-0.144531 0.378906 -0.031538 93 108 126
-0.140625 0.378906 -0.027676 93 106 120
-0.136719 0.378906 -0.024727 61 73 91
-0.132812 0.378906 -0.022214 57 71 84
-0.128906 0.378906 -0.019507 68 90 88
-0.125000 0.378906 -0.016660 89 115 105
-0.121094 0.378906 -0.013708 88 108 101
-0.117188 0.378906 -0.010803 91 110 101
-0.113281 0.378906 -0.007684 123 138 130
-0.109375 0.378906 -0.003474 127 138 129
-0.105469 0.378906 0.005861 97 105 94
-0.101562 0.378906 0.016580 79 87 74
-0.097656 0.378906 0.025072 64 70 60
-0.093750 0.378906 0.030876 84 89 82
-0.089844 0.378906 0.035063 98 103 99
-0.085938 0.378906 0.038554 91 97 95
-0.082031 0.378906 0.041889 78 88 89
-0.078125 0.378906 0.045424 82 93 97
-0.074219 0.378906 0.048895 92 103 109
-0.070312 0.378906 0.052138 96 109 120
-0.066406 0.378906 0.055215 106 122 142
-0.062500 0.378906 0.058152 95 112 138
-0.058594 0.378906 0.061027 83 100 128
-0.054688 0.378906 0.063878 80 99 128
-0.050781 0.378906 0.066556 87 108 139
-0.046875 0.378906 0.068956 89 112 144
-0.042969 0.378906 0.070963 76 100 136
-0.039062 0.378906 0.072604 60 84 122
-0.035156 0.378906 0.073995 54 79 120
-0.031250 0.378906 0.075230 46 73 118
-0.027344 0.378906 0.076301 35 63 110
-0.023438 0.378906 0.077272 30 60 110
-0.019531 0.378906 0.078142 41 73 124
-0.015625 0.378906 0.078911 60 93 146
-0.011719 0.378906 0.079368 72 105 159
-0.007812 0.378906 0.079468 71 107 159
-0.003906 0.378906 0.079466 67 109 157
0.000000 0.378906 0.079426 54 101 147
0.003906 0.378906 0.079398 70 124 171
0.007812 0.378906 0.079445 73 131 179
0.011719 0.378906 0.079501 71 133 180
0.015625 0.378906 0.079570 86 147 191
0.019531 0.378906 0.079804 91 147 182
0.023438 0.378906 0.080147 98 146 169
0.027344 0.378906 0.080532 99 137 150
0.031250 0.378906 0.080889 95 126 131
0.035156 0.378906 0.081320 82 108 109
0.039062 0.378906 0.081829 79 105 104
0.042969 0.378906 0.082352 85 115 117
0.046875 0.378906 0.082794 75 110 116
0.050781 0.378906 0.083116 57 99 111
0.054688 0.378906 0.083375 60 96 108
0.058594 0.378906 0.083505 78 99 104
0.062500 0.378906 0.083555 81 93 93
0.066406 0.378906 0.083521 84 93 88
0.070312 0.378906 0.083347 95 100 93
0.074219 0.378906 0.083018 105 107 94
0.078125 0.378906 0.082637 107 108 90
0.082031 0.378906 0.082216 110 109 89
0.085938 0.378906 0.081798 111 110 90
0.089844 0.378906 0.081417 96 97 81
0.093750 0.378906 0.081063 92 98 86
0.097656 0.378906 0.080511 83 94 90
0.101562 0.378906 0.079764 70 87 94
0.105469 0.378906 0.078773 64 87 101
0.109375 0.378906 0.077433 62 93 114
0.113281 0.378906 0.075947 60 93 121
0.117188 0.378906 0.074344 53 89 118
0.121094 0.378906 0.072495 59 94 120
0.125000 0.378906 0.070420 62 97 121
0.128906 0.378906 0.068039 76 111 135
0.132812 0.378906 0.065258 100 136 160
0.136719 0.378906 0.062281 129 163 188
0.140625 0.378906 0.059194 146 178 203
0.144531 0.378906 0.055988 146 176 200
0.148438 0.378906 0.052634 142 168 191
0.152344 0.378906 0.049260 133 155 176
0.156250 0.378906 0.045881 112 129 147
0.160156 0.378906 0.042073 100 112 128
0.164062 0.378906 0.037669 91 99 110
0.167969 0.378906 0.032517 100 103 112
0.171875 0.378906 0.027015 99 98 105
0.175781 0.378906 0.022563 78 73 77
0.179688 0.378906 0.019631 76 74 75
0.183594 0.378906 0.017440 87 91 90
0.187500 0.378906 0.015547 112 121 118
0.191406 0.378906 0.013533 105 114 111
0.195312 0.378906 0.011040 59 68 65
0.199219 0.378906 0.008661 63 72 69
0.203125 0.378906 0.006396 70 80 77
0.207031 0.378906 0.003799 130 140 148
0.210938 0.378906 0.000789 106 114 137
0.214844 0.378906 -0.002360 124 129 147
0.218750 0.378906 -0.005657 178 181 189
0.222656 0.378906 -0.009356 190 192 197
0.226562 0.378906 -0.014130 177 179 182
0.230469 0.378906 -0.020675 171 171 173
0.234375 0.378906 -0.028816 161 162 164
-0.156250 0.375000 -0.030776 32 47 95
-0.152344 0.375000 -0.040247 101 122 154
-0.148438 0.375000 -0.034946 82 94 116
-0.144531 0.375000 -0.030926 110 123 137
-0.140625 0.375000 -0.027281 70 81 92
-0.136719 0.375000 -0.024380 66 76 88
-0.132812 0.375000 -0.021892 63 76 84
-0.128906 0.375000 -0.019273 75 96 88
-0.125000 0.375000 -0.016562 97 121 108
-0.121094 0.375000 -0.013756 88 110 98
-0.117188 0.375000 -0.011263 87 106 97
-0.113281 0.375000 -0.008566 119 134 127
-0.109375 0.375000 -0.005647 120 132 125
-0.105469 0.375000 0.003200 84 95 88
-0.101562 0.375000 0.016320 67 77 69
-0.097656 0.375000 0.025766 65 71 67
-0.093750 0.375000 0.031850 79 85 83
-0.089844 0.375000 0.036261 87 92 95
-0.085938 0.375000 0.039870 85 91 97
-0.082031 0.375000 0.043331 83 92 101
-0.078125 0.375000 0.047016 87 101 111
-0.074219 0.375000 0.050647 89 105 119
-0.070312 0.375000 0.054049 86 102 120
-0.066406 0.375000 0.057297 81 100 126
-0.062500 0.375000 0.060404 90 110 142
-0.058594 0.375000 0.063460 92 112 147
-0.054688 0.375000 0.066485 84 104 140
-0.050781 0.375000 0.069308 76 98 139
-0.046875 0.375000 0.071816 78 101 143
-0.042969 0.375000 0.073872 79 101 148
-0.039062 0.375000 0.075503 73 97 145
-0.035156 0.375000 0.076868 72 95 145
-0.031250 0.375000 0.078072 71 97 148
-0.027344 0.375000 0.079106 63 91 141
-0.023438 0.375000 0.080043 49 77 127
-0.019531 0.375000 0.080868 40 71 118
-0.015625 0.375000 0.081597 43 74 121
-0.011719 0.375000 0.082006 46 79 124
-0.007812 0.375000 0.082050 44 78 123
-0.003906 0.375000 0.081982 42 80 119
0.000000 0.375000 0.081884 56 98 138
0.003906 0.375000 0.081814 69 116 158
0.007812 0.375000 0.081817 63 116 158
0.011719 0.375000 0.081841 78 135 178
0.015625 0.375000 0.081880 89 148 188
0.019531 0.375000 0.082078 80 136 169
0.023438 0.375000 0.082377 94 145 172
0.027344 0.375000 0.082716 113 156 175
0.031250 0.375000 0.083027 135 173 186
0.035156 0.375000 0.083403 140 173 182
0.039062 0.375000 0.083855 119 149 157
0.042969 0.375000 0.084305 85 118 127
0.046875 0.375000 0.084691 59 96 105
0.050781 0.375000 0.084994 68 107 122
0.054688 0.375000 0.085271 101 137 149
0.058594 0.375000 0.085432 119 144 149
0.062500 0.375000 0.085522 107 125 125
0.066406 0.375000 0.085527 90 105 100
0.070312 0.375000 0.085398 82 92 83
0.074219 0.375000 0.085114 80 86 72
0.078125 0.375000 0.084781 86 89 72
0.082031 0.375000 0.084425 97 98 80
0.085938 0.375000 0.084056 107 109 88
0.089844 0.375000 0.083685 108 112 95
0.093750 0.375000 0.083285 100 111 97
0.097656 0.375000 0.082682 96 111 104
0.101562 0.375000 0.081851 94 114 115
0.105469 0.375000 0.080790 84 111 120
0.109375 0.375000 0.079426 73 102 120
0.113281 0.375000 0.077885 63 94 117
0.117188 0.375000 0.076237 58 91 118
0.121094 0.375000 0.074388 63 97 125
0.125000 0.375000 0.072284 54 88 116
0.128906 0.375000 0.069831 48 82 110
0.132812 0.375000 0.066956 53 87 115
0.136719 0.375000 0.063890 70 105 133
0.140625 0.375000 0.060693 95 128 159
0.144531 0.375000 0.057360 113 146 177
0.148438 0.375000 0.053866 126 155 185
0.152344 0.375000 0.050301 124 149 179
0.156250 0.375000 0.046731 123 144 171
0.160156 0.375000 0.042721 109 125 150
0.164062 0.375000 0.038149 88 99 119
0.167969 0.375000 0.032816 111 117 131
0.171875 0.375000 0.027087 125 128 137
0.175781 0.375000 0.022486 92 93 98
0.179688 0.375000 0.019498 77 78 80
0.183594 0.375000 0.017321 83 89 87
0.187500 0.375000 0.015470 104 113 110
0.191406 0.375000 0.013515 113 122 117
0.195312 0.375000 0.011105 65 74 69
0.199219 0.375000 0.008792 60 69 64
0.203125 0.375000 0.006565 73 83 78
0.207031 0.375000 0.003997 104 112 112
0.210938 0.375000 0.000974 111 120 140
0.214844 0.375000 -0.002204 106 112 134
0.218750 0.375000 -0.005521 162 165 176
0.222656 0.375000 -0.009235 182 184 191
0.226562 0.375000 -0.013927 177 178 182
0.230469 0.375000 -0.020322 177 177 181
0.234375 0.375000 -0.028454 177 177 180
-0.156250 0.371094 -0.039330 28 35 71
-0.152344 0.371094 -0.039308 75 87 118
-0.148438 0.371094 -0.033747 79 87 102
-0.144531 0.371094 -0.030111 93 101 109
-0.140625 0.371094 -0.026677 68 74 78
-0.136719 0.371094 -0.023875 76 84 87
-0.132812 0.371094 -0.021441 60 70 69
-0.128906 0.371094 -0.018936 74 87 79
-0.125000 0.371094 -0.016370 105 121 111
-0.121094 0.371094 -0.013727 72 88 83
-0.117188 0.371094 -0.011593 97 115 112
-0.113281 0.371094 -0.009442 112 129 131
-0.109375 0.371094 -0.007232 81 95 100
-0.105469 0.371094 -0.000623 94 108 111
-0.101562 0.371094 0.015247 79 90 94
-0.097656 0.371094 0.026059 74 81 87
-0.093750 0.371094 0.032527 62 69 75
-0.089844 0.371094 0.037226 108 115 122
-0.085938 0.371094 0.040994 111 119 129
-0.082031 0.371094 0.044619 107 119 134
-0.078125 0.371094 0.048467 107 123 142
-0.074219 0.371094 0.052271 113 134 157
-0.070312 0.371094 0.055850 95 120 145
-0.066406 0.371094 0.059292 91 122 149
-0.062500 0.371094 0.062588 86 118 149
-0.058594 0.371094 0.065823 85 118 152
-0.054688 0.371094 0.069009 91 123 162
-0.050781 0.371094 0.071967 99 130 176
-0.046875 0.371094 0.074589 99 129 179
-0.042969 0.371094 0.076695 90 120 174
-0.039062 0.371094 0.078316 82 108 165
-0.035156 0.371094 0.079655 87 113 170
-0.031250 0.371094 0.080835 95 122 175
-0.027344 0.371094 0.081845 82 110 158
-0.023438 0.371094 0.082760 102 131 173
-0.019531 0.371094 0.083548 112 142 178
-0.015625 0.371094 0.084243 105 136 165
-0.011719 0.371094 0.084610 63 95 120
-0.007812 0.371094 0.084593 58 88 112
-0.003906 0.371094 0.084453 63 91 115
0.000000 0.371094 0.084290 117 144 171
0.003906 0.371094 0.084164 123 157 185
0.007812 0.371094 0.084120 118 159 191
0.011719 0.371094 0.084113 110 159 192
0.015625 0.371094 0.084125 126 178 215
0.019531 0.371094 0.084287 113 169 206
0.023438 0.371094 0.084538 118 174 211
0.027344 0.371094 0.084829 111 165 201
0.031250 0.371094 0.085086 114 167 199
0.035156 0.371094 0.085400 138 184 217
0.039062 0.371094 0.085785 143 187 216
0.042969 0.371094 0.086183 122 163 191
0.046875 0.371094 0.086531 115 155 181
0.050781 0.371094 0.086827 120 155 183
0.054688 0.371094 0.087136 106 142 164
0.058594 0.371094 0.087345 112 152 162
0.062500 0.371094 0.087487 111 150 155
0.066406 0.371094 0.087528 99 130 133
0.070312 0.371094 0.087437 72 98 99
0.074219 0.371094 0.087207 60 79 77
0.078125 0.371094 0.086941 70 85 80
0.082031 0.371094 0.086659 85 98 89
0.085938 0.371094 0.086357 91 104 94
0.089844 0.371094 0.086027 89 107 95
0.093750 0.371094 0.085606 91 112 103
0.097656 0.371094 0.084956 96 121 115
0.101562 0.371094 0.084048 93 122 118
0.105469 0.371094 0.082911 90 120 122
0.109375 0.371094 0.081514 97 127 135
0.113281 0.371094 0.079947 91 121 132
0.117188 0.371094 0.078260 67 97 115
0.121094 0.371094 0.076355 64 97 124
0.125000 0.371094 0.074187 64 98 130
0.128906 0.371094 0.071666 63 99 128
0.132812 0.371094 0.068708 58 93 125
0.136719 0.371094 0.065563 48 83 117
0.140625 0.371094 0.062250 51 87 123
0.144531 0.371094 0.058791 83 118 158
0.148438 0.371094 0.055141 119 152 195
0.152344 0.371094 0.051389 102 133 177
0.156250 0.371094 0.047618 97 124 167
0.160156 0.371094 0.043381 117 140 181
0.164062 0.371094 0.038593 114 133 166
0.167969 0.371094 0.033028 116 132 155
0.171875 0.371094 0.027063 117 131 144
0.175781 0.371094 0.022310 84 97 103
0.179688 0.371094 0.019274 77 89 89
0.183594 0.371094 0.017132 89 100 96
0.187500 0.371094 0.015341 102 113 107
0.191406 0.371094 0.013447 119 130 122
0.195312 0.371094 0.011125 74 86 76
0.199219 0.371094 0.008880 48 60 48
0.203125 0.371094 0.006680 80 93 81
0.207031 0.371094 0.004142 80 90 84
0.210938 0.371094 0.001114 119 130 143
0.214844 0.371094 -0.002080 102 110 134
0.218750 0.371094 -0.005408 148 151 166
0.222656 0.371094 -0.009152 168 170 182
0.226562 0.371094 -0.013729 171 171 177
0.230469 0.371094 -0.019956 174 174 178
0.234375 0.371094 -0.027975 176 175 177
-0.156250 0.367188 -0.043229 73 84 121
-0.152344 0.367188 -0.038536 100 114 138
-0.148438 0.367188 -0.032588 97 105 116
-0.144531 0.367188 -0.029269 94 100 103
-0.140625 0.367188 -0.026003 68 73 72
-0.136719 0.367188 -0.023287 68 74 72
-0.132812 0.367188 -0.020972 60 69 66
-0.128906 0.367188 -0.018603 78 89 83
-0.125000 0.367188 -0.016161 101 113 109
-0.121094 0.367188 -0.013704 66 81 81
-0.117188 0.367188 -0.011891 92 109 112
-0.113281 0.367188 -0.010340 110 127 135
-0.109375 0.367188 -0.008445 81 99 107
-0.105469 0.367188 -0.004597 87 104 112
-0.101562 0.367188 0.012921 66 79 88
-0.097656 0.367188 0.025994 83 92 101
-0.093750 0.367188 0.032918 82 88 96
-0.089844 0.367188 0.038014 121 128 138
-0.085938 0.367188 0.041983 113 122 133
-0.082031 0.367188 0.045782 102 117 132
-0.078125 0.367188 0.049797 92 109 130
-0.074219 0.367188 0.053764 86 110 135
-0.070312 0.367188 0.057533 71 101 128
-0.066406 0.367188 0.061186 52 88 113
-0.062500 0.367188 0.064681 49 88 117
-0.058594 0.367188 0.068098 54 90 124
-0.054688 0.367188 0.071444 63 98 138
-0.050781 0.367188 0.074538 76 110 156
-0.046875 0.367188 0.077281 89 121 172
-0.042969 0.367188 0.079440 96 127 182
-0.039062 0.367188 0.081047 98 129 186
-0.035156 0.367188 0.082358 92 121 177
-0.031250 0.367188 0.083516 97 127 179
-0.027344 0.367188 0.084506 98 126 173
-0.023438 0.367188 0.085408 131 161 199
-0.019531 0.367188 0.086166 142 171 201
-0.015625 0.367188 0.086834 137 168 189
-0.011719 0.367188 0.087171 90 122 137
