ply
    format ascii 1.0
    element vertex 72430
    property float x
    property float y
    property float z
    property uchar red
    property uchar green
    property uchar blue
    end_header
0.207031 -0.144531 -0.035257 152 104 97
0.210938 -0.144531 -0.029189 109 76 69
0.214844 -0.144531 -0.020740 161 122 111
0.218750 -0.144531 -0.006735 170 128 119
0.222656 -0.144531 0.043548 167 134 117
0.226562 -0.144531 0.058419 137 116 97
0.230469 -0.144531 0.011018 129 102 74
-0.136719 -0.148438 -0.015386 130 152 161
-0.132812 -0.148438 -0.023299 171 181 191
-0.128906 -0.148438 -0.030774 161 172 173
-0.125000 -0.148438 -0.036531 130 152 161
-0.121094 -0.148438 -0.042321 136 162 173
-0.117188 -0.148438 -0.048760 143 170 182
-0.113281 -0.148438 -0.054225 170 189 201
-0.109375 -0.148438 -0.058834 189 207 208
-0.105469 -0.148438 -0.062960 167 201 191
-0.101562 -0.148438 -0.067093 128 166 152
-0.097656 -0.148438 -0.070930 139 165 155
-0.093750 -0.148438 -0.074582 154 174 170
-0.089844 -0.148438 -0.077589 156 170 172
-0.085938 -0.148438 -0.079850 160 168 177
-0.082031 -0.148438 -0.080353 175 179 188
-0.078125 -0.148438 -0.079912 189 192 197
-0.074219 -0.148438 -0.080086 197 199 201
-0.070312 -0.148438 -0.081368 200 202 203
-0.066406 -0.148438 -0.081539 199 201 201
-0.062500 -0.148438 -0.081055 195 196 196
-0.058594 -0.148438 -0.081187 191 192 192
-0.054688 -0.148438 -0.080988 190 190 190
-0.050781 -0.148438 -0.081700 191 191 191
-0.046875 -0.148438 -0.082569 192 192 192
-0.042969 -0.148438 -0.083280 189 189 189
-0.039062 -0.148438 -0.084101 184 184 184
-0.035156 -0.148438 -0.084442 180 180 180
-0.031250 -0.148438 -0.084913 177 177 177
-0.027344 -0.148438 -0.084386 174 174 174
-0.023438 -0.148438 -0.083379 172 172 172
-0.019531 -0.148438 -0.081750 168 168 168
-0.015625 -0.148438 -0.079566 165 165 165
-0.011719 -0.148438 -0.077108 164 164 164
-0.007812 -0.148438 -0.074167 164 164 164
-0.003906 -0.148438 -0.071148 165 165 165
0.000000 -0.148438 -0.067977 167 167 167
0.003906 -0.148438 -0.064415 168 168 168
0.007812 -0.148438 -0.059094 169 168 169
0.011719 -0.148438 -0.055182 168 168 168
0.015625 -0.148438 -0.056041 167 166 167
0.019531 -0.148438 -0.054345 164 164 164
0.023438 -0.148438 -0.050304 161 161 161
0.027344 -0.148438 -0.040615 159 158 159
0.031250 -0.148438 -0.027468 157 157 157
0.035156 -0.148438 -0.027770 156 156 156
0.039062 -0.148438 -0.036334 156 156 156
0.042969 -0.148438 -0.047524 157 157 157
0.046875 -0.148438 -0.058118 158 158 158
0.050781 -0.148438 -0.064856 159 159 159
0.054688 -0.148438 -0.069334 160 160 160
0.058594 -0.148438 -0.072357 160 160 160
0.062500 -0.148438 -0.074672 160 160 160
0.066406 -0.148438 -0.077468 162 162 162
0.070312 -0.148438 -0.080916 168 168 168
0.074219 -0.148438 -0.084584 177 177 177
0.078125 -0.148438 -0.088358 188 188 188
0.082031 -0.148438 -0.091534 197 197 197
0.085938 -0.148438 -0.093907 205 205 205
0.089844 -0.148438 -0.094970 211 211 211
0.093750 -0.148438 -0.094886 217 217 217
0.097656 -0.148438 -0.094093 223 223 223
0.101562 -0.148438 -0.092453 228 228 228
0.105469 -0.148438 -0.091233 231 231 231
0.109375 -0.148438 -0.089991 235 235 235
0.113281 -0.148438 -0.089456 237 237 237
0.117188 -0.148438 -0.089542 239 238 238
0.121094 -0.148438 -0.089102 237 234 235
0.125000 -0.148438 -0.088281 232 226 229
0.128906 -0.148438 -0.087147 223 216 221
0.132812 -0.148438 -0.085711 210 209 215
0.136719 -0.148438 -0.084499 188 201 207
0.140625 -0.148438 -0.083605 165 192 203
0.144531 -0.148438 -0.082312 160 194 207
0.148438 -0.148438 -0.080885 171 201 215
0.152344 -0.148438 -0.079538 182 204 219
0.156250 -0.148438 -0.078127 187 206 222
0.160156 -0.148438 -0.076899 188 205 221
0.164062 -0.148438 -0.075685 192 206 220
0.167969 -0.148438 -0.074452 181 198 213
0.171875 -0.148438 -0.072892 177 195 210
0.175781 -0.148438 -0.070586 176 195 210
0.179688 -0.148438 -0.067767 188 207 220
0.183594 -0.148438 -0.064591 237 238 242
0.187500 -0.148438 -0.061153 228 220 226
0.191406 -0.148438 -0.057541 158 121 125
0.195312 -0.148438 -0.052226 163 111 99
0.199219 -0.148438 -0.046864 175 125 109
0.203125 -0.148438 -0.040365 179 131 119
0.207031 -0.148438 -0.032332 136 90 85
0.210938 -0.148438 -0.026037 115 79 72
0.214844 -0.148438 -0.016515 168 127 115
0.218750 -0.148438 0.004161 179 136 125
0.222656 -0.148438 0.055336 170 133 117
0.226562 -0.148438 0.050903 105 79 68
-0.136719 -0.152344 -0.013817 145 155 162
-0.132812 -0.152344 -0.020436 163 194 198
-0.128906 -0.152344 -0.027456 169 175 175
-0.125000 -0.152344 -0.033464 145 155 162
-0.121094 -0.152344 -0.039455 142 160 170
-0.117188 -0.152344 -0.045622 136 160 173
-0.113281 -0.152344 -0.050961 132 158 174
-0.109375 -0.152344 -0.055639 147 177 183
-0.105469 -0.152344 -0.060067 171 200 196
-0.101562 -0.152344 -0.064446 152 181 174
-0.097656 -0.152344 -0.068012 125 158 150
-0.093750 -0.152344 -0.070855 127 154 149
-0.089844 -0.152344 -0.073749 135 150 152
-0.085938 -0.152344 -0.076819 149 155 163
-0.082031 -0.152344 -0.079353 168 170 179
-0.078125 -0.152344 -0.081824 181 184 189
-0.074219 -0.152344 -0.083262 187 190 193
-0.070312 -0.152344 -0.084411 191 195 195
-0.066406 -0.152344 -0.084421 193 196 195
-0.062500 -0.152344 -0.084326 191 193 193
-0.058594 -0.152344 -0.084767 189 190 190
-0.054688 -0.152344 -0.085048 189 190 190
-0.050781 -0.152344 -0.085590 192 192 192
-0.046875 -0.152344 -0.085976 195 195 195
-0.042969 -0.152344 -0.086058 193 193 193
-0.039062 -0.152344 -0.085988 190 190 190
-0.035156 -0.152344 -0.085612 189 189 189
-0.031250 -0.152344 -0.085204 188 188 188
-0.027344 -0.152344 -0.084196 187 187 187
-0.023438 -0.152344 -0.082804 186 186 186
-0.019531 -0.152344 -0.081066 183 183 183
-0.015625 -0.152344 -0.078969 180 180 180
-0.011719 -0.152344 -0.076755 178 178 178
-0.007812 -0.152344 -0.074243 178 178 178
-0.003906 -0.152344 -0.071537 178 178 178
0.000000 -0.152344 -0.068348 180 180 180
0.003906 -0.152344 -0.064685 180 180 180
0.007812 -0.152344 -0.062524 179 179 179
0.011719 -0.152344 -0.065636 176 176 176
0.015625 -0.152344 -0.065397 173 173 173
0.019531 -0.152344 -0.061945 170 170 170
0.023438 -0.152344 -0.060487 166 166 166
0.027344 -0.152344 -0.060749 164 164 164
0.031250 -0.152344 -0.061115 162 162 162
0.035156 -0.152344 -0.061337 162 162 162
0.039062 -0.152344 -0.063804 162 162 162
0.042969 -0.152344 -0.066873 164 164 164
0.046875 -0.152344 -0.070199 167 167 167
0.050781 -0.152344 -0.073029 170 170 170
0.054688 -0.152344 -0.076287 171 171 171
0.058594 -0.152344 -0.081230 171 171 171
0.062500 -0.152344 -0.084515 170 170 170
0.066406 -0.152344 -0.086718 170 170 170
0.070312 -0.152344 -0.087910 175 175 175
0.074219 -0.152344 -0.088373 185 185 185
0.078125 -0.152344 -0.088583 199 199 199
0.082031 -0.152344 -0.088654 210 210 210
0.085938 -0.152344 -0.088516 218 218 218
0.089844 -0.152344 -0.088199 222 222 222
0.093750 -0.152344 -0.087942 222 222 222
0.097656 -0.152344 -0.087846 223 222 222
0.101562 -0.152344 -0.087724 225 225 225
0.105469 -0.152344 -0.087552 229 228 228
0.109375 -0.152344 -0.087326 235 235 235
0.113281 -0.152344 -0.086962 241 240 240
0.117188 -0.152344 -0.086823 242 240 241
0.121094 -0.152344 -0.086527 236 229 233
0.125000 -0.152344 -0.085781 231 220 230
0.128906 -0.152344 -0.084963 204 205 213
0.132812 -0.152344 -0.084134 175 194 201
0.136719 -0.152344 -0.082977 146 181 192
0.140625 -0.152344 -0.081802 131 167 184
0.144531 -0.152344 -0.080412 164 189 206
0.148438 -0.152344 -0.078838 178 200 216
0.152344 -0.152344 -0.077309 177 198 216
0.156250 -0.152344 -0.075772 189 206 221
0.160156 -0.152344 -0.074463 192 208 222
0.164062 -0.152344 -0.073170 189 204 217
0.167969 -0.152344 -0.071958 174 193 208
0.171875 -0.152344 -0.070454 170 191 206
0.175781 -0.152344 -0.068387 185 201 214
0.179688 -0.152344 -0.065778 203 214 225
0.183594 -0.152344 -0.062762 239 238 241
0.187500 -0.152344 -0.059420 230 217 221
0.191406 -0.152344 -0.055730 161 115 119
0.195312 -0.152344 -0.050424 162 108 98
0.199219 -0.152344 -0.045007 175 127 111
0.203125 -0.152344 -0.038160 166 118 107
0.207031 -0.152344 -0.030409 118 77 73
0.210938 -0.152344 -0.023729 125 86 77
0.214844 -0.152344 -0.013813 179 135 121
0.218750 -0.152344 0.013397 192 147 135
0.222656 -0.152344 0.052910 156 115 104
0.226562 -0.152344 0.035409 47 33 32
-0.132812 -0.156250 -0.017269 188 205 208
-0.128906 -0.156250 -0.024041 171 175 173
-0.125000 -0.156250 -0.030426 153 158 164
-0.121094 -0.156250 -0.037106 148 159 169
-0.117188 -0.156250 -0.043508 148 164 175
-0.113281 -0.156250 -0.049123 151 172 184
-0.109375 -0.156250 -0.054153 142 172 184
-0.105469 -0.156250 -0.058852 150 179 189
-0.101562 -0.156250 -0.063176 152 180 187
-0.097656 -0.156250 -0.066843 153 181 184
-0.093750 -0.156250 -0.070034 145 174 172
-0.089844 -0.156250 -0.073229 107 138 137
-0.085938 -0.156250 -0.076210 128 139 145
-0.082031 -0.156250 -0.078718 169 172 177
-0.078125 -0.156250 -0.080891 185 187 191
-0.074219 -0.156250 -0.082177 185 190 192
-0.070312 -0.156250 -0.082995 183 189 189
-0.066406 -0.156250 -0.083559 182 188 186
-0.062500 -0.156250 -0.083692 182 187 186
-0.058594 -0.156250 -0.084134 184 187 187
-0.054688 -0.156250 -0.084457 189 190 190
-0.050781 -0.156250 -0.084914 195 195 195
-0.046875 -0.156250 -0.085241 198 198 198
-0.042969 -0.156250 -0.085164 197 197 197
-0.039062 -0.156250 -0.084798 194 194 194
-0.035156 -0.156250 -0.084093 193 193 193
-0.031250 -0.156250 -0.083284 196 196 196
-0.027344 -0.156250 -0.081992 199 199 199
-0.023438 -0.156250 -0.080423 202 202 202
-0.019531 -0.156250 -0.078625 201 201 201
-0.015625 -0.156250 -0.076521 198 198 198
-0.011719 -0.156250 -0.074381 197 197 197
-0.007812 -0.156250 -0.071922 196 196 196
-0.003906 -0.156250 -0.068982 195 195 195
0.000000 -0.156250 -0.065630 195 195 195
0.003906 -0.156250 -0.064413 193 193 193
0.007812 -0.156250 -0.062636 190 190 190
0.011719 -0.156250 -0.059409 185 185 185
0.015625 -0.156250 -0.055549 180 180 180
0.019531 -0.156250 -0.051674 176 175 176
0.023438 -0.156250 -0.047334 172 172 172
0.027344 -0.156250 -0.046924 170 169 170
0.031250 -0.156250 -0.050315 168 168 168
0.035156 -0.156250 -0.054387 169 169 169
0.039062 -0.156250 -0.061915 170 170 170
0.042969 -0.156250 -0.069272 174 174 174
0.046875 -0.156250 -0.074716 179 179 179
0.050781 -0.156250 -0.079133 184 184 184
0.054688 -0.156250 -0.078875 188 188 188
0.058594 -0.156250 -0.078872 188 188 188
0.062500 -0.156250 -0.081366 186 186 186
0.066406 -0.156250 -0.083263 183 183 183
0.070312 -0.156250 -0.084868 182 182 182
0.074219 -0.156250 -0.085835 190 190 190
0.078125 -0.156250 -0.086393 205 205 205
0.082031 -0.156250 -0.086761 219 219 219
0.085938 -0.156250 -0.086917 228 228 228
0.089844 -0.156250 -0.086880 232 232 232
0.093750 -0.156250 -0.086723 231 231 231
0.097656 -0.156250 -0.086678 229 229 229
0.101562 -0.156250 -0.086665 230 230 230
0.105469 -0.156250 -0.086431 234 234 234
0.109375 -0.156250 -0.086290 238 237 237
0.113281 -0.156250 -0.085860 240 238 238
0.117188 -0.156250 -0.085454 235 229 232
0.121094 -0.156250 -0.085136 214 201 217
0.125000 -0.156250 -0.084469 207 205 218
0.128906 -0.156250 -0.083641 176 192 203
0.132812 -0.156250 -0.082851 156 183 195
0.136719 -0.156250 -0.081692 147 180 195
0.140625 -0.156250 -0.080538 133 167 187
0.144531 -0.156250 -0.079171 159 183 203
0.148438 -0.156250 -0.077530 176 196 214
0.152344 -0.156250 -0.075879 175 196 213
0.156250 -0.156250 -0.074234 187 204 218
0.160156 -0.156250 -0.072783 186 203 216
0.164062 -0.156250 -0.071284 176 194 209
0.167969 -0.156250 -0.069916 163 184 201
0.171875 -0.156250 -0.068291 170 189 204
0.175781 -0.156250 -0.066215 186 199 212
0.179688 -0.156250 -0.063659 195 203 216
0.183594 -0.156250 -0.060880 238 234 237
0.187500 -0.156250 -0.057718 237 222 222
0.191406 -0.156250 -0.053877 177 123 121
0.195312 -0.156250 -0.048604 170 114 103
0.199219 -0.156250 -0.043331 187 140 123
0.203125 -0.156250 -0.036288 156 109 99
0.207031 -0.156250 -0.029337 104 67 65
0.210938 -0.156250 -0.021950 133 93 81
0.214844 -0.156250 -0.011678 180 136 118
0.218750 -0.156250 0.021107 194 152 137
0.222656 -0.156250 0.052607 146 110 101
0.226562 -0.156250 0.022106 40 32 34
-0.132812 -0.160156 -0.013464 171 181 191
-0.128906 -0.160156 -0.020553 176 177 176
-0.125000 -0.160156 -0.027907 168 173 175
-0.121094 -0.160156 -0.035562 156 166 173
-0.117188 -0.160156 -0.042062 152 163 173
-0.113281 -0.160156 -0.047686 169 181 190
-0.109375 -0.160156 -0.052982 158 178 189
-0.105469 -0.160156 -0.057859 132 161 175
-0.101562 -0.160156 -0.062019 117 154 168
-0.097656 -0.160156 -0.065908 133 166 176
-0.093750 -0.160156 -0.069561 156 181 184
-0.089844 -0.160156 -0.072722 116 152 155
-0.085938 -0.160156 -0.075652 81 107 118
-0.082031 -0.160156 -0.078389 135 146 154
-0.078125 -0.160156 -0.080748 178 183 187
-0.074219 -0.160156 -0.082254 188 193 195
-0.070312 -0.160156 -0.082603 183 192 191
-0.066406 -0.160156 -0.082888 171 182 179
-0.062500 -0.160156 -0.083431 166 174 172
-0.058594 -0.160156 -0.083958 171 176 177
-0.054688 -0.160156 -0.084454 184 186 187
-0.050781 -0.160156 -0.084592 199 199 200
-0.046875 -0.160156 -0.084304 207 207 207
-0.042969 -0.160156 -0.083740 208 208 208
-0.039062 -0.160156 -0.082913 205 205 205
-0.035156 -0.160156 -0.082135 204 204 204
-0.031250 -0.160156 -0.081128 207 207 207
-0.027344 -0.160156 -0.079765 211 211 211
-0.023438 -0.160156 -0.078157 214 214 214
-0.019531 -0.160156 -0.076245 212 212 212
-0.015625 -0.160156 -0.074063 208 208 208
-0.011719 -0.160156 -0.071724 205 205 205
-0.007812 -0.160156 -0.069144 203 203 203
-0.003906 -0.160156 -0.067023 203 203 203
0.000000 -0.160156 -0.065230 203 203 203
0.003906 -0.160156 -0.063028 201 201 201
0.007812 -0.160156 -0.060496 197 197 197
0.011719 -0.160156 -0.057389 193 193 193
0.015625 -0.160156 -0.053920 188 188 188
0.019531 -0.160156 -0.049497 184 184 184
0.023438 -0.160156 -0.045787 182 182 182
0.027344 -0.160156 -0.044109 181 181 181
0.031250 -0.160156 -0.043633 181 180 180
0.035156 -0.160156 -0.048293 181 181 181
0.039062 -0.160156 -0.055662 184 184 184
0.042969 -0.160156 -0.063253 188 188 188
0.046875 -0.160156 -0.068994 194 194 194
0.050781 -0.160156 -0.074762 200 200 200
0.054688 -0.160156 -0.079803 204 204 204
0.058594 -0.160156 -0.083603 203 203 203
0.062500 -0.160156 -0.086155 199 199 199
0.066406 -0.160156 -0.086833 193 193 193
0.070312 -0.160156 -0.086222 188 188 188
0.074219 -0.160156 -0.085947 194 194 194
0.078125 -0.160156 -0.086204 209 209 209
0.082031 -0.160156 -0.086515 224 224 224
0.085938 -0.160156 -0.086678 234 234 234
0.089844 -0.160156 -0.086617 239 239 239
0.093750 -0.160156 -0.086354 239 239 239
0.097656 -0.160156 -0.086145 239 238 238
0.101562 -0.160156 -0.086146 240 239 239
0.105469 -0.160156 -0.085803 242 241 241
0.109375 -0.160156 -0.085331 240 238 239
0.113281 -0.160156 -0.084930 229 222 226
0.117188 -0.160156 -0.084383 213 194 212
0.121094 -0.160156 -0.083951 168 167 192
0.125000 -0.160156 -0.083418 138 159 183
0.128906 -0.160156 -0.082593 125 158 176
0.132812 -0.160156 -0.081695 145 174 188
0.136719 -0.160156 -0.080607 169 191 204
0.140625 -0.160156 -0.079616 153 179 197
0.144531 -0.160156 -0.078301 161 184 202
0.148438 -0.160156 -0.076666 179 197 213
0.152344 -0.160156 -0.074969 172 192 209
0.156250 -0.160156 -0.073199 169 189 205
0.160156 -0.160156 -0.071507 165 186 201
0.164062 -0.160156 -0.069757 163 183 197
0.167969 -0.160156 -0.068126 160 181 196
0.171875 -0.160156 -0.066338 169 186 200
0.175781 -0.160156 -0.064332 170 182 198
0.179688 -0.160156 -0.061816 170 179 196
0.183594 -0.160156 -0.059217 233 227 228
0.187500 -0.160156 -0.056213 240 223 218
0.191406 -0.160156 -0.052266 192 133 123
0.195312 -0.160156 -0.047294 180 121 109
0.199219 -0.160156 -0.042058 187 138 123
0.203125 -0.160156 -0.035035 139 95 86
0.207031 -0.160156 -0.028822 96 63 60
0.210938 -0.160156 -0.019797 131 92 79
0.214844 -0.160156 -0.007848 163 120 102
0.218750 -0.160156 0.021909 182 140 124
0.222656 -0.160156 0.051921 139 107 100
-0.132812 -0.164062 -0.010114 171 180 181
-0.128906 -0.164062 -0.018676 202 198 196
-0.125000 -0.164062 -0.025266 195 197 194
-0.121094 -0.164062 -0.032776 171 180 181
-0.117188 -0.164062 -0.039761 153 164 170
-0.113281 -0.164062 -0.045626 163 172 180
-0.109375 -0.164062 -0.051209 155 167 179
-0.105469 -0.164062 -0.056234 140 159 173
-0.101562 -0.164062 -0.060431 129 157 172
-0.097656 -0.164062 -0.064520 124 155 171
-0.093750 -0.164062 -0.068256 133 163 176
-0.089844 -0.164062 -0.071371 122 153 170
-0.085938 -0.164062 -0.074251 99 132 151
-0.082031 -0.164062 -0.076836 103 135 145
-0.078125 -0.164062 -0.079171 127 143 149
-0.074219 -0.164062 -0.080804 163 170 173
-0.070312 -0.164062 -0.081784 176 185 184
-0.066406 -0.164062 -0.082628 166 177 174
-0.062500 -0.164062 -0.083353 154 163 162
-0.058594 -0.164062 -0.083870 156 161 164
-0.054688 -0.164062 -0.084241 169 170 174
-0.050781 -0.164062 -0.084127 186 186 188
-0.046875 -0.164062 -0.083686 195 195 196
-0.042969 -0.164062 -0.082917 196 196 197
-0.039062 -0.164062 -0.081718 195 196 196
-0.035156 -0.164062 -0.080526 195 196 196
-0.031250 -0.164062 -0.079123 200 200 200
-0.027344 -0.164062 -0.077571 207 207 207
-0.023438 -0.164062 -0.075773 211 211 211
-0.019531 -0.164062 -0.073904 209 209 209
-0.015625 -0.164062 -0.071983 206 206 206
-0.011719 -0.164062 -0.069862 204 204 204
-0.007812 -0.164062 -0.067622 203 203 203
-0.003906 -0.164062 -0.065251 204 204 204
0.000000 -0.164062 -0.062408 206 206 206
0.003906 -0.164062 -0.059611 205 205 205
0.007812 -0.164062 -0.056744 201 201 201
0.011719 -0.164062 -0.053058 195 195 195
0.015625 -0.164062 -0.049441 188 188 188
0.019531 -0.164062 -0.045305 184 184 184
0.023438 -0.164062 -0.041381 182 182 182
0.027344 -0.164062 -0.039451 183 183 183
0.031250 -0.164062 -0.038408 184 184 184
0.035156 -0.164062 -0.042555 187 187 187
0.039062 -0.164062 -0.049470 191 191 191
0.042969 -0.164062 -0.056574 197 197 197
0.046875 -0.164062 -0.062948 205 205 205
0.050781 -0.164062 -0.067967 212 212 212
0.054688 -0.164062 -0.072393 214 214 214
0.058594 -0.164062 -0.076352 212 212 212
0.062500 -0.164062 -0.079504 204 204 204
0.066406 -0.164062 -0.081780 194 194 194
0.070312 -0.164062 -0.083175 186 186 186
0.074219 -0.164062 -0.084141 189 189 189
0.078125 -0.164062 -0.084653 201 200 200
0.082031 -0.164062 -0.084811 215 215 215
0.085938 -0.164062 -0.084824 228 228 228
0.089844 -0.164062 -0.084721 236 236 236
0.093750 -0.164062 -0.084560 240 239 240
0.097656 -0.164062 -0.084483 243 242 242
0.101562 -0.164062 -0.084825 245 243 244
0.105469 -0.164062 -0.084428 243 241 242
0.109375 -0.164062 -0.083739 231 226 229
0.113281 -0.164062 -0.083367 198 180 196
0.117188 -0.164062 -0.082859 187 180 198
0.121094 -0.164062 -0.082479 141 159 181
0.125000 -0.164062 -0.082127 122 153 176
0.128906 -0.164062 -0.081463 142 172 189
0.132812 -0.164062 -0.080633 155 180 194
0.136719 -0.164062 -0.079676 167 187 201
0.140625 -0.164062 -0.078708 157 178 195
0.144531 -0.164062 -0.077378 160 180 196
0.148438 -0.164062 -0.075778 178 194 207
0.152344 -0.164062 -0.074101 171 190 204
0.156250 -0.164062 -0.072320 159 180 196
0.160156 -0.164062 -0.070471 156 177 191
0.164062 -0.164062 -0.068508 156 176 190
0.167969 -0.164062 -0.066640 153 173 188
0.171875 -0.164062 -0.064662 163 181 195
0.175781 -0.164062 -0.062675 164 176 192
0.179688 -0.164062 -0.060173 175 178 192
0.183594 -0.164062 -0.057582 235 226 223
0.187500 -0.164062 -0.054584 237 213 204
0.191406 -0.164062 -0.050660 193 128 116
0.195312 -0.164062 -0.045814 189 129 115
0.199219 -0.164062 -0.040499 177 127 113
0.203125 -0.164062 -0.033923 124 84 75
0.207031 -0.164062 -0.027978 103 71 65
0.210938 -0.164062 -0.018600 135 97 83
0.214844 -0.164062 -0.007093 150 108 94
0.218750 -0.164062 0.024059 156 113 102
0.222656 -0.164062 0.044836 124 92 88
-0.125000 -0.167969 -0.021930 177 172 173
-0.121094 -0.167969 -0.029531 174 180 179
-0.117188 -0.167969 -0.037308 159 169 171
-0.113281 -0.167969 -0.044242 162 169 174
-0.109375 -0.167969 -0.050140 148 157 169
-0.105469 -0.167969 -0.055263 144 157 171
-0.101562 -0.167969 -0.059535 151 167 179
-0.097656 -0.167969 -0.063678 135 161 175
-0.093750 -0.167969 -0.067399 117 151 167
-0.089844 -0.167969 -0.070454 105 138 158
-0.085938 -0.167969 -0.073109 107 140 157
-0.082031 -0.167969 -0.075474 127 160 167
-0.078125 -0.167969 -0.077619 96 124 136
-0.074219 -0.167969 -0.079272 80 96 108
-0.070312 -0.167969 -0.080352 105 119 127
-0.066406 -0.167969 -0.081227 124 135 141
-0.062500 -0.167969 -0.081928 141 148 152
-0.058594 -0.167969 -0.082427 160 164 169
-0.054688 -0.167969 -0.082704 173 174 180
-0.050781 -0.167969 -0.082616 179 180 183
-0.046875 -0.167969 -0.082343 174 175 177
-0.042969 -0.167969 -0.081798 166 168 169
-0.039062 -0.167969 -0.080943 165 166 167
-0.035156 -0.167969 -0.079896 166 168 168
-0.031250 -0.167969 -0.078574 176 177 176
-0.027344 -0.167969 -0.077024 189 190 189
-0.023438 -0.167969 -0.075119 197 197 197
-0.019531 -0.167969 -0.073072 199 199 199
-0.015625 -0.167969 -0.070849 199 199 199
-0.011719 -0.167969 -0.068387 200 200 200
-0.007812 -0.167969 -0.065892 202 202 202
-0.003906 -0.167969 -0.063111 206 206 206
0.000000 -0.167969 -0.060024 210 210 210
0.003906 -0.167969 -0.056908 210 210 210
0.007812 -0.167969 -0.053199 205 205 205
0.011719 -0.167969 -0.049344 196 196 196
0.015625 -0.167969 -0.046186 186 186 186
0.019531 -0.167969 -0.041360 178 178 178
0.023438 -0.167969 -0.036604 176 176 176
0.027344 -0.167969 -0.033732 177 177 177
0.031250 -0.167969 -0.033527 180 180 180
0.035156 -0.167969 -0.039015 185 185 185
0.039062 -0.167969 -0.046174 192 192 192
0.042969 -0.167969 -0.053090 201 201 201
0.046875 -0.167969 -0.060625 211 211 211
0.050781 -0.167969 -0.066561 218 218 218
0.054688 -0.167969 -0.070460 219 219 219
0.058594 -0.167969 -0.074073 213 213 213
0.062500 -0.167969 -0.077147 202 202 202
0.066406 -0.167969 -0.079165 188 188 188
0.070312 -0.167969 -0.080269 179 179 179
0.074219 -0.167969 -0.081055 183 183 183
0.078125 -0.167969 -0.081760 192 192 192
0.082031 -0.167969 -0.082366 204 203 203
0.085938 -0.167969 -0.083003 218 218 218
0.089844 -0.167969 -0.083443 232 230 230
0.093750 -0.167969 -0.083550 240 238 239
0.097656 -0.167969 -0.083411 245 243 243
0.101562 -0.167969 -0.083386 242 240 241
0.105469 -0.167969 -0.083148 229 222 226
0.109375 -0.167969 -0.082704 201 184 200
0.113281 -0.167969 -0.082485 168 171 187
0.117188 -0.167969 -0.082302 143 165 179
0.121094 -0.167969 -0.082027 117 149 166
0.125000 -0.167969 -0.081651 130 160 175
0.128906 -0.167969 -0.080912 158 180 193
0.132812 -0.167969 -0.079969 151 173 188
0.136719 -0.167969 -0.078958 149 169 184
0.140625 -0.167969 -0.077916 144 165 180
0.144531 -0.167969 -0.076569 141 161 177
0.148438 -0.167969 -0.074979 159 178 189
0.152344 -0.167969 -0.073273 172 191 200
0.156250 -0.167969 -0.071474 162 181 193
0.160156 -0.167969 -0.069504 156 173 186
0.164062 -0.167969 -0.067375 151 169 183
0.167969 -0.167969 -0.065364 138 161 178
0.171875 -0.167969 -0.063207 157 178 192
0.175781 -0.167969 -0.061152 166 177 192
0.179688 -0.167969 -0.058672 176 172 182
0.183594 -0.167969 -0.056097 225 206 202
0.187500 -0.167969 -0.053051 212 164 150
0.191406 -0.167969 -0.049060 164 94 81
0.195312 -0.167969 -0.044319 188 129 113
0.199219 -0.167969 -0.039101 163 113 101
0.203125 -0.167969 -0.032498 113 75 68
0.207031 -0.167969 -0.026190 121 84 77
0.210938 -0.167969 -0.017250 157 116 99
0.214844 -0.167969 -0.003850 151 113 97
0.218750 -0.167969 0.029788 110 82 76
-0.121094 -0.171875 -0.026069 191 190 188
-0.117188 -0.171875 -0.035032 176 180 180
-0.113281 -0.171875 -0.042472 173 178 180
-0.109375 -0.171875 -0.048720 155 164 172
-0.105469 -0.171875 -0.054001 146 158 171
-0.101562 -0.171875 -0.058367 152 166 179
-0.097656 -0.171875 -0.062568 143 163 178
-0.093750 -0.171875 -0.066400 130 155 172
-0.089844 -0.171875 -0.069475 119 149 166
-0.085938 -0.171875 -0.072107 110 143 161
-0.082031 -0.171875 -0.074560 127 156 171
-0.078125 -0.171875 -0.076638 116 146 162
-0.074219 -0.171875 -0.078321 82 108 132
-0.070312 -0.171875 -0.079537 66 89 115
-0.066406 -0.171875 -0.080540 59 77 99
-0.062500 -0.171875 -0.081349 88 99 111
-0.058594 -0.171875 -0.081867 132 140 147
-0.054688 -0.171875 -0.082206 157 161 167
-0.050781 -0.171875 -0.082213 167 169 174
-0.046875 -0.171875 -0.081959 157 161 164
-0.042969 -0.171875 -0.081441 148 151 154
-0.039062 -0.171875 -0.080579 156 160 161
-0.035156 -0.171875 -0.079572 167 171 171
-0.031250 -0.171875 -0.078248 180 183 182
-0.027344 -0.171875 -0.076626 191 194 193
-0.023438 -0.171875 -0.074579 192 194 193
-0.019531 -0.171875 -0.072328 189 190 189
-0.015625 -0.171875 -0.070027 187 187 187
-0.011719 -0.171875 -0.067403 188 189 189
-0.007812 -0.171875 -0.064684 195 196 195
-0.003906 -0.171875 -0.061638 203 203 203
0.000000 -0.171875 -0.058217 209 209 209
0.003906 -0.171875 -0.054635 210 210 210
0.007812 -0.171875 -0.050518 204 204 204
0.011719 -0.171875 -0.046370 192 192 192
0.015625 -0.171875 -0.042241 180 180 180
0.019531 -0.171875 -0.036576 172 172 172
0.023438 -0.171875 -0.030052 171 171 171
0.027344 -0.171875 -0.023664 175 175 175
0.031250 -0.171875 -0.022231 180 180 180
0.035156 -0.171875 -0.028947 187 187 187
0.039062 -0.171875 -0.037590 194 194 194
0.042969 -0.171875 -0.048669 202 202 202
0.046875 -0.171875 -0.056355 209 209 209
0.050781 -0.171875 -0.062301 214 214 214
0.054688 -0.171875 -0.066780 214 214 214
0.058594 -0.171875 -0.070425 207 207 207
0.062500 -0.171875 -0.073467 196 196 196
0.066406 -0.171875 -0.075576 187 187 187
0.070312 -0.171875 -0.076986 188 188 188
0.074219 -0.171875 -0.078284 202 202 202
0.078125 -0.171875 -0.079428 213 213 213
0.082031 -0.171875 -0.080246 217 216 216
0.085938 -0.171875 -0.080907 223 221 221
0.089844 -0.171875 -0.081276 229 226 227
0.093750 -0.171875 -0.081440 234 230 231
0.097656 -0.171875 -0.081454 232 226 230
0.101562 -0.171875 -0.081668 208 199 206
0.105469 -0.171875 -0.081763 161 144 163
0.109375 -0.171875 -0.081578 174 172 186
0.113281 -0.171875 -0.081511 144 164 177
0.117188 -0.171875 -0.081448 119 149 164
0.121094 -0.171875 -0.081220 118 148 165
0.125000 -0.171875 -0.080881 122 148 163
0.128906 -0.171875 -0.080148 136 157 171
0.132812 -0.171875 -0.079138 134 154 170
0.136719 -0.171875 -0.078107 135 156 170
0.140625 -0.171875 -0.077077 139 158 172
0.144531 -0.171875 -0.075733 126 145 160
0.148438 -0.171875 -0.074087 145 164 174
0.152344 -0.171875 -0.072334 180 196 202
0.156250 -0.171875 -0.070509 161 179 190
0.160156 -0.171875 -0.068447 147 165 178
0.164062 -0.171875 -0.066224 156 173 186
0.167969 -0.171875 -0.064110 141 163 179
0.171875 -0.171875 -0.061856 159 180 193
0.175781 -0.171875 -0.059774 165 176 191
0.179688 -0.171875 -0.057264 161 153 162
0.183594 -0.171875 -0.054642 206 176 170
0.187500 -0.171875 -0.051540 177 119 109
0.191406 -0.171875 -0.047556 137 74 62
0.195312 -0.171875 -0.042889 182 121 104
0.199219 -0.171875 -0.037713 148 97 87
0.203125 -0.171875 -0.031498 108 69 62
0.207031 -0.171875 -0.025666 141 100 88
0.210938 -0.171875 -0.015710 161 122 102
0.214844 -0.171875 0.000441 129 101 82
0.218750 -0.171875 0.025695 182 140 124
-0.121094 -0.175781 -0.023877 178 175 176
-0.117188 -0.175781 -0.032979 178 179 180
-0.113281 -0.175781 -0.040982 179 182 182
-0.109375 -0.175781 -0.047626 165 173 179
-0.105469 -0.175781 -0.052945 156 168 180
-0.101562 -0.175781 -0.057422 159 172 185
-0.097656 -0.175781 -0.061841 156 171 186
-0.093750 -0.175781 -0.065871 149 165 181
-0.089844 -0.175781 -0.068877 146 166 180
-0.085938 -0.175781 -0.071456 129 155 170
-0.082031 -0.175781 -0.073940 116 144 162
-0.078125 -0.175781 -0.076069 101 135 154
-0.074219 -0.175781 -0.077741 87 119 143
-0.070312 -0.175781 -0.078893 92 121 142
-0.066406 -0.175781 -0.079941 87 116 132
-0.062500 -0.175781 -0.080765 94 119 131
-0.058594 -0.175781 -0.081406 89 116 129
-0.054688 -0.175781 -0.081875 74 93 110
-0.050781 -0.175781 -0.081919 94 110 125
-0.046875 -0.175781 -0.081739 101 115 127
-0.042969 -0.175781 -0.081288 101 106 114
-0.039062 -0.175781 -0.080507 133 136 141
-0.035156 -0.175781 -0.079499 163 165 168
-0.031250 -0.175781 -0.078115 189 191 191
-0.027344 -0.175781 -0.076492 205 207 207
-0.023438 -0.175781 -0.074448 202 204 204
-0.019531 -0.175781 -0.072133 191 193 192
-0.015625 -0.175781 -0.069634 183 185 184
-0.011719 -0.175781 -0.066788 187 188 188
-0.007812 -0.175781 -0.063757 199 201 199
-0.003906 -0.175781 -0.060351 209 211 210
0.000000 -0.175781 -0.056596 214 215 214
0.003906 -0.175781 -0.052363 212 213 212
0.007812 -0.175781 -0.047334 201 202 201
0.011719 -0.175781 -0.042483 182 182 182
0.015625 -0.175781 -0.036607 164 164 164
0.019531 -0.175781 -0.030095 156 156 156
0.023438 -0.175781 -0.022780 158 158 158
0.027344 -0.175781 -0.010839 168 167 168
0.035156 -0.175781 -0.005136 190 190 190
0.039062 -0.175781 -0.024014 197 196 197
0.042969 -0.175781 -0.042444 201 201 201
0.046875 -0.175781 -0.052712 203 203 203
0.050781 -0.175781 -0.057996 204 204 204
0.054688 -0.175781 -0.063323 205 205 205
0.058594 -0.175781 -0.067264 206 206 206
0.062500 -0.175781 -0.070437 208 208 208
0.066406 -0.175781 -0.072793 213 213 213
0.070312 -0.175781 -0.074614 223 223 223
0.074219 -0.175781 -0.076030 232 232 232
0.078125 -0.175781 -0.077143 234 233 233
0.082031 -0.175781 -0.078058 230 228 228
0.085938 -0.175781 -0.078820 220 216 217
0.089844 -0.175781 -0.079283 202 194 198
0.093750 -0.175781 -0.079665 177 162 172
0.097656 -0.175781 -0.080019 155 133 157
0.101562 -0.175781 -0.080586 130 123 145
0.105469 -0.175781 -0.080784 113 125 141
0.109375 -0.175781 -0.080733 118 139 152
0.113281 -0.175781 -0.080702 102 128 144
0.117188 -0.175781 -0.080550 110 134 151
0.121094 -0.175781 -0.080334 124 144 162
0.125000 -0.175781 -0.080071 114 135 152
0.128906 -0.175781 -0.079420 119 138 155
0.132812 -0.175781 -0.078425 126 145 161
0.136719 -0.175781 -0.077322 134 153 166
0.140625 -0.175781 -0.076231 142 159 171
0.144531 -0.175781 -0.074856 122 139 153
0.148438 -0.175781 -0.073132 140 157 168
0.152344 -0.175781 -0.071349 186 200 206
0.156250 -0.175781 -0.069523 155 175 187
0.160156 -0.175781 -0.067363 134 156 171
0.164062 -0.175781 -0.065007 161 177 190
0.167969 -0.175781 -0.062781 149 170 185
0.171875 -0.175781 -0.060498 167 189 200
0.175781 -0.175781 -0.058401 179 189 200
0.179688 -0.175781 -0.055761 168 158 163
0.183594 -0.175781 -0.053033 216 185 180
0.187500 -0.175781 -0.049949 210 157 150
0.191406 -0.175781 -0.045957 165 97 86
0.195312 -0.175781 -0.041260 179 116 100
0.199219 -0.175781 -0.036119 140 88 78
0.203125 -0.175781 -0.029945 112 71 62
0.207031 -0.175781 -0.023508 149 107 92
0.210938 -0.175781 -0.013443 124 93 77
0.214844 -0.175781 0.002936 62 52 46
-0.121094 -0.179688 -0.021972 139 150 155
-0.117188 -0.179688 -0.030977 164 169 170
-0.113281 -0.179688 -0.039571 176 180 180
-0.109375 -0.179688 -0.046486 172 178 183
-0.105469 -0.179688 -0.051931 167 178 188
-0.101562 -0.179688 -0.056507 170 183 194
-0.097656 -0.179688 -0.060948 169 182 194
-0.093750 -0.179688 -0.065013 159 173 188
-0.089844 -0.179688 -0.067972 157 172 187
-0.085938 -0.179688 -0.070479 149 167 182
-0.082031 -0.179688 -0.072890 139 160 175
-0.078125 -0.179688 -0.075071 125 150 168
-0.074219 -0.179688 -0.076788 110 136 159
-0.070312 -0.179688 -0.077910 116 141 161
-0.066406 -0.179688 -0.078992 121 145 160
-0.062500 -0.179688 -0.079851 128 153 164
-0.058594 -0.179688 -0.080537 118 148 162
-0.054688 -0.179688 -0.081022 84 122 141
-0.050781 -0.179688 -0.081180 96 136 153
-0.046875 -0.179688 -0.081148 75 108 134
-0.042969 -0.179688 -0.080803 36 51 74
-0.039062 -0.179688 -0.080125 61 70 85
-0.035156 -0.179688 -0.079127 98 106 116
-0.031250 -0.179688 -0.077756 142 149 153
-0.027344 -0.179688 -0.076089 181 189 188
-0.023438 -0.179688 -0.073986 190 195 194
-0.019531 -0.179688 -0.071624 186 190 189
-0.015625 -0.179688 -0.069027 184 188 187
-0.011719 -0.179688 -0.066118 192 197 194
-0.007812 -0.179688 -0.063006 205 211 207
-0.003906 -0.179688 -0.059649 215 220 216
0.000000 -0.179688 -0.055825 217 222 218
0.003906 -0.179688 -0.051348 214 218 215
0.007812 -0.179688 -0.045641 201 204 202
0.011719 -0.179688 -0.040310 177 178 177
0.015625 -0.179688 -0.033358 157 157 157
0.019531 -0.179688 -0.026259 154 154 154
0.023438 -0.179688 -0.014250 162 161 162
0.039062 -0.179688 -0.011075 212 212 212
0.042969 -0.179688 -0.032026 213 213 213
0.046875 -0.179688 -0.046968 210 210 210
0.050781 -0.179688 -0.053995 207 206 206
0.054688 -0.179688 -0.059798 208 208 208
0.058594 -0.179688 -0.063884 215 215 215
0.062500 -0.179688 -0.067278 224 224 224
0.066406 -0.179688 -0.069656 232 232 232
0.070312 -0.179688 -0.071576 237 237 237
0.074219 -0.179688 -0.073171 236 235 236
0.078125 -0.179688 -0.074572 227 223 225
0.082031 -0.179688 -0.075778 200 194 199
0.085938 -0.179688 -0.076745 150 141 150
0.089844 -0.179688 -0.077456 109 95 110
0.093750 -0.179688 -0.078056 107 96 118
0.097656 -0.179688 -0.078590 125 126 146
0.101562 -0.179688 -0.079104 127 141 156
0.105469 -0.179688 -0.079261 110 134 148
0.109375 -0.179688 -0.079316 110 137 153
0.113281 -0.179688 -0.079335 113 136 156
0.117188 -0.179688 -0.079261 125 144 163
0.121094 -0.179688 -0.079135 135 151 169
0.125000 -0.179688 -0.078881 126 144 162
0.128906 -0.179688 -0.078250 129 148 164
0.132812 -0.179688 -0.077308 137 155 170
0.136719 -0.179688 -0.076245 141 160 174
0.140625 -0.179688 -0.075131 150 167 179
0.144531 -0.179688 -0.073719 128 146 160
0.148438 -0.179688 -0.071989 137 155 167
0.152344 -0.179688 -0.070192 189 202 208
0.156250 -0.179688 -0.068349 167 186 197
0.160156 -0.179688 -0.066129 140 163 178
0.164062 -0.179688 -0.063699 166 182 195
0.167969 -0.179688 -0.061415 158 178 193
0.171875 -0.179688 -0.059070 178 197 208
0.175781 -0.179688 -0.056842 191 199 208
0.179688 -0.179688 -0.054095 169 160 167
0.183594 -0.179688 -0.051356 227 203 200
0.187500 -0.179688 -0.048253 242 217 210
0.191406 -0.179688 -0.044162 210 153 138
0.195312 -0.179688 -0.039315 176 113 100
0.199219 -0.179688 -0.034062 143 90 81
0.203125 -0.179688 -0.027990 130 85 74
0.207031 -0.179688 -0.019820 143 104 89
0.210938 -0.179688 -0.008799 90 69 60
-0.121094 -0.183594 -0.020025 188 206 198
-0.117188 -0.183594 -0.029580 166 177 173
-0.113281 -0.183594 -0.038382 163 170 170
-0.109375 -0.183594 -0.045401 168 176 180
-0.105469 -0.183594 -0.050966 171 181 189
-0.101562 -0.183594 -0.055714 175 187 197
-0.097656 -0.183594 -0.060204 173 186 198
-0.093750 -0.183594 -0.064305 164 178 192
-0.089844 -0.183594 -0.067401 163 177 191
-0.085938 -0.183594 -0.069958 162 176 191
-0.082031 -0.183594 -0.072343 161 175 189
-0.078125 -0.183594 -0.074506 159 172 186
-0.074219 -0.183594 -0.076184 154 169 184
-0.070312 -0.183594 -0.077347 150 166 180
-0.066406 -0.183594 -0.078391 130 150 164
-0.062500 -0.183594 -0.079195 115 141 154
-0.058594 -0.183594 -0.079826 112 141 155
-0.054688 -0.183594 -0.080243 103 135 149
-0.050781 -0.183594 -0.080470 106 142 156
-0.046875 -0.183594 -0.080448 88 124 145
-0.042969 -0.183594 -0.080134 55 92 115
-0.039062 -0.183594 -0.079546 60 104 124
-0.035156 -0.183594 -0.078706 69 112 131
-0.031250 -0.183594 -0.077508 82 126 135
-0.027344 -0.183594 -0.075860 97 142 140
-0.023438 -0.183594 -0.073789 87 116 115
-0.019531 -0.183594 -0.071533 103 121 118
-0.015625 -0.183594 -0.069028 127 145 139
-0.011719 -0.183594 -0.066225 143 161 155
-0.007812 -0.183594 -0.063053 159 177 168
-0.003906 -0.183594 -0.059559 168 187 176
0.000000 -0.183594 -0.055526 173 191 180
0.003906 -0.183594 -0.050897 178 191 182
0.007812 -0.183594 -0.044783 174 181 177
0.011719 -0.183594 -0.039214 157 161 160
0.015625 -0.183594 -0.032601 148 151 153
0.019531 -0.183594 -0.025613 157 158 162
0.023438 -0.183594 -0.003135 174 173 178
0.042969 -0.183594 -0.030064 225 224 225
0.046875 -0.183594 -0.042904 221 220 221
0.050781 -0.183594 -0.049845 216 215 216
0.054688 -0.183594 -0.055144 213 212 213
0.058594 -0.183594 -0.059657 212 211 212
0.062500 -0.183594 -0.063626 214 212 214
0.066406 -0.183594 -0.066459 215 213 215
0.070312 -0.183594 -0.068691 208 205 208
0.074219 -0.183594 -0.070602 179 173 180
0.078125 -0.183594 -0.072332 148 136 154
0.082031 -0.183594 -0.073643 121 124 139
0.085938 -0.183594 -0.074746 92 112 121
0.089844 -0.183594 -0.075685 95 119 129
0.093750 -0.183594 -0.076483 93 114 131
0.097656 -0.183594 -0.077128 93 116 135
0.101562 -0.183594 -0.077603 100 124 142
0.105469 -0.183594 -0.077807 111 136 152
0.109375 -0.183594 -0.077900 133 153 171
0.113281 -0.183594 -0.077929 140 157 177
0.117188 -0.183594 -0.077955 143 159 177
0.121094 -0.183594 -0.077884 146 163 179
0.125000 -0.183594 -0.077597 142 160 177
0.128906 -0.183594 -0.076911 146 164 180
0.132812 -0.183594 -0.075932 151 170 185
0.136719 -0.183594 -0.074941 152 172 186
0.140625 -0.183594 -0.073842 161 179 192
0.144531 -0.183594 -0.072414 145 164 178
0.148438 -0.183594 -0.070666 136 157 171
0.152344 -0.183594 -0.068873 187 200 208
0.156250 -0.183594 -0.067076 189 203 212
0.160156 -0.183594 -0.064853 161 182 195
0.164062 -0.183594 -0.062362 172 188 200
0.167969 -0.183594 -0.059960 169 187 201
0.171875 -0.183594 -0.057493 184 201 212
0.175781 -0.183594 -0.055076 190 200 210
0.179688 -0.183594 -0.052164 163 165 175
0.183594 -0.183594 -0.049325 231 218 216
0.187500 -0.183594 -0.046213 248 238 234
0.191406 -0.183594 -0.042169 220 177 170
0.195312 -0.183594 -0.036783 150 95 91
0.199219 -0.183594 -0.031212 146 92 85
0.203125 -0.183594 -0.024821 161 111 99
0.207031 -0.183594 -0.015258 137 100 88
0.210938 -0.183594 -0.002308 161 122 102
-0.121094 -0.187500 -0.018523 184 197 187
-0.117188 -0.187500 -0.028940 168 176 169
-0.113281 -0.187500 -0.037770 159 165 164
-0.109375 -0.187500 -0.044709 170 175 177
-0.105469 -0.187500 -0.050256 173 181 185
-0.101562 -0.187500 -0.055067 172 181 190
-0.097656 -0.187500 -0.059638 169 180 191
-0.093750 -0.187500 -0.063794 162 175 189
-0.089844 -0.187500 -0.066994 161 175 189
-0.085938 -0.187500 -0.069603 163 176 191
-0.082031 -0.187500 -0.071998 159 172 188
-0.078125 -0.187500 -0.074128 156 169 184
-0.074219 -0.187500 -0.075734 160 174 186
-0.070312 -0.187500 -0.076904 158 173 185
-0.066406 -0.187500 -0.077934 141 158 171
-0.062500 -0.187500 -0.078712 130 150 163
-0.058594 -0.187500 -0.079291 132 152 166
-0.054688 -0.187500 -0.079636 129 149 165
-0.050781 -0.187500 -0.079839 119 144 162
-0.046875 -0.187500 -0.079840 109 134 155
-0.042969 -0.187500 -0.079584 108 135 152
-0.039062 -0.187500 -0.079016 124 152 165
-0.035156 -0.187500 -0.078262 122 150 164
-0.031250 -0.187500 -0.077238 121 151 161
-0.027344 -0.187500 -0.075755 125 157 164
-0.023438 -0.187500 -0.073818 95 131 139
-0.019531 -0.187500 -0.071692 87 123 127
-0.015625 -0.187500 -0.069248 101 137 138
-0.011719 -0.187500 -0.066476 104 139 142
-0.007812 -0.187500 -0.063178 109 143 145
-0.003906 -0.187500 -0.059556 114 149 147
0.000000 -0.187500 -0.055375 115 156 147
0.003906 -0.187500 -0.050329 94 141 127
0.007812 -0.187500 -0.043999 72 103 97
0.011719 -0.187500 -0.038091 75 94 97
0.015625 -0.187500 -0.030980 90 105 115
0.019531 -0.187500 -0.023228 109 120 134
0.023438 -0.187500 0.001615 127 136 148
0.042969 -0.187500 -0.017024 180 180 183
0.046875 -0.187500 -0.037882 177 177 180
0.050781 -0.187500 -0.046816 170 172 174
0.054688 -0.187500 -0.051622 155 157 160
0.058594 -0.187500 -0.056584 141 142 149
0.062500 -0.187500 -0.060599 149 147 161
0.066406 -0.187500 -0.063423 139 137 157
0.070312 -0.187500 -0.065742 107 105 129
0.074219 -0.187500 -0.067833 87 91 118
0.078125 -0.187500 -0.069802 103 114 138
0.082031 -0.187500 -0.071323 117 134 150
0.085938 -0.187500 -0.072553 112 137 150
0.089844 -0.187500 -0.073654 102 132 149
0.093750 -0.187500 -0.074599 90 116 142
0.097656 -0.187500 -0.075292 98 121 147
0.101562 -0.187500 -0.075862 109 132 155
0.105469 -0.187500 -0.076174 123 143 165
0.109375 -0.187500 -0.076311 139 157 178
0.113281 -0.187500 -0.076399 140 157 180
0.117188 -0.187500 -0.076428 140 158 179
0.121094 -0.187500 -0.076313 145 162 182
0.125000 -0.187500 -0.076025 143 162 182
0.128906 -0.187500 -0.075351 148 167 185
0.132812 -0.187500 -0.074379 156 175 192
0.136719 -0.187500 -0.073421 156 176 193
0.140625 -0.187500 -0.072296 163 182 198
0.144531 -0.187500 -0.070865 154 173 190
0.148438 -0.187500 -0.069190 130 153 170
0.152344 -0.187500 -0.067444 170 186 198
0.156250 -0.187500 -0.065667 198 209 217
0.160156 -0.187500 -0.063451 176 194 206
0.164062 -0.187500 -0.060947 171 190 202
0.167969 -0.187500 -0.058433 171 189 203
0.171875 -0.187500 -0.055818 180 197 209
0.175781 -0.187500 -0.053286 188 201 212
0.179688 -0.187500 -0.050261 170 180 190
0.183594 -0.187500 -0.047176 226 219 219
0.187500 -0.187500 -0.043718 247 238 238
0.191406 -0.187500 -0.039624 219 192 200
0.195312 -0.187500 -0.033822 132 98 105
0.199219 -0.187500 -0.027802 141 97 93
0.203125 -0.187500 -0.020591 175 129 118
0.207031 -0.187500 -0.006948 128 91 82
-0.121094 -0.191406 -0.016725 152 150 149
-0.117188 -0.191406 -0.028021 180 178 173
-0.113281 -0.191406 -0.036985 171 172 169
-0.109375 -0.191406 -0.043858 173 174 174
-0.105469 -0.191406 -0.049685 165 168 170
-0.101562 -0.191406 -0.054585 157 163 170
-0.097656 -0.191406 -0.059147 160 169 178
-0.093750 -0.191406 -0.063312 163 173 185
-0.089844 -0.191406 -0.066564 164 175 188
-0.085938 -0.191406 -0.069193 164 177 191
-0.082031 -0.191406 -0.071696 159 172 188
-0.078125 -0.191406 -0.073893 155 169 184
-0.074219 -0.191406 -0.075523 157 170 184
-0.070312 -0.191406 -0.076703 155 168 182
-0.066406 -0.191406 -0.077734 147 161 175
-0.062500 -0.191406 -0.078545 142 156 170
-0.058594 -0.191406 -0.079089 144 156 171
-0.054688 -0.191406 -0.079399 146 157 172
-0.050781 -0.191406 -0.079565 140 153 169
-0.046875 -0.191406 -0.079582 130 143 162
-0.042969 -0.191406 -0.079385 127 139 157
-0.039062 -0.191406 -0.078847 127 141 156
-0.035156 -0.191406 -0.078141 117 135 149
-0.031250 -0.191406 -0.077175 109 135 146
-0.027344 -0.191406 -0.075795 114 141 151
-0.023438 -0.191406 -0.073921 107 136 144
-0.019531 -0.191406 -0.071885 100 132 136
-0.015625 -0.191406 -0.069501 97 130 135
-0.011719 -0.191406 -0.066745 95 129 135
-0.007812 -0.191406 -0.063509 101 136 142
-0.003906 -0.191406 -0.059964 107 140 146
0.000000 -0.191406 -0.055820 112 149 151
0.003906 -0.191406 -0.050698 108 151 146
0.007812 -0.191406 -0.044131 90 134 127
0.011719 -0.191406 -0.037750 90 128 126
0.015625 -0.191406 -0.029832 105 137 139
0.019531 -0.191406 -0.020391 119 148 149
0.023438 -0.191406 -0.001711 125 153 152
0.042969 -0.191406 -0.013193 67 85 82
0.046875 -0.191406 -0.033162 71 91 88
0.050781 -0.191406 -0.042420 79 103 98
0.054688 -0.191406 -0.048386 79 104 100
0.058594 -0.191406 -0.053514 97 120 119
0.062500 -0.191406 -0.057477 131 151 153
0.066406 -0.191406 -0.060337 126 146 154
0.070312 -0.191406 -0.062902 110 127 143
0.074219 -0.191406 -0.065200 93 111 132
0.078125 -0.191406 -0.067259 81 101 124
0.082031 -0.191406 -0.068925 86 105 126
0.085938 -0.191406 -0.070269 101 122 140
0.089844 -0.191406 -0.071476 105 130 152
0.093750 -0.191406 -0.072498 104 127 154
0.097656 -0.191406 -0.073218 122 140 166
0.101562 -0.191406 -0.073843 131 149 174
0.105469 -0.191406 -0.074274 139 157 179
0.109375 -0.191406 -0.074536 149 167 188
0.113281 -0.191406 -0.074696 145 164 186
0.117188 -0.191406 -0.074707 144 163 185
0.121094 -0.191406 -0.074557 149 167 188
0.125000 -0.191406 -0.074282 148 167 188
0.128906 -0.191406 -0.073673 150 169 191
0.132812 -0.191406 -0.072761 162 180 199
0.136719 -0.191406 -0.071802 162 182 201
0.140625 -0.191406 -0.070662 163 182 202
0.144531 -0.191406 -0.069286 163 182 200
0.148438 -0.191406 -0.067701 137 159 179
0.152344 -0.191406 -0.066003 157 175 190
0.156250 -0.191406 -0.064262 199 209 218
0.160156 -0.191406 -0.062047 187 202 213
0.164062 -0.191406 -0.059513 176 194 206
0.167969 -0.191406 -0.056902 174 192 206
0.171875 -0.191406 -0.054108 172 191 205
0.175781 -0.191406 -0.051442 190 203 213
0.179688 -0.191406 -0.048280 172 187 199
0.183594 -0.191406 -0.044940 182 188 198
0.187500 -0.191406 -0.041094 231 225 230
0.191406 -0.191406 -0.036831 235 229 233
0.195312 -0.191406 -0.030929 197 183 188
0.199219 -0.191406 -0.025076 161 135 137
0.203125 -0.191406 -0.015918 168 135 134
0.207031 -0.191406 -0.000994 143 104 89
-0.121094 -0.195312 -0.016673 181 173 168
-0.117188 -0.195312 -0.027418 197 193 186
-0.113281 -0.195312 -0.036150 178 176 172
-0.109375 -0.195312 -0.043348 169 167 165
-0.105469 -0.195312 -0.049357 150 151 152
-0.101562 -0.195312 -0.054266 144 148 152
-0.097656 -0.195312 -0.058798 154 160 166
-0.093750 -0.195312 -0.062956 161 168 176
-0.089844 -0.195312 -0.066242 166 175 185
-0.085938 -0.195312 -0.068889 168 179 191
-0.082031 -0.195312 -0.071457 160 174 188
-0.078125 -0.195312 -0.073715 156 169 185
-0.074219 -0.195312 -0.075366 158 170 184
-0.070312 -0.195312 -0.076545 156 169 182
-0.066406 -0.195312 -0.077590 154 166 179
-0.062500 -0.195312 -0.078433 148 161 174
-0.058594 -0.195312 -0.078976 143 155 171
-0.054688 -0.195312 -0.079283 143 154 170
-0.050781 -0.195312 -0.079459 139 151 167
-0.046875 -0.195312 -0.079503 135 147 164
-0.042969 -0.195312 -0.079290 135 147 162
-0.039062 -0.195312 -0.078762 132 146 160
-0.035156 -0.195312 -0.078089 127 143 157
-0.031250 -0.195312 -0.077187 125 144 157
-0.027344 -0.195312 -0.075883 123 143 157
-0.023438 -0.195312 -0.074033 118 139 153
-0.019531 -0.195312 -0.072064 111 135 149
-0.015625 -0.195312 -0.069702 107 132 146
-0.011719 -0.195312 -0.066947 107 133 146
-0.007812 -0.195312 -0.063634 110 136 150
-0.003906 -0.195312 -0.059968 108 134 150
0.000000 -0.195312 -0.055774 110 136 153
0.003906 -0.195312 -0.050522 122 148 160
0.007812 -0.195312 -0.043781 134 158 165
0.011719 -0.195312 -0.037251 145 163 169
0.015625 -0.195312 -0.029415 147 163 167
0.019531 -0.195312 -0.019547 143 159 163
0.023438 -0.195312 -0.003100 132 152 154
0.046875 -0.195312 -0.028599 87 105 109
0.050781 -0.195312 -0.038486 102 117 123
0.054688 -0.195312 -0.045144 99 115 120
0.058594 -0.195312 -0.050579 99 116 122
0.062500 -0.195312 -0.054753 110 127 134
0.066406 -0.195312 -0.057849 112 128 138
0.070312 -0.195312 -0.060585 116 131 145
0.074219 -0.195312 -0.062983 111 128 143
0.078125 -0.195312 -0.065182 97 115 133
0.082031 -0.195312 -0.066918 95 114 132
0.085938 -0.195312 -0.068352 110 130 147
0.089844 -0.195312 -0.069663 121 142 163
0.093750 -0.195312 -0.070730 123 144 167
0.097656 -0.195312 -0.071580 136 154 176
0.101562 -0.195312 -0.072265 145 163 184
0.105469 -0.195312 -0.072753 154 171 190
0.109375 -0.195312 -0.073099 160 177 196
0.113281 -0.195312 -0.073253 154 173 194
0.117188 -0.195312 -0.073246 154 174 195
0.121094 -0.195312 -0.073098 160 179 199
0.125000 -0.195312 -0.072816 160 178 199
0.128906 -0.195312 -0.072204 158 177 199
0.132812 -0.195312 -0.071278 169 187 206
0.136719 -0.195312 -0.070272 169 188 208
0.140625 -0.195312 -0.069102 164 184 205
0.144531 -0.195312 -0.067759 172 189 207
0.148438 -0.195312 -0.066195 151 169 190
0.152344 -0.195312 -0.064518 152 170 189
0.156250 -0.195312 -0.062842 192 204 215
0.160156 -0.195312 -0.060608 184 200 213
0.164062 -0.195312 -0.057983 175 194 208
0.167969 -0.195312 -0.055305 177 195 209
0.171875 -0.195312 -0.052437 163 184 201
0.175781 -0.195312 -0.049631 187 202 213
0.179688 -0.195312 -0.046226 185 200 211
0.183594 -0.195312 -0.042704 146 170 188
0.187500 -0.195312 -0.038819 183 199 212
0.191406 -0.195312 -0.034104 234 234 238
0.195312 -0.195312 -0.027404 229 223 225
0.199219 -0.195312 -0.020846 189 178 185
0.203125 -0.195312 -0.006990 172 154 167
-0.117188 -0.199219 -0.026416 187 182 178
-0.113281 -0.199219 -0.035587 185 180 175
-0.109375 -0.199219 -0.042977 174 170 166
-0.105469 -0.199219 -0.049029 156 155 152
-0.101562 -0.199219 -0.053934 149 150 150
-0.097656 -0.199219 -0.058483 153 156 157
-0.093750 -0.199219 -0.062630 151 157 161
-0.089844 -0.199219 -0.065935 156 163 171
-0.085938 -0.199219 -0.068618 167 176 185
-0.082031 -0.199219 -0.071214 162 174 187
-0.078125 -0.199219 -0.073523 155 169 184
-0.074219 -0.199219 -0.075212 151 165 181
-0.070312 -0.199219 -0.076401 147 160 177
-0.066406 -0.199219 -0.077496 147 160 176
-0.062500 -0.199219 -0.078393 146 159 175
-0.058594 -0.199219 -0.078972 144 158 173
-0.054688 -0.199219 -0.079293 146 159 174
-0.050781 -0.199219 -0.079519 144 157 172
