ply
    format ascii 1.0
    element vertex 73336
    property float x
    property float y
    property float z
    property uchar red
    property uchar green
    property uchar blue
    end_header
-0.015625 0.628906 -0.060194 23 21 19
-0.011719 0.628906 -0.056868 24 22 20
-0.007812 0.628906 -0.052728 25 23 21
-0.003906 0.628906 -0.048788 27 24 22
0.000000 0.628906 -0.043108 29 27 24
0.003906 0.628906 -0.035340 32 30 27
-0.097656 0.625000 -0.055454 1 1 3
-0.093750 0.625000 -0.061817 2 2 4
-0.089844 0.625000 -0.066597 3 3 6
-0.085938 0.625000 -0.069974 4 4 7
-0.082031 0.625000 -0.072620 5 5 9
-0.078125 0.625000 -0.075031 6 6 10
-0.074219 0.625000 -0.077233 7 7 12
-0.070312 0.625000 -0.078946 8 8 13
-0.066406 0.625000 -0.080398 9 9 14
-0.062500 0.625000 -0.081492 10 10 15
-0.058594 0.625000 -0.082009 10 10 17
-0.054688 0.625000 -0.081958 11 11 18
-0.050781 0.625000 -0.081694 12 12 19
-0.046875 0.625000 -0.081195 14 13 19
-0.042969 0.625000 -0.080168 22 20 23
-0.039062 0.625000 -0.078590 22 20 20
-0.035156 0.625000 -0.076838 27 23 22
-0.031250 0.625000 -0.074882 27 24 22
-0.027344 0.625000 -0.072387 28 25 23
-0.023438 0.625000 -0.069419 29 26 24
-0.019531 0.625000 -0.066582 30 27 25
-0.015625 0.625000 -0.063609 31 28 26
-0.011719 0.625000 -0.060552 33 30 27
-0.007812 0.625000 -0.056773 35 32 29
-0.003906 0.625000 -0.053206 37 34 31
0.000000 0.625000 -0.048055 40 37 34
0.003906 0.625000 -0.042015 43 40 36
-0.101562 0.621094 -0.034875 12 11 13
-0.097656 0.621094 -0.059549 2 2 2
-0.093750 0.621094 -0.065776 3 3 3
-0.089844 0.621094 -0.070188 3 3 5
-0.085938 0.621094 -0.073244 4 4 6
-0.082031 0.621094 -0.075685 5 5 8
-0.078125 0.621094 -0.077849 6 6 9
-0.074219 0.621094 -0.079773 7 7 11
-0.070312 0.621094 -0.081370 8 8 12
-0.066406 0.621094 -0.082719 9 9 13
-0.062500 0.621094 -0.083734 10 10 15
-0.058594 0.621094 -0.084244 11 11 16
-0.054688 0.621094 -0.084219 12 12 17
-0.050781 0.621094 -0.084005 13 13 18
-0.046875 0.621094 -0.083524 15 14 20
-0.042969 0.621094 -0.082556 25 23 25
-0.039062 0.621094 -0.081066 27 24 24
-0.035156 0.621094 -0.079443 32 29 26
-0.031250 0.621094 -0.077658 33 30 28
-0.027344 0.621094 -0.075413 35 31 29
-0.023438 0.621094 -0.072742 36 33 30
-0.019531 0.621094 -0.070182 38 35 32
-0.015625 0.621094 -0.067523 40 37 34
-0.011719 0.621094 -0.064713 43 39 36
-0.007812 0.621094 -0.061300 46 42 38
-0.003906 0.621094 -0.057959 49 45 41
0.000000 0.621094 -0.053498 53 49 44
0.003906 0.621094 -0.049495 58 53 49
0.007812 0.621094 -0.036793 64 59 54
-0.101562 0.617188 -0.061256 40 36 39
-0.097656 0.617188 -0.065591 2 2 3
-0.093750 0.617188 -0.071120 3 3 4
-0.089844 0.617188 -0.074617 5 4 6
-0.085938 0.617188 -0.077303 6 5 7
-0.082031 0.617188 -0.079427 7 6 9
-0.078125 0.617188 -0.081260 8 7 10
-0.074219 0.617188 -0.082887 9 9 11
-0.070312 0.617188 -0.084278 10 10 13
-0.066406 0.617188 -0.085445 11 11 14
-0.062500 0.617188 -0.086332 12 12 15
-0.058594 0.617188 -0.086743 13 13 17
-0.054688 0.617188 -0.086663 14 14 18
-0.050781 0.617188 -0.086465 15 15 19
-0.046875 0.617188 -0.085982 17 17 21
-0.042969 0.617188 -0.085071 29 27 28
-0.039062 0.617188 -0.083688 32 29 28
-0.035156 0.617188 -0.082191 38 35 32
-0.031250 0.617188 -0.080565 40 36 34
-0.027344 0.617188 -0.078512 42 38 35
-0.023438 0.617188 -0.076105 44 40 37
-0.019531 0.617188 -0.073831 47 43 39
-0.015625 0.617188 -0.071489 50 45 41
-0.011719 0.617188 -0.069007 53 48 44
-0.007812 0.617188 -0.065970 56 51 47
-0.003906 0.617188 -0.063060 61 55 51
0.000000 0.617188 -0.059583 66 60 55
0.003906 0.617188 -0.056120 72 66 60
0.007812 0.617188 -0.051063 79 72 66
-0.101562 0.613281 -0.066136 3 3 3
-0.097656 0.613281 -0.072419 4 4 5
-0.093750 0.613281 -0.076305 6 6 7
-0.089844 0.613281 -0.079182 8 7 8
-0.085938 0.613281 -0.081556 9 8 10
-0.082031 0.613281 -0.083455 11 10 11
-0.078125 0.613281 -0.085112 12 11 13
-0.074219 0.613281 -0.086513 13 12 14
-0.070312 0.613281 -0.087696 14 13 15
-0.066406 0.613281 -0.088655 15 14 17
-0.062500 0.613281 -0.089378 16 15 18
-0.058594 0.613281 -0.089643 17 16 19
-0.054688 0.613281 -0.089469 18 17 20
-0.050781 0.613281 -0.089234 19 18 22
-0.046875 0.613281 -0.088776 22 21 24
-0.042969 0.613281 -0.087946 31 28 30
-0.039062 0.613281 -0.086677 39 36 35
-0.035156 0.613281 -0.085322 46 41 38
-0.031250 0.613281 -0.083859 48 43 40
-0.027344 0.613281 -0.082026 50 45 42
-0.023438 0.613281 -0.079919 53 48 44
-0.019531 0.613281 -0.077902 56 50 46
-0.015625 0.613281 -0.075805 59 53 49
-0.011719 0.613281 -0.073686 62 57 52
-0.007812 0.613281 -0.071211 67 61 56
-0.003906 0.613281 -0.068637 72 65 60
0.000000 0.613281 -0.065796 77 70 65
0.003906 0.613281 -0.063142 83 76 70
0.007812 0.613281 -0.059807 90 82 75
0.011719 0.613281 -0.056069 97 88 81
-0.105469 0.609375 -0.069050 128 114 107
-0.101562 0.609375 -0.072629 12 11 13
-0.097656 0.609375 -0.078365 15 14 15
-0.093750 0.609375 -0.081384 17 15 16
-0.089844 0.609375 -0.083984 18 16 17
-0.085938 0.609375 -0.085954 19 17 18
-0.082031 0.609375 -0.087669 20 18 19
-0.078125 0.609375 -0.089082 20 18 20
-0.074219 0.609375 -0.090244 21 19 21
-0.070312 0.609375 -0.091202 22 20 22
-0.066406 0.609375 -0.091931 22 21 23
-0.062500 0.609375 -0.092494 23 22 24
-0.058594 0.609375 -0.092682 24 22 25
-0.054688 0.609375 -0.092477 25 23 26
-0.050781 0.609375 -0.092220 26 24 27
-0.046875 0.609375 -0.091779 29 27 29
-0.042969 0.609375 -0.090998 38 35 35
-0.039062 0.609375 -0.089807 45 41 41
-0.035156 0.609375 -0.088575 53 48 44
-0.031250 0.609375 -0.087236 55 50 46
-0.027344 0.609375 -0.085587 58 52 48
-0.023438 0.609375 -0.083727 61 55 51
-0.019531 0.609375 -0.081930 64 58 53
-0.015625 0.609375 -0.080090 68 61 57
-0.011719 0.609375 -0.078258 72 65 60
-0.007812 0.609375 -0.076202 76 69 64
-0.003906 0.609375 -0.074055 81 73 68
0.000000 0.609375 -0.071894 86 78 72
0.003906 0.609375 -0.070152 92 83 77
0.007812 0.609375 -0.066998 97 88 81
0.011719 0.609375 -0.065761 102 92 86
0.015625 0.609375 -0.059637 107 96 89
-0.109375 0.605469 -0.066810 8 6 19
-0.105469 0.605469 -0.075320 33 30 36
-0.101562 0.605469 -0.080227 40 36 39
-0.097656 0.605469 -0.083467 42 38 40
-0.093750 0.605469 -0.086169 42 38 39
-0.089844 0.605469 -0.088461 42 38 38
-0.085938 0.605469 -0.090156 41 37 37
-0.082031 0.605469 -0.091631 40 36 36
-0.078125 0.605469 -0.092893 39 35 35
-0.074219 0.605469 -0.093888 38 35 35
-0.070312 0.605469 -0.094665 38 34 35
-0.066406 0.605469 -0.095225 38 34 35
-0.062500 0.605469 -0.095612 38 34 35
-0.058594 0.605469 -0.095688 38 35 36
-0.054688 0.605469 -0.095401 39 35 37
-0.050781 0.605469 -0.095107 39 36 38
-0.046875 0.605469 -0.094687 42 38 40
-0.042969 0.605469 -0.093949 48 44 44
-0.039062 0.605469 -0.092866 57 51 50
-0.035156 0.605469 -0.091772 60 54 50
-0.031250 0.605469 -0.090564 63 56 53
-0.027344 0.605469 -0.089107 66 59 55
-0.023438 0.605469 -0.087486 69 62 58
-0.019531 0.605469 -0.085882 72 65 61
-0.015625 0.605469 -0.084247 76 69 64
-0.011719 0.605469 -0.082609 80 72 67
-0.007812 0.605469 -0.080856 84 76 71
-0.003906 0.605469 -0.079140 89 81 74
0.000000 0.605469 -0.077472 94 85 78
0.003906 0.605469 -0.075952 98 89 82
0.007812 0.605469 -0.074360 103 93 86
0.011719 0.605469 -0.072111 107 96 90
0.015625 0.605469 -0.071034 110 98 92
0.019531 0.605469 -0.064940 113 101 95
-0.113281 0.601562 -0.070788 152 141 144
-0.109375 0.601562 -0.076328 53 49 53
-0.105469 0.601562 -0.081772 51 46 49
-0.101562 0.601562 -0.085707 53 48 50
-0.097656 0.601562 -0.088227 55 50 50
-0.093750 0.601562 -0.090644 57 51 51
-0.089844 0.601562 -0.092737 58 52 52
-0.085938 0.601562 -0.094230 59 53 52
-0.082031 0.601562 -0.095540 62 55 54
-0.078125 0.601562 -0.096643 62 56 54
-0.074219 0.601562 -0.097460 62 56 54
-0.070312 0.601562 -0.098084 62 56 54
-0.066406 0.601562 -0.098499 63 56 55
-0.062500 0.601562 -0.098751 64 57 56
-0.058594 0.601562 -0.098749 65 58 57
-0.054688 0.601562 -0.098430 65 58 58
-0.050781 0.601562 -0.098113 65 59 60
-0.046875 0.601562 -0.097705 66 60 61
-0.042969 0.601562 -0.097013 68 61 62
-0.039062 0.601562 -0.096028 69 62 61
-0.035156 0.601562 -0.095043 68 61 58
-0.031250 0.601562 -0.093960 71 64 60
-0.027344 0.601562 -0.092686 74 67 63
-0.023438 0.601562 -0.091281 77 70 65
-0.019531 0.601562 -0.089869 80 73 68
-0.015625 0.601562 -0.088431 84 76 71
-0.011719 0.601562 -0.086973 88 80 74
-0.007812 0.601562 -0.085491 92 83 77
-0.003906 0.601562 -0.084117 97 87 81
0.000000 0.601562 -0.082641 101 91 84
0.003906 0.601562 -0.081241 105 95 88
0.007812 0.601562 -0.080216 109 98 91
0.011719 0.601562 -0.078851 112 100 94
0.015625 0.601562 -0.076790 114 102 96
0.019531 0.601562 -0.075217 116 104 98
0.023438 0.601562 -0.074359 118 106 100
0.027344 0.601562 -0.064640 123 110 104
-0.125000 0.597656 -0.054507 27 19 41
-0.121094 0.597656 -0.066448 125 100 115
-0.117188 0.597656 -0.074930 213 192 179
-0.113281 0.597656 -0.077943 232 212 191
-0.109375 0.597656 -0.082590 158 142 133
-0.105469 0.597656 -0.086829 128 114 107
-0.101562 0.597656 -0.089990 110 97 92
-0.097656 0.597656 -0.092887 101 89 84
-0.093750 0.597656 -0.095122 96 85 80
-0.089844 0.597656 -0.096764 94 83 78
-0.085938 0.597656 -0.098158 92 81 77
-0.082031 0.597656 -0.099298 92 81 76
-0.078125 0.597656 -0.100225 91 80 76
-0.074219 0.597656 -0.100893 91 80 76
-0.070312 0.597656 -0.101336 102 90 85
-0.066406 0.597656 -0.101622 105 93 89
-0.062500 0.597656 -0.101810 108 95 92
-0.058594 0.597656 -0.101771 109 97 95
-0.054688 0.597656 -0.101467 110 98 97
-0.050781 0.597656 -0.101146 111 99 100
-0.046875 0.597656 -0.100727 111 100 103
-0.042969 0.597656 -0.100068 99 90 92
-0.039062 0.597656 -0.099150 98 90 93
-0.035156 0.597656 -0.098239 79 72 71
-0.031250 0.597656 -0.097237 81 73 71
-0.027344 0.597656 -0.096073 84 76 73
-0.023438 0.597656 -0.094807 87 79 75
-0.019531 0.597656 -0.093528 90 82 77
-0.015625 0.597656 -0.092242 94 85 80
-0.011719 0.597656 -0.090930 98 89 83
-0.007812 0.597656 -0.089617 102 92 86
-0.003906 0.597656 -0.088404 106 95 89
0.000000 0.597656 -0.087199 110 99 92
0.003906 0.597656 -0.085814 114 102 95
0.007812 0.597656 -0.084733 118 105 99
0.011719 0.597656 -0.083900 124 111 104
0.015625 0.597656 -0.083142 127 113 106
0.019531 0.597656 -0.081782 132 118 111
0.023438 0.597656 -0.078842 135 120 114
0.027344 0.597656 -0.075937 139 123 117
0.031250 0.597656 -0.076044 144 128 123
0.035156 0.597656 -0.071862 152 133 129
0.039062 0.597656 -0.065545 164 141 138
0.042969 0.597656 -0.061558 201 168 165
-0.140625 0.593750 -0.052678 194 198 201
-0.136719 0.593750 -0.058910 95 98 143
-0.132812 0.593750 -0.064140 79 75 116
-0.128906 0.593750 -0.067484 97 78 113
-0.125000 0.593750 -0.072196 144 105 125
-0.121094 0.593750 -0.076942 189 147 142
-0.117188 0.593750 -0.081412 217 177 156
-0.113281 0.593750 -0.085291 229 190 161
-0.109375 0.593750 -0.088309 218 187 164
-0.105469 0.593750 -0.091174 198 172 152
-0.101562 0.593750 -0.094006 182 158 141
-0.097656 0.593750 -0.096676 171 149 133
-0.093750 0.593750 -0.098662 163 142 128
-0.089844 0.593750 -0.100250 157 137 124
-0.085938 0.593750 -0.101604 153 133 121
-0.082031 0.593750 -0.102630 150 130 119
-0.078125 0.593750 -0.103465 147 128 118
-0.074219 0.593750 -0.104060 145 127 118
-0.070312 0.593750 -0.104446 156 137 128
-0.066406 0.593750 -0.104693 158 138 132
-0.062500 0.593750 -0.104836 159 140 136
-0.058594 0.593750 -0.104753 160 141 141
-0.054688 0.593750 -0.104436 160 142 145
-0.050781 0.593750 -0.104082 160 143 150
-0.046875 0.593750 -0.103649 160 144 154
-0.042969 0.593750 -0.103010 138 127 136
-0.039062 0.593750 -0.102153 124 119 130
-0.035156 0.593750 -0.101308 105 100 105
-0.031250 0.593750 -0.100371 96 90 93
-0.027344 0.593750 -0.099300 99 93 94
-0.023438 0.593750 -0.098140 103 96 96
-0.019531 0.593750 -0.096964 107 99 98
-0.015625 0.593750 -0.095783 111 102 100
-0.011719 0.593750 -0.094587 115 106 102
-0.007812 0.593750 -0.093431 120 109 104
-0.003906 0.593750 -0.092318 124 112 107
0.000000 0.593750 -0.091269 129 116 110
0.003906 0.593750 -0.090159 140 125 119
0.007812 0.593750 -0.089055 145 129 122
0.011719 0.593750 -0.088248 150 133 126
0.015625 0.593750 -0.087394 167 147 139
0.019531 0.593750 -0.086265 170 149 141
0.023438 0.593750 -0.085171 172 150 142
0.027344 0.593750 -0.082619 176 153 145
0.031250 0.593750 -0.079672 183 158 150
0.035156 0.593750 -0.077502 187 160 153
0.039062 0.593750 -0.075655 196 166 159
0.042969 0.593750 -0.073361 203 169 159
0.046875 0.593750 -0.070998 194 167 164
0.050781 0.593750 -0.069645 140 116 129
0.054688 0.593750 -0.069708 121 112 136
0.058594 0.593750 -0.068778 152 170 197
-0.148438 0.589844 -0.055998 179 192 204
-0.144531 0.589844 -0.061856 189 203 213
-0.140625 0.589844 -0.063672 231 229 235
-0.136719 0.589844 -0.068158 215 212 218
-0.132812 0.589844 -0.072320 194 185 201
-0.128906 0.589844 -0.075926 191 171 190
-0.125000 0.589844 -0.079592 206 174 182
-0.121094 0.589844 -0.082756 225 195 185
-0.117188 0.589844 -0.086034 235 205 182
-0.113281 0.589844 -0.089206 237 202 172
-0.109375 0.589844 -0.092231 223 192 167
-0.105469 0.589844 -0.095190 225 195 170
-0.101562 0.589844 -0.097796 222 192 169
-0.097656 0.589844 -0.100036 216 187 165
-0.093750 0.589844 -0.101945 210 182 161
-0.089844 0.589844 -0.103506 205 177 158
-0.085938 0.589844 -0.104737 200 173 156
-0.082031 0.589844 -0.105678 198 172 156
-0.078125 0.589844 -0.106397 196 170 156
-0.074219 0.589844 -0.106915 194 168 157
-0.070312 0.589844 -0.107269 192 167 158
-0.066406 0.589844 -0.107475 192 168 162
-0.062500 0.589844 -0.107560 192 169 167
-0.058594 0.589844 -0.107417 192 170 173
-0.054688 0.589844 -0.107079 191 171 179
-0.050781 0.589844 -0.106676 190 172 184
-0.046875 0.589844 -0.106214 188 173 189
-0.042969 0.589844 -0.105585 175 165 185
-0.039062 0.589844 -0.104781 143 140 160
-0.035156 0.589844 -0.103985 136 136 154
-0.031250 0.589844 -0.103098 124 124 137
-0.027344 0.589844 -0.102108 129 127 138
-0.023438 0.589844 -0.101034 134 130 139
-0.019531 0.589844 -0.099953 140 134 140
-0.015625 0.589844 -0.098867 146 138 141
-0.011719 0.589844 -0.097796 153 142 143
-0.007812 0.589844 -0.096770 160 148 149
-0.003906 0.589844 -0.095758 167 152 151
0.000000 0.589844 -0.094787 174 156 152
0.003906 0.589844 -0.093803 180 160 154
0.007812 0.589844 -0.092890 185 164 156
0.011719 0.589844 -0.091850 190 168 158
0.015625 0.589844 -0.090957 202 178 167
0.019531 0.589844 -0.090162 203 178 166
0.023438 0.589844 -0.089242 203 177 166
0.027344 0.589844 -0.088215 204 177 165
0.031250 0.589844 -0.086632 204 177 165
0.035156 0.589844 -0.084864 204 175 165
0.039062 0.589844 -0.082980 209 179 168
0.042969 0.589844 -0.081059 215 184 169
0.046875 0.589844 -0.079434 208 181 172
0.050781 0.589844 -0.077963 181 157 164
0.054688 0.589844 -0.076229 140 146 178
0.058594 0.589844 -0.073826 103 144 193
0.062500 0.589844 -0.071066 137 179 226
0.066406 0.589844 -0.069102 124 160 203
0.070312 0.589844 -0.061229 28 36 47
-0.156250 0.585938 -0.057548 184 200 206
-0.152344 0.585938 -0.060208 192 212 217
-0.148438 0.585938 -0.065506 181 205 230
-0.144531 0.585938 -0.068588 184 184 193
-0.140625 0.585938 -0.071405 187 186 195
-0.136719 0.585938 -0.074990 176 174 183
-0.132812 0.585938 -0.078137 177 170 181
-0.128906 0.585938 -0.081167 186 171 188
-0.125000 0.585938 -0.083882 195 163 177
-0.121094 0.585938 -0.086742 222 186 183
-0.117188 0.585938 -0.089595 237 208 189
-0.113281 0.585938 -0.092458 240 206 178
-0.109375 0.585938 -0.095321 240 204 171
-0.105469 0.585938 -0.097960 235 202 175
-0.101562 0.585938 -0.100488 231 200 174
-0.097656 0.585938 -0.102807 227 197 172
-0.093750 0.585938 -0.104675 224 194 171
-0.089844 0.585938 -0.106138 221 191 171
-0.085938 0.585938 -0.107310 219 189 171
-0.082031 0.585938 -0.108259 217 187 172
-0.078125 0.585938 -0.108998 215 186 174
-0.074219 0.585938 -0.109532 213 185 177
-0.070312 0.585938 -0.109867 211 185 180
-0.066406 0.585938 -0.110026 209 184 184
-0.062500 0.585938 -0.110051 207 184 189
-0.058594 0.585938 -0.109847 204 184 194
-0.054688 0.585938 -0.109477 201 184 199
-0.050781 0.585938 -0.109032 197 184 203
-0.046875 0.585938 -0.108541 193 183 208
-0.042969 0.585938 -0.107909 187 182 212
-0.039062 0.585938 -0.107132 163 165 196
-0.035156 0.585938 -0.106349 148 157 191
-0.031250 0.585938 -0.105477 144 157 191
-0.027344 0.585938 -0.104523 148 159 188
-0.023438 0.585938 -0.103493 155 162 187
-0.019531 0.585938 -0.102464 162 165 186
-0.015625 0.585938 -0.101431 170 168 185
-0.011719 0.585938 -0.100436 177 171 184
-0.007812 0.585938 -0.099506 184 174 182
-0.003906 0.585938 -0.098568 191 177 181
0.000000 0.585938 -0.097696 197 180 180
0.003906 0.585938 -0.096772 207 186 183
0.007812 0.585938 -0.095929 211 188 181
0.011719 0.585938 -0.095067 213 189 180
0.015625 0.585938 -0.094067 214 189 178
0.019531 0.585938 -0.093152 217 191 178
0.023438 0.585938 -0.091961 217 191 177
0.027344 0.585938 -0.090610 217 190 176
0.031250 0.585938 -0.089132 217 190 176
0.035156 0.585938 -0.087689 218 190 176
0.039062 0.585938 -0.086648 212 184 173
0.042969 0.585938 -0.085619 216 185 169
0.046875 0.585938 -0.084673 212 187 177
0.050781 0.585938 -0.083560 197 181 183
0.054688 0.585938 -0.082272 147 160 198
0.058594 0.585938 -0.080169 97 147 214
0.062500 0.585938 -0.077144 77 132 197
0.066406 0.585938 -0.074803 69 119 183
0.070312 0.585938 -0.071214 84 125 180
0.074219 0.585938 -0.068036 78 106 149
0.078125 0.585938 -0.064390 98 160 240
0.082031 0.585938 -0.055362 119 176 243
-0.164062 0.582031 -0.057005 182 195 209
-0.160156 0.582031 -0.061195 177 197 221
-0.156250 0.582031 -0.064621 163 189 217
-0.152344 0.582031 -0.068322 202 205 211
-0.148438 0.582031 -0.071567 188 193 200
-0.144531 0.582031 -0.074271 187 193 197
-0.140625 0.582031 -0.077036 194 198 201
-0.136719 0.582031 -0.079811 185 192 203
-0.132812 0.582031 -0.082429 189 196 208
-0.128906 0.582031 -0.085103 181 189 211
-0.125000 0.582031 -0.087755 181 180 204
-0.121094 0.582031 -0.090424 213 186 195
-0.117188 0.582031 -0.093125 240 214 203
-0.113281 0.582031 -0.095809 243 214 194
-0.109375 0.582031 -0.098361 243 212 183
-0.105469 0.582031 -0.100774 240 209 184
-0.101562 0.582031 -0.103123 239 207 183
-0.097656 0.582031 -0.105222 236 205 182
-0.093750 0.582031 -0.106974 235 203 184
-0.089844 0.582031 -0.108446 233 201 185
-0.085938 0.582031 -0.109610 230 199 186
-0.082031 0.582031 -0.110581 227 197 188
-0.078125 0.582031 -0.111351 224 195 191
-0.074219 0.582031 -0.111903 221 193 193
-0.070312 0.582031 -0.112213 217 192 196
-0.066406 0.582031 -0.112316 213 191 200
-0.062500 0.582031 -0.112273 209 190 204
-0.058594 0.582031 -0.112003 205 189 208
-0.054688 0.582031 -0.111597 200 188 212
-0.050781 0.582031 -0.111119 195 187 216
-0.046875 0.582031 -0.110602 190 186 219
-0.042969 0.582031 -0.109953 183 185 223
-0.039062 0.582031 -0.109178 164 175 217
-0.035156 0.582031 -0.108384 151 171 218
-0.031250 0.582031 -0.107505 147 169 217
-0.027344 0.582031 -0.106566 151 171 214
-0.023438 0.582031 -0.105557 158 174 212
-0.019531 0.582031 -0.104558 166 176 210
-0.015625 0.582031 -0.103564 174 179 208
-0.011719 0.582031 -0.102617 183 183 207
-0.007812 0.582031 -0.101747 191 186 205
-0.003906 0.582031 -0.100897 198 188 202
0.000000 0.582031 -0.100119 205 191 199
0.003906 0.582031 -0.099349 211 193 196
0.007812 0.582031 -0.098619 216 195 193
0.011719 0.582031 -0.097922 219 196 190
0.015625 0.582031 -0.097226 221 196 187
0.019531 0.582031 -0.096332 221 196 185
0.023438 0.582031 -0.095294 221 195 182
0.027344 0.582031 -0.094354 221 195 180
0.031250 0.582031 -0.093318 222 195 180
0.035156 0.582031 -0.092373 217 191 176
0.039062 0.582031 -0.091503 219 187 169
0.042969 0.582031 -0.090426 220 193 180
0.046875 0.582031 -0.089180 222 204 195
0.050781 0.582031 -0.087719 206 203 206
0.054688 0.582031 -0.086256 131 171 230
0.058594 0.582031 -0.084745 104 167 247
0.062500 0.582031 -0.082982 97 164 246
0.066406 0.582031 -0.081284 99 162 241
0.070312 0.582031 -0.079089 108 166 242
0.074219 0.582031 -0.076421 111 165 235
0.078125 0.582031 -0.073558 104 153 217
0.082031 0.582031 -0.069785 95 139 197
0.085938 0.582031 -0.067147 107 164 237
0.089844 0.582031 -0.063615 96 148 215
0.093750 0.582031 -0.057386 101 148 208
0.097656 0.582031 -0.050472 100 139 186
0.101562 0.582031 -0.042083 91 127 174
-0.171875 0.578125 -0.055805 149 156 173
-0.167969 0.578125 -0.059187 170 187 207
-0.164062 0.578125 -0.065256 168 192 217
-0.160156 0.578125 -0.068446 190 194 200
-0.156250 0.578125 -0.071412 180 188 197
-0.152344 0.578125 -0.074227 182 191 197
-0.148438 0.578125 -0.076661 179 192 204
-0.144531 0.578125 -0.079298 189 203 213
-0.140625 0.578125 -0.081749 197 215 222
-0.136719 0.578125 -0.084130 180 197 219
-0.132812 0.578125 -0.086521 169 190 217
-0.128906 0.578125 -0.088955 160 186 219
-0.125000 0.578125 -0.091430 150 176 213
-0.121094 0.578125 -0.093835 172 178 207
-0.117188 0.578125 -0.096346 234 211 207
-0.113281 0.578125 -0.098801 243 212 197
-0.109375 0.578125 -0.101095 244 212 186
-0.105469 0.578125 -0.103394 242 211 191
-0.101562 0.578125 -0.105542 240 208 189
-0.097656 0.578125 -0.107456 238 205 190
-0.093750 0.578125 -0.109138 235 202 191
-0.089844 0.578125 -0.110608 233 200 192
-0.085938 0.578125 -0.111805 230 198 194
-0.082031 0.578125 -0.112792 226 197 197
-0.078125 0.578125 -0.113538 222 195 199
-0.074219 0.578125 -0.114045 218 194 202
-0.070312 0.578125 -0.114286 214 193 206
-0.066406 0.578125 -0.114310 210 192 209
-0.062500 0.578125 -0.114201 205 191 213
-0.058594 0.578125 -0.113880 200 190 217
-0.054688 0.578125 -0.113449 194 189 221
-0.050781 0.578125 -0.112942 188 188 224
-0.046875 0.578125 -0.112391 182 187 228
-0.042969 0.578125 -0.111719 173 184 231
-0.039062 0.578125 -0.110942 153 176 232
-0.035156 0.578125 -0.110138 144 172 229
-0.031250 0.578125 -0.109255 137 169 227
-0.027344 0.578125 -0.108333 143 171 225
-0.023438 0.578125 -0.107346 150 174 223
-0.019531 0.578125 -0.106371 158 176 220
-0.015625 0.578125 -0.105404 166 179 218
-0.011719 0.578125 -0.104487 174 182 215
-0.007812 0.578125 -0.103642 182 184 212
-0.003906 0.578125 -0.102835 191 187 209
0.000000 0.578125 -0.102110 199 190 206
0.003906 0.578125 -0.101406 206 193 202
0.007812 0.578125 -0.100786 213 195 199
0.011719 0.578125 -0.100198 218 197 195
0.015625 0.578125 -0.099650 221 198 192
0.019531 0.578125 -0.099017 223 199 189
0.023438 0.578125 -0.098312 224 199 186
0.027344 0.578125 -0.097552 225 199 185
0.031250 0.578125 -0.096610 226 201 184
0.035156 0.578125 -0.095730 223 199 183
0.039062 0.578125 -0.094883 225 199 180
0.042969 0.578125 -0.093899 225 204 191
0.046875 0.578125 -0.092842 219 206 201
0.050781 0.578125 -0.091758 167 185 220
0.054688 0.578125 -0.090523 95 156 245
0.058594 0.578125 -0.089214 74 143 238
0.062500 0.578125 -0.087640 94 164 251
0.066406 0.578125 -0.085908 107 176 250
0.070312 0.578125 -0.084351 94 161 246
0.074219 0.578125 -0.082710 92 153 232
0.078125 0.578125 -0.081022 108 164 236
0.082031 0.578125 -0.078052 106 157 224
0.085938 0.578125 -0.074441 80 124 182
0.089844 0.578125 -0.071296 82 117 167
0.093750 0.578125 -0.067751 63 89 130
0.097656 0.578125 -0.063782 57 74 110
0.101562 0.578125 -0.060705 65 76 110
0.105469 0.578125 -0.059439 64 72 105
0.109375 0.578125 -0.056792 84 129 184
0.113281 0.578125 -0.052335 90 138 198
0.117188 0.578125 -0.041929 90 137 196
-0.179688 0.574219 -0.050344 134 141 165
-0.175781 0.574219 -0.059084 148 162 183
-0.171875 0.574219 -0.062973 161 183 209
-0.167969 0.574219 -0.067259 176 179 193
-0.164062 0.574219 -0.071004 174 181 189
-0.160156 0.574219 -0.073735 182 194 198
-0.156250 0.574219 -0.076457 184 200 206
-0.152344 0.574219 -0.078987 192 212 217
-0.148438 0.574219 -0.081291 181 205 230
-0.144531 0.574219 -0.083492 167 196 225
-0.140625 0.574219 -0.085645 160 191 223
-0.136719 0.574219 -0.087783 144 176 212
-0.132812 0.574219 -0.090096 143 177 216
-0.128906 0.574219 -0.092451 152 191 237
-0.125000 0.574219 -0.094820 143 183 233
-0.121094 0.574219 -0.097218 146 181 230
-0.117188 0.574219 -0.099518 208 200 215
-0.113281 0.574219 -0.101672 241 213 205
-0.109375 0.574219 -0.103755 244 216 198
-0.105469 0.574219 -0.105840 238 206 194
-0.101562 0.574219 -0.107779 237 203 193
-0.097656 0.574219 -0.109561 235 201 193
-0.093750 0.574219 -0.111129 232 199 194
-0.089844 0.574219 -0.112524 229 197 196
-0.085938 0.574219 -0.113717 225 196 199
-0.082031 0.574219 -0.114692 221 194 202
-0.078125 0.574219 -0.115401 217 193 205
-0.074219 0.574219 -0.115873 213 192 209
-0.070312 0.574219 -0.116079 208 192 213
-0.066406 0.574219 -0.116066 203 191 217
-0.062500 0.574219 -0.115921 197 190 220
-0.058594 0.574219 -0.115564 191 189 224
-0.054688 0.574219 -0.115097 185 188 228
-0.050781 0.574219 -0.114545 179 187 231
-0.046875 0.574219 -0.113943 173 185 234
-0.042969 0.574219 -0.113231 164 182 236
-0.039062 0.574219 -0.112430 145 174 237
-0.035156 0.574219 -0.111597 135 170 234
-0.031250 0.574219 -0.110699 128 166 232
-0.027344 0.574219 -0.109784 133 168 230
-0.023438 0.574219 -0.108815 139 171 228
-0.019531 0.574219 -0.107872 146 173 225
-0.015625 0.574219 -0.106941 154 175 223
-0.011719 0.574219 -0.106065 162 178 220
-0.007812 0.574219 -0.105252 170 181 217
-0.003906 0.574219 -0.104501 179 184 214
0.000000 0.574219 -0.103841 188 187 211
0.003906 0.574219 -0.103217 197 190 208
0.007812 0.574219 -0.102684 206 193 204
0.011719 0.574219 -0.102196 213 196 200
0.015625 0.574219 -0.101716 219 198 196
0.019531 0.574219 -0.101215 223 200 192
0.023438 0.574219 -0.100721 225 201 189
0.027344 0.574219 -0.100151 227 202 188
0.031250 0.574219 -0.099586 224 200 183
0.035156 0.574219 -0.099065 225 196 173
0.039062 0.574219 -0.098510 228 204 188
0.042969 0.574219 -0.097837 225 209 200
0.046875 0.574219 -0.097048 192 193 207
0.050781 0.574219 -0.096142 93 147 228
0.054688 0.574219 -0.095010 72 139 236
0.058594 0.574219 -0.093754 81 150 248
0.062500 0.574219 -0.092236 77 146 242
0.066406 0.574219 -0.090499 86 154 248
0.070312 0.574219 -0.088607 93 159 249
0.074219 0.574219 -0.086627 91 155 240
0.078125 0.574219 -0.084642 98 160 240
0.082031 0.574219 -0.082587 119 176 243
0.085938 0.574219 -0.080394 131 183 238
0.089844 0.574219 -0.077975 127 174 233
0.093750 0.574219 -0.075291 104 148 205
0.097656 0.574219 -0.072385 95 134 187
0.101562 0.574219 -0.069977 100 137 188
0.105469 0.574219 -0.067942 96 131 181
0.109375 0.574219 -0.065125 87 120 167
0.113281 0.574219 -0.061463 97 124 170
0.117188 0.574219 -0.057575 83 96 135
0.121094 0.574219 -0.054876 23 24 43
0.125000 0.574219 -0.048431 104 144 201
-0.187500 0.570312 -0.050769 126 138 167
-0.183594 0.570312 -0.056117 137 154 181
-0.179688 0.570312 -0.061100 143 167 198
-0.175781 0.570312 -0.065704 116 116 150
-0.171875 0.570312 -0.069037 138 140 157
-0.167969 0.570312 -0.072451 165 172 182
-0.164062 0.570312 -0.075508 182 195 209
-0.160156 0.570312 -0.078363 177 197 221
-0.156250 0.570312 -0.080715 163 189 217
-0.152344 0.570312 -0.082831 161 192 226
-0.148438 0.570312 -0.084841 149 186 224
-0.144531 0.570312 -0.086728 144 185 226
-0.140625 0.570312 -0.088763 145 188 232
-0.136719 0.570312 -0.090857 133 179 227
-0.132812 0.570312 -0.093056 141 187 239
-0.128906 0.570312 -0.095290 141 190 247
-0.125000 0.570312 -0.097482 140 190 250
-0.121094 0.570312 -0.099715 137 187 249
-0.117188 0.570312 -0.101868 152 180 227
-0.113281 0.570312 -0.103926 225 200 205
-0.109375 0.570312 -0.105953 241 210 201
-0.105469 0.570312 -0.107908 238 198 178
-0.101562 0.570312 -0.109730 236 201 191
-0.097656 0.570312 -0.111472 231 196 195
-0.093750 0.570312 -0.112997 228 195 196
-0.089844 0.570312 -0.114355 224 193 199
-0.085938 0.570312 -0.115483 219 193 203
-0.082031 0.570312 -0.116386 215 192 207
-0.078125 0.570312 -0.117046 210 191 211
-0.074219 0.570312 -0.117459 205 190 215
-0.070312 0.570312 -0.117614 199 190 219
-0.066406 0.570312 -0.117551 193 189 223
-0.062500 0.570312 -0.117361 187 188 227
-0.058594 0.570312 -0.116958 181 187 231
-0.054688 0.570312 -0.116442 175 186 234
-0.050781 0.570312 -0.115838 169 185 236
-0.046875 0.570312 -0.115178 164 183 238
-0.042969 0.570312 -0.114421 156 180 239
-0.039062 0.570312 -0.113593 137 171 239
-0.035156 0.570312 -0.112738 127 167 237
-0.031250 0.570312 -0.111831 119 163 235
-0.027344 0.570312 -0.110930 123 165 233
-0.023438 0.570312 -0.109993 129 167 231
-0.019531 0.570312 -0.109089 135 169 229
-0.015625 0.570312 -0.108210 141 171 227
-0.011719 0.570312 -0.107383 149 173 225
-0.007812 0.570312 -0.106610 157 176 222
-0.003906 0.570312 -0.105897 166 179 219
0.000000 0.570312 -0.105263 175 182 216
0.003906 0.570312 -0.104669 185 186 213
0.007812 0.570312 -0.104161 195 189 209
0.011719 0.570312 -0.103686 204 193 205
0.015625 0.570312 -0.103243 212 196 201
0.019531 0.570312 -0.102792 219 199 197
0.023438 0.570312 -0.102371 224 201 194
0.027344 0.570312 -0.101937 227 203 191
0.031250 0.570312 -0.101525 227 202 190
0.035156 0.570312 -0.101162 231 205 184
0.039062 0.570312 -0.100816 232 211 199
0.042969 0.570312 -0.100325 215 203 205
0.046875 0.570312 -0.099709 119 151 215
0.050781 0.570312 -0.098943 70 129 226
0.054688 0.570312 -0.097947 66 128 225
0.058594 0.570312 -0.096830 74 137 233
0.062500 0.570312 -0.095367 68 132 228
0.066406 0.570312 -0.093679 72 134 228
0.070312 0.570312 -0.091815 81 143 235
0.074219 0.570312 -0.089958 80 142 228
0.078125 0.570312 -0.087974 75 135 217
0.082031 0.570312 -0.085950 86 144 224
0.085938 0.570312 -0.083805 107 164 237
0.089844 0.570312 -0.081557 96 148 215
0.093750 0.570312 -0.079594 101 148 208
0.097656 0.570312 -0.077572 100 139 186
0.101562 0.570312 -0.075705 91 127 174
0.105469 0.570312 -0.073647 84 118 165
0.109375 0.570312 -0.071184 80 114 164
0.113281 0.570312 -0.068036 77 112 165
0.117188 0.570312 -0.064384 71 102 152
0.121094 0.570312 -0.061575 74 93 139
0.125000 0.570312 -0.057490 53 60 105
0.128906 0.570312 -0.055401 41 45 90
0.132812 0.570312 -0.046585 110 154 207
-0.199219 0.566406 -0.039631 128 136 177
-0.195312 0.566406 -0.049421 128 139 174
-0.191406 0.566406 -0.053868 135 151 180
-0.187500 0.566406 -0.059474 134 156 190
-0.183594 0.566406 -0.063839 163 165 199
-0.179688 0.566406 -0.067559 131 134 163
-0.175781 0.566406 -0.070958 125 128 148
-0.171875 0.566406 -0.074036 149 156 173
-0.167969 0.566406 -0.077144 170 187 207
-0.164062 0.566406 -0.079867 168 192 217
-0.160156 0.566406 -0.082201 153 182 215
-0.156250 0.566406 -0.084295 122 156 194
-0.152344 0.566406 -0.086181 116 158 200
-0.148438 0.566406 -0.088118 124 169 218
-0.144531 0.566406 -0.089976 137 187 240
-0.140625 0.566406 -0.091975 141 195 250
-0.136719 0.566406 -0.094045 126 181 239
-0.132812 0.566406 -0.096110 129 187 246
-0.128906 0.566406 -0.098174 123 178 244
-0.125000 0.566406 -0.100195 121 177 245
-0.121094 0.566406 -0.102228 116 176 248
-0.117188 0.566406 -0.104199 114 171 239
-0.113281 0.566406 -0.106137 163 174 214
-0.109375 0.566406 -0.108048 229 198 204
-0.105469 0.566406 -0.109874 236 195 192
-0.101562 0.566406 -0.111580 225 190 196
-0.097656 0.566406 -0.113242 224 189 197
-0.093750 0.566406 -0.114680 221 190 200
-0.089844 0.566406 -0.115971 216 190 204
-0.085938 0.566406 -0.117043 211 189 209
-0.082031 0.566406 -0.117870 206 189 213
-0.078125 0.566406 -0.118469 200 189 218
-0.074219 0.566406 -0.118800 195 189 222
-0.070312 0.566406 -0.118881 189 188 226
-0.066406 0.566406 -0.118765 183 187 230
-0.062500 0.566406 -0.118517 177 187 233
-0.058594 0.566406 -0.118060 171 185 236
-0.054688 0.566406 -0.117486 165 184 238
-0.050781 0.566406 -0.116833 160 183 240
-0.046875 0.566406 -0.116123 156 181 241
-0.042969 0.566406 -0.115321 148 178 242
-0.039062 0.566406 -0.114468 130 168 241
-0.035156 0.566406 -0.113591 120 163 240
-0.031250 0.566406 -0.112674 111 159 238
-0.027344 0.566406 -0.111793 115 161 236
-0.023438 0.566406 -0.110898 119 163 234
-0.019531 0.566406 -0.110044 124 165 232
-0.015625 0.566406 -0.109231 130 167 230
-0.011719 0.566406 -0.108473 136 169 228
-0.007812 0.566406 -0.107769 143 171 226
-0.003906 0.566406 -0.107125 151 174 223
0.000000 0.566406 -0.106548 161 177 220
0.003906 0.566406 -0.106013 171 180 217
0.007812 0.566406 -0.105545 182 184 214
0.011719 0.566406 -0.105080 193 188 210
0.015625 0.566406 -0.104641 203 192 206
0.019531 0.566406 -0.104182 213 196 202
0.023438 0.566406 -0.103807 220 199 198
0.027344 0.566406 -0.103423 227 201 190
0.031250 0.566406 -0.103040 232 202 182
0.035156 0.566406 -0.102708 233 211 198
0.039062 0.566406 -0.102365 228 214 212
0.042969 0.566406 -0.101966 165 178 217
0.046875 0.566406 -0.101477 83 133 227
0.050781 0.566406 -0.100946 80 131 226
0.054688 0.566406 -0.100246 83 133 225
0.058594 0.566406 -0.099381 82 136 229
0.062500 0.566406 -0.098329 101 156 248
0.066406 0.566406 -0.097013 99 154 246
0.070312 0.566406 -0.095403 90 146 234
0.074219 0.566406 -0.093624 96 151 237
0.078125 0.566406 -0.091667 92 147 230
0.082031 0.566406 -0.089657 78 136 215
0.085938 0.566406 -0.087582 78 134 210
0.089844 0.566406 -0.085577 82 138 209
0.093750 0.566406 -0.083697 90 141 206
0.097656 0.566406 -0.081702 85 133 191
0.101562 0.566406 -0.079639 74 118 172
0.105469 0.566406 -0.077427 72 117 169
0.109375 0.566406 -0.075226 84 129 184
0.113281 0.566406 -0.073115 90 138 198
0.117188 0.566406 -0.070995 90 137 196
0.121094 0.566406 -0.068737 88 126 182
0.125000 0.566406 -0.065856 82 111 164
0.128906 0.566406 -0.062531 79 101 152
0.132812 0.566406 -0.059631 80 93 145
0.136719 0.566406 -0.055921 35 37 75
0.140625 0.566406 -0.042908 86 124 178
-0.203125 0.562500 -0.046359 144 154 179
-0.199219 0.562500 -0.050808 145 157 183
-0.195312 0.562500 -0.057331 111 146 187
-0.191406 0.562500 -0.061458 124 134 181
-0.187500 0.562500 -0.065569 132 139 175
-0.183594 0.562500 -0.069190 131 137 166
-0.179688 0.562500 -0.072469 134 141 165
-0.175781 0.562500 -0.075733 148 162 183
-0.171875 0.562500 -0.078516 161 183 209
-0.167969 0.562500 -0.081099 148 176 211
-0.164062 0.562500 -0.083396 120 157 198
-0.160156 0.562500 -0.085509 129 171 218
-0.156250 0.562500 -0.087607 110 156 208
-0.152344 0.562500 -0.089536 121 171 228
-0.148438 0.562500 -0.091465 130 185 246
-0.144531 0.562500 -0.093336 126 184 247
-0.140625 0.562500 -0.095240 111 170 235
-0.136719 0.562500 -0.097191 92 153 219
-0.132812 0.562500 -0.099193 106 165 235
-0.128906 0.562500 -0.101158 116 172 245
-0.125000 0.562500 -0.103060 108 163 237
-0.121094 0.562500 -0.104957 103 161 238
-0.117188 0.562500 -0.106782 110 170 248
-0.113281 0.562500 -0.108602 124 177 239
-0.109375 0.562500 -0.110342 175 168 201
-0.105469 0.562500 -0.111979 222 176 191
-0.101562 0.562500 -0.113507 234 188 186
-0.097656 0.562500 -0.114963 223 188 196
-0.093750 0.562500 -0.116250 214 187 204
-0.089844 0.562500 -0.117443 209 188 209
-0.085938 0.562500 -0.118450 202 188 215
-0.082031 0.562500 -0.119220 196 188 220
-0.078125 0.562500 -0.119761 190 187 225
-0.074219 0.562500 -0.120029 184 187 229
-0.070312 0.562500 -0.120056 178 187 233
-0.066406 0.562500 -0.119894 172 186 236
-0.062500 0.562500 -0.119598 166 185 238
-0.058594 0.562500 -0.119079 161 183 240
-0.054688 0.562500 -0.118442 157 182 241
-0.050781 0.562500 -0.117724 153 180 242
-0.046875 0.562500 -0.116946 149 179 243
-0.042969 0.562500 -0.116090 142 175 243
-0.039062 0.562500 -0.115194 124 165 243
-0.035156 0.562500 -0.114283 113 160 242
-0.031250 0.562500 -0.113349 104 155 240
-0.027344 0.562500 -0.112467 107 157 238
-0.023438 0.562500 -0.111602 111 159 237
-0.019531 0.562500 -0.110799 115 161 235
-0.015625 0.562500 -0.110059 119 163 233
-0.011719 0.562500 -0.109367 124 165 231
-0.007812 0.562500 -0.108722 130 167 229
-0.003906 0.562500 -0.108145 137 169 227
0.000000 0.562500 -0.107637 145 171 224
0.003906 0.562500 -0.107178 155 174 222
0.007812 0.562500 -0.106783 166 178 219
0.011719 0.562500 -0.106393 179 182 215
0.015625 0.562500 -0.105983 191 187 211
0.019531 0.562500 -0.105536 201 191 208
0.023438 0.562500 -0.105199 208 194 206
0.027344 0.562500 -0.104833 216 197 202
0.031250 0.562500 -0.104506 231 203 191
0.035156 0.562500 -0.104163 222 202 202
0.039062 0.562500 -0.103750 170 174 215
0.042969 0.562500 -0.103401 91 133 227
0.046875 0.562500 -0.102946 82 132 232
0.050781 0.562500 -0.102560 94 142 236
0.054688 0.562500 -0.102089 101 149 242
0.058594 0.562500 -0.101445 97 144 241
0.062500 0.562500 -0.100666 109 158 251
0.066406 0.562500 -0.099513 95 144 239
0.070312 0.562500 -0.098072 88 139 229
0.074219 0.562500 -0.096520 107 157 241
0.078125 0.562500 -0.094838 100 152 237
0.082031 0.562500 -0.093068 84 138 221
0.085938 0.562500 -0.091168 92 147 227
0.089844 0.562500 -0.089261 86 141 216
0.093750 0.562500 -0.087425 83 136 205
0.097656 0.562500 -0.085580 78 130 196
0.101562 0.562500 -0.083698 75 126 187
0.105469 0.562500 -0.081770 75 126 183
0.109375 0.562500 -0.079711 77 129 189
0.113281 0.562500 -0.077767 83 138 200
0.117188 0.562500 -0.075707 91 146 209
0.121094 0.562500 -0.073485 110 158 219
0.125000 0.562500 -0.071544 104 144 201
0.128906 0.562500 -0.068967 88 124 175
0.132812 0.562500 -0.065142 76 106 154
0.136719 0.562500 -0.061739 64 85 127
0.140625 0.562500 -0.057501 50 60 94
0.144531 0.562500 -0.055182 93 131 187
0.148438 0.562500 -0.040713 90 124 175
-0.210938 0.558594 -0.036005 144 155 178
-0.207031 0.558594 -0.048359 149 162 180
-0.203125 0.558594 -0.053389 68 84 120
-0.199219 0.558594 -0.058440 152 170 208
-0.195312 0.558594 -0.062895 149 162 202
-0.191406 0.558594 -0.066477 131 142 177
-0.187500 0.558594 -0.070025 126 138 167
-0.183594 0.558594 -0.073510 137 154 181
-0.179688 0.558594 -0.076687 143 167 198
-0.175781 0.558594 -0.079516 122 156 194
-0.171875 0.558594 -0.082003 111 153 199
-0.167969 0.558594 -0.084325 122 170 225
-0.164062 0.558594 -0.086596 131 185 246
-0.160156 0.558594 -0.088796 115 171 240
-0.156250 0.558594 -0.090964 102 162 233
-0.152344 0.558594 -0.092981 94 156 230
-0.148438 0.558594 -0.094884 100 162 238
-0.144531 0.558594 -0.096703 103 165 241
-0.140625 0.558594 -0.098541 100 161 238
-0.136719 0.558594 -0.100371 104 162 237
-0.132812 0.558594 -0.102251 110 167 243
-0.128906 0.558594 -0.104079 114 165 243
-0.125000 0.558594 -0.105857 120 168 246
-0.121094 0.558594 -0.107627 122 170 249
-0.117188 0.558594 -0.109319 120 171 246
-0.113281 0.558594 -0.111013 121 171 245
-0.109375 0.558594 -0.112585 130 170 236
-0.105469 0.558594 -0.114059 179 174 213
-0.101562 0.558594 -0.115428 228 190 203
-0.097656 0.558594 -0.116739 204 185 210
-0.093750 0.558594 -0.117868 200 185 214
-0.089844 0.558594 -0.118921 196 186 219
-0.085938 0.558594 -0.119804 190 187 224
-0.082031 0.558594 -0.120447 184 187 229
-0.078125 0.558594 -0.120915 179 187 233
-0.074219 0.558594 -0.121118 173 186 236
-0.070312 0.558594 -0.121073 167 185 238
-0.066406 0.558594 -0.120855 162 184 240
-0.062500 0.558594 -0.120514 157 183 241
-0.058594 0.558594 -0.119930 153 181 242
-0.054688 0.558594 -0.119216 149 180 243
-0.050781 0.558594 -0.118422 146 178 243
-0.046875 0.558594 -0.117566 143 176 244
-0.042969 0.558594 -0.116652 136 172 244
-0.039062 0.558594 -0.115713 119 162 244
-0.035156 0.558594 -0.114783 108 157 243
-0.031250 0.558594 -0.113848 99 152 242
-0.027344 0.558594 -0.112978 101 154 240
-0.023438 0.558594 -0.112157 104 156 239
-0.019531 0.558594 -0.111394 107 158 237
-0.015625 0.558594 -0.110708 110 160 235
-0.011719 0.558594 -0.110085 114 161 234
-0.007812 0.558594 -0.109510 118 162 232
-0.003906 0.558594 -0.109024 123 164 230
0.000000 0.558594 -0.108599 129 166 228
0.003906 0.558594 -0.108229 137 168 226
0.007812 0.558594 -0.107954 148 171 223
0.011719 0.558594 -0.107656 161 176 220
0.015625 0.558594 -0.107329 177 181 215
0.019531 0.558594 -0.106935 191 186 211
0.023438 0.558594 -0.106604 197 189 210
0.027344 0.558594 -0.106231 234 214 203
0.031250 0.558594 -0.105864 213 201 211
0.035156 0.558594 -0.105569 143 154 221
0.039062 0.558594 -0.105278 95 126 228
0.042969 0.558594 -0.105018 91 128 234
0.046875 0.558594 -0.104586 93 137 240
0.050781 0.558594 -0.104261 91 143 241
0.054688 0.558594 -0.103930 92 145 245
0.058594 0.558594 -0.103470 99 147 251
0.062500 0.558594 -0.102884 99 145 249
0.066406 0.558594 -0.101901 99 145 248
0.070312 0.558594 -0.100636 96 143 242
0.074219 0.558594 -0.099321 96 143 240
0.078125 0.558594 -0.097904 96 145 238
0.082031 0.558594 -0.096362 97 147 237
0.085938 0.558594 -0.094778 95 147 235
0.089844 0.558594 -0.093047 92 145 228
0.093750 0.558594 -0.091203 91 143 223
0.097656 0.558594 -0.089323 89 143 219
0.101562 0.558594 -0.087446 89 145 216
0.105469 0.558594 -0.085528 91 146 216
0.109375 0.558594 -0.083533 93 151 220
0.113281 0.558594 -0.081634 98 157 226
0.117188 0.558594 -0.079618 103 161 229
0.121094 0.558594 -0.077515 103 158 224
0.125000 0.558594 -0.075350 110 163 225
0.128906 0.558594 -0.073078 116 163 221
0.132812 0.558594 -0.070879 110 154 207
0.136719 0.558594 -0.068365 97 135 185
0.140625 0.558594 -0.064752 85 115 160
0.144531 0.558594 -0.060947 80 104 147
0.148438 0.558594 -0.056766 72 85 133
0.152344 0.558594 -0.050940 105 141 190
-0.214844 0.554688 -0.043045 137 148 168
-0.210938 0.554688 -0.048322 33 62 79
-0.207031 0.554688 -0.054790 109 129 163
-0.203125 0.554688 -0.059539 125 135 173
-0.199219 0.554688 -0.063545 128 136 177
-0.195312 0.554688 -0.067563 128 139 174
-0.191406 0.554688 -0.071251 135 151 180
-0.187500 0.554688 -0.074291 134 156 190
-0.183594 0.554688 -0.077149 136 165 201
-0.179688 0.554688 -0.079806 136 173 216
-0.175781 0.554688 -0.082311 126 171 222
-0.171875 0.554688 -0.084760 119 172 231
-0.167969 0.554688 -0.087067 116 174 242
-0.164062 0.554688 -0.089288 106 167 242
-0.160156 0.554688 -0.091499 104 169 250
-0.156250 0.554688 -0.093660 92 158 243
-0.152344 0.554688 -0.095700 82 148 233
-0.148438 0.554688 -0.097653 81 145 232
-0.144531 0.554688 -0.099515 85 147 231
-0.140625 0.554688 -0.101376 90 151 233
-0.136719 0.554688 -0.103188 99 156 238
-0.132812 0.554688 -0.104991 108 162 244
-0.128906 0.554688 -0.106729 116 162 244
-0.125000 0.554688 -0.108415 120 164 247
-0.121094 0.554688 -0.110068 125 167 248
-0.117188 0.554688 -0.111630 126 168 247
-0.113281 0.554688 -0.113186 125 167 245
-0.109375 0.554688 -0.114629 129 169 242
-0.105469 0.554688 -0.115993 140 174 239
-0.101562 0.554688 -0.117235 168 176 221
-0.097656 0.554688 -0.118422 220 184 201
-0.093750 0.554688 -0.119425 199 184 215
-0.089844 0.554688 -0.120323 184 186 227
-0.085938 0.554688 -0.121072 179 187 232
-0.082031 0.554688 -0.121599 174 186 236
-0.078125 0.554688 -0.121980 168 186 239
-0.074219 0.554688 -0.122117 163 185 241
-0.070312 0.554688 -0.122024 158 184 242
-0.066406 0.554688 -0.121766 154 182 243
-0.062500 0.554688 -0.121371 150 181 243
-0.058594 0.554688 -0.120734 147 179 244
-0.054688 0.554688 -0.119964 144 177 244
-0.050781 0.554688 -0.119101 141 176 245
-0.046875 0.554688 -0.118174 138 174 244
-0.042969 0.554688 -0.117211 131 170 245
-0.039062 0.554688 -0.116243 114 159 245
-0.035156 0.554688 -0.115292 103 153 244
-0.031250 0.554688 -0.114349 94 149 243
-0.027344 0.554688 -0.113494 96 151 242
-0.023438 0.554688 -0.112698 99 153 241
-0.019531 0.554688 -0.111954 101 155 239
-0.015625 0.554688 -0.111318 104 157 237
-0.011719 0.554688 -0.110756 106 158 236
-0.007812 0.554688 -0.110245 109 159 234
-0.003906 0.554688 -0.109856 112 160 232
0.000000 0.554688 -0.109538 116 161 231
0.003906 0.554688 -0.109274 121 163 229
0.007812 0.554688 -0.109066 127 164 228
0.011719 0.554688 -0.108805 138 167 226
0.015625 0.554688 -0.108555 155 171 222
0.019531 0.554688 -0.108264 188 184 211
0.023438 0.554688 -0.108086 221 199 195
0.027344 0.554688 -0.107750 184 177 207
0.031250 0.554688 -0.107294 123 141 233
0.035156 0.554688 -0.107065 105 129 238
0.039062 0.554688 -0.106841 103 129 238
0.042969 0.554688 -0.106588 101 136 239
0.046875 0.554688 -0.106213 97 140 241
0.050781 0.554688 -0.105914 91 145 244
0.054688 0.554688 -0.105634 90 144 245
0.058594 0.554688 -0.105277 91 139 245
0.062500 0.554688 -0.104784 94 139 248
0.066406 0.554688 -0.103974 95 139 247
0.070312 0.554688 -0.102885 96 142 244
0.074219 0.554688 -0.101714 98 144 243
0.078125 0.554688 -0.100432 99 146 242
0.082031 0.554688 -0.098945 100 148 242
0.085938 0.554688 -0.097415 98 149 240
0.089844 0.554688 -0.095723 101 151 239
0.093750 0.554688 -0.093933 99 151 237
0.097656 0.554688 -0.092117 99 152 234
0.101562 0.554688 -0.090295 98 152 232
0.105469 0.554688 -0.088414 99 155 230
0.109375 0.554688 -0.086492 101 159 232
0.113281 0.554688 -0.084640 105 163 236
0.117188 0.554688 -0.082634 106 164 236
0.121094 0.554688 -0.080735 101 159 229
0.125000 0.554688 -0.078678 101 158 225
0.128906 0.554688 -0.076562 100 153 217
0.132812 0.554688 -0.074071 96 144 206
0.136719 0.554688 -0.071330 91 133 192
0.140625 0.554688 -0.068630 86 124 178
0.144531 0.554688 -0.065173 86 118 169
0.148438 0.554688 -0.059784 82 109 158
0.152344 0.554688 -0.055542 59 75 123
0.156250 0.554688 -0.051592 94 135 192
0.160156 0.554688 -0.031811 93 129 180
-0.218750 0.550781 -0.045663 119 130 147
-0.214844 0.550781 -0.051098 19 27 46
-0.210938 0.550781 -0.056357 137 155 186
-0.207031 0.550781 -0.060656 160 172 198
-0.203125 0.550781 -0.064508 144 154 179
-0.199219 0.550781 -0.068395 145 157 183
-0.195312 0.550781 -0.072103 156 175 203
-0.191406 0.550781 -0.075312 152 179 213
-0.187500 0.550781 -0.078093 132 165 206
-0.183594 0.550781 -0.080601 118 157 202
-0.179688 0.550781 -0.083020 119 163 215
-0.175781 0.550781 -0.085337 121 170 230
-0.171875 0.550781 -0.087690 121 174 243
-0.167969 0.550781 -0.089960 110 168 244
-0.164062 0.550781 -0.092126 91 153 235
-0.160156 0.550781 -0.094284 87 151 237
-0.156250 0.550781 -0.096401 89 154 243
-0.152344 0.550781 -0.098420 91 155 244
-0.148438 0.550781 -0.100365 90 154 243
-0.144531 0.550781 -0.102252 96 156 243
-0.140625 0.550781 -0.104111 102 159 245
-0.136719 0.550781 -0.105894 101 156 241
-0.132812 0.550781 -0.107645 100 151 235
-0.128906 0.550781 -0.109315 113 156 243
-0.125000 0.550781 -0.110910 119 159 247
-0.121094 0.550781 -0.112447 125 165 251
-0.117188 0.550781 -0.113887 128 168 252
-0.113281 0.550781 -0.115327 129 169 251
-0.109375 0.550781 -0.116637 133 173 252
-0.105469 0.550781 -0.117854 141 180 251
-0.101562 0.550781 -0.118944 148 184 249
-0.097656 0.550781 -0.119967 162 185 237
-0.093750 0.550781 -0.120866 169 185 237
-0.089844 0.550781 -0.121669 167 187 241
-0.085938 0.550781 -0.122311 166 188 242
-0.082031 0.550781 -0.122765 162 187 243
-0.078125 0.550781 -0.123047 158 185 244
-0.074219 0.550781 -0.123104 154 184 244
-0.070312 0.550781 -0.122955 150 182 244
-0.066406 0.550781 -0.122628 147 180 244
-0.062500 0.550781 -0.122165 144 178 244
-0.058594 0.550781 -0.121459 141 177 244
-0.054688 0.550781 -0.120631 139 175 244
-0.050781 0.550781 -0.119715 136 173 244
-0.046875 0.550781 -0.118738 133 171 246
-0.042969 0.550781 -0.117728 126 167 245
-0.039062 0.550781 -0.116714 109 156 245
-0.035156 0.550781 -0.115715 98 150 246
-0.031250 0.550781 -0.114732 90 146 245
-0.027344 0.550781 -0.113856 92 148 243
-0.023438 0.550781 -0.113059 95 151 242
-0.019531 0.550781 -0.112342 97 153 241
-0.015625 0.550781 -0.111768 99 154 239
-0.011719 0.550781 -0.111240 101 156 238
-0.007812 0.550781 -0.110756 102 157 236
-0.003906 0.550781 -0.110419 104 157 234
0.000000 0.550781 -0.110184 106 158 233
0.003906 0.550781 -0.110015 108 159 232
0.007812 0.550781 -0.109894 110 159 231
0.011719 0.550781 -0.109689 111 158 232
0.015625 0.550781 -0.109471 115 157 233
0.019531 0.550781 -0.109203 134 163 229
0.023438 0.550781 -0.108962 124 153 222
0.027344 0.550781 -0.108722 112 147 245
0.031250 0.550781 -0.108493 110 143 251
0.035156 0.550781 -0.108370 113 141 249
0.039062 0.550781 -0.108152 114 142 248
0.042969 0.550781 -0.107937 111 146 249
0.046875 0.550781 -0.107727 105 149 247
0.050781 0.550781 -0.107576 96 149 247
0.054688 0.550781 -0.107409 92 147 245
0.058594 0.550781 -0.107194 97 145 248
0.062500 0.550781 -0.106832 100 143 247
0.066406 0.550781 -0.106227 99 144 245
0.070312 0.550781 -0.105292 100 145 243
0.074219 0.550781 -0.104166 101 145 243
0.078125 0.550781 -0.102898 99 146 242
0.082031 0.550781 -0.101436 100 147 241
0.085938 0.550781 -0.099913 98 148 240
0.089844 0.550781 -0.098272 104 155 243
0.093750 0.550781 -0.096604 103 155 242
0.097656 0.550781 -0.094837 100 154 237
0.101562 0.550781 -0.092987 98 152 234
0.105469 0.550781 -0.091109 97 151 232
0.109375 0.550781 -0.089260 97 152 231
0.113281 0.550781 -0.087502 97 152 231
