ply
    format ascii 1.0
    element vertex 53526
    property float x
    property float y
    property float z
    property uchar red
    property uchar green
    property uchar blue
    end_header
0.011719 0.500000 0.103418 174 93 81
0.015625 0.500000 0.108244 193 109 95
0.019531 0.500000 0.112089 223 146 130
0.023438 0.500000 0.113825 230 151 136
0.027344 0.500000 0.114480 229 140 122
0.031250 0.500000 0.114654 232 146 127
0.035156 0.500000 0.113530 234 158 140
0.039062 0.500000 0.109786 233 159 144
0.042969 0.500000 0.105347 231 159 146
0.046875 0.500000 0.100613 229 160 148
0.050781 0.500000 0.097101 228 160 146
0.054688 0.500000 0.095985 227 161 146
0.058594 0.500000 0.095087 224 156 140
0.062500 0.500000 0.094027 224 158 141
0.066406 0.500000 0.092517 229 166 147
0.070312 0.500000 0.090572 232 170 149
0.074219 0.500000 0.088398 232 169 146
0.078125 0.500000 0.086332 230 164 140
0.082031 0.500000 0.083771 229 164 139
0.085938 0.500000 0.079717 223 155 130
0.089844 0.500000 0.075098 214 145 119
0.093750 0.500000 0.070077 202 131 107
0.097656 0.500000 0.062651 186 109 89
0.101562 0.500000 0.052133 184 104 82
0.105469 0.500000 0.009183 186 107 83
-0.042969 0.496094 0.008308 129 67 47
-0.039062 0.496094 0.037698 143 80 59
-0.035156 0.496094 0.059154 156 89 69
-0.031250 0.496094 0.072479 176 104 86
-0.027344 0.496094 0.080693 191 115 100
-0.023438 0.496094 0.086378 205 129 114
-0.019531 0.496094 0.090817 216 139 124
-0.015625 0.496094 0.093987 221 145 130
-0.011719 0.496094 0.095961 221 144 128
-0.007812 0.496094 0.096149 218 141 126
-0.003906 0.496094 0.095642 203 128 110
0.000000 0.496094 0.095257 173 96 83
0.003906 0.496094 0.096389 158 83 72
0.007812 0.496094 0.100038 168 90 78
0.011719 0.496094 0.104440 177 94 83
0.015625 0.496094 0.109294 201 117 102
0.019531 0.496094 0.112933 227 149 133
0.023438 0.496094 0.114321 231 148 133
0.027344 0.496094 0.114745 226 129 113
0.031250 0.496094 0.114916 225 129 112
0.035156 0.496094 0.114055 228 143 126
0.039062 0.496094 0.110597 229 151 137
0.042969 0.496094 0.106346 232 161 147
0.046875 0.496094 0.101842 231 161 149
0.050781 0.496094 0.098557 230 156 144
0.054688 0.496094 0.097513 234 164 151
0.058594 0.496094 0.096585 235 169 153
0.062500 0.496094 0.095505 237 174 157
0.066406 0.496094 0.093854 239 180 162
0.070312 0.496094 0.091682 239 178 159
0.074219 0.496094 0.089474 237 174 153
0.078125 0.496094 0.087222 234 167 144
0.082031 0.496094 0.084124 228 161 137
0.085938 0.496094 0.079176 220 148 124
0.089844 0.496094 0.073122 211 139 114
0.093750 0.496094 0.066128 198 126 103
0.097656 0.496094 0.057546 183 107 87
0.101562 0.496094 0.051710 194 116 92
0.105469 0.496094 0.024000 207 134 105
-0.042969 0.492188 0.002704 122 61 42
-0.039062 0.492188 0.032913 144 79 57
-0.035156 0.492188 0.056743 156 89 67
-0.031250 0.492188 0.069394 171 100 80
-0.027344 0.492188 0.077987 179 104 89
-0.023438 0.492188 0.084519 193 116 101
-0.019531 0.492188 0.089701 207 128 114
-0.015625 0.492188 0.093387 211 132 118
-0.011719 0.492188 0.095469 212 133 117
-0.007812 0.492188 0.095415 206 128 112
-0.003906 0.492188 0.094652 180 102 88
0.000000 0.492188 0.094458 156 82 71
0.003906 0.492188 0.096153 168 91 78
0.007812 0.492188 0.100205 180 101 88
0.011719 0.492188 0.104785 185 104 92
0.015625 0.492188 0.109585 207 128 113
0.019531 0.492188 0.113061 228 155 139
0.023438 0.492188 0.114262 231 152 137
0.027344 0.492188 0.114563 225 132 117
0.031250 0.492188 0.114722 221 127 111
0.035156 0.492188 0.113843 219 129 116
0.039062 0.492188 0.110190 215 126 116
0.042969 0.492188 0.106069 225 145 133
0.046875 0.492188 0.102228 231 162 148
0.050781 0.492188 0.099616 230 156 145
0.054688 0.492188 0.098775 235 163 151
0.058594 0.492188 0.097797 240 174 160
0.062500 0.492188 0.096806 241 179 164
0.066406 0.492188 0.095097 242 184 167
0.070312 0.492188 0.092693 241 180 162
0.074219 0.492188 0.090296 238 171 151
0.078125 0.492188 0.087730 233 162 140
0.082031 0.492188 0.084189 226 155 132
0.085938 0.492188 0.078322 217 143 120
0.089844 0.492188 0.070360 204 130 106
0.093750 0.492188 0.061459 189 117 95
0.097656 0.492188 0.052346 191 116 95
0.101562 0.492188 0.047098 215 144 116
0.105469 0.492188 0.029369 214 142 114
-0.042969 0.488281 -0.001679 109 52 34
-0.039062 0.488281 0.028283 145 80 53
-0.035156 0.488281 0.053611 149 84 59
-0.031250 0.488281 0.065203 159 91 68
-0.027344 0.488281 0.074376 169 96 78
-0.023438 0.488281 0.081842 182 106 89
-0.019531 0.488281 0.087728 197 120 105
-0.015625 0.488281 0.091893 201 123 108
-0.011719 0.488281 0.094065 199 120 104
-0.007812 0.488281 0.093854 185 105 92
-0.003906 0.488281 0.093022 151 77 67
0.000000 0.488281 0.093152 140 69 59
0.003906 0.488281 0.095219 156 79 67
0.007812 0.488281 0.099276 164 86 75
0.011719 0.488281 0.103836 177 100 88
0.015625 0.488281 0.108575 201 126 112
0.019531 0.488281 0.111996 219 146 131
0.023438 0.488281 0.113198 224 149 134
0.027344 0.488281 0.113531 223 140 125
0.031250 0.488281 0.114020 223 141 125
0.035156 0.488281 0.113204 218 138 123
0.039062 0.488281 0.109091 197 108 98
0.042969 0.488281 0.104757 198 110 100
0.046875 0.488281 0.101539 219 143 131
0.050781 0.488281 0.099901 227 154 144
0.054688 0.488281 0.099753 233 161 150
0.058594 0.488281 0.098999 240 172 160
0.062500 0.488281 0.098206 242 179 164
0.066406 0.488281 0.096602 243 182 166
0.070312 0.488281 0.094011 242 177 159
0.074219 0.488281 0.091253 237 164 144
0.078125 0.488281 0.088275 230 152 131
0.082031 0.488281 0.084215 222 146 123
0.085938 0.488281 0.077284 211 136 113
0.089844 0.488281 0.067322 195 119 96
0.093750 0.488281 0.055853 183 114 90
0.097656 0.488281 0.046155 202 133 108
0.101562 0.488281 0.041383 224 158 133
0.105469 0.488281 0.030412 200 120 99
-0.042969 0.484375 -0.005860 94 45 26
-0.039062 0.484375 0.023113 150 86 53
-0.035156 0.484375 0.050156 141 80 53
-0.031250 0.484375 0.061083 142 77 56
-0.027344 0.484375 0.070030 159 88 70
-0.023438 0.484375 0.078122 170 96 78
-0.019531 0.484375 0.084484 186 110 93
-0.015625 0.484375 0.089027 185 109 93
-0.011719 0.484375 0.091332 172 96 81
-0.007812 0.484375 0.091328 150 78 68
-0.003906 0.484375 0.090927 127 62 54
0.000000 0.484375 0.091422 123 58 50
0.003906 0.484375 0.093301 116 53 46
0.007812 0.484375 0.096725 118 54 48
0.011719 0.484375 0.100796 149 75 68
0.015625 0.484375 0.105191 181 102 92
0.019531 0.484375 0.108404 201 121 109
0.023438 0.484375 0.109403 213 134 119
0.027344 0.484375 0.109737 217 134 118
0.031250 0.484375 0.110678 222 143 125
0.035156 0.484375 0.110409 223 153 133
0.039062 0.484375 0.106573 198 116 102
0.042969 0.484375 0.102379 174 88 80
0.046875 0.484375 0.099635 200 116 107
0.050781 0.484375 0.098845 221 147 137
0.054688 0.484375 0.099763 231 157 147
0.058594 0.484375 0.099637 238 165 153
0.062500 0.484375 0.099066 241 172 158
0.066406 0.484375 0.097543 243 175 159
0.070312 0.484375 0.094750 240 168 150
0.074219 0.484375 0.091676 234 154 135
0.078125 0.484375 0.088456 227 145 124
0.082031 0.484375 0.083817 216 136 114
0.085938 0.484375 0.075813 204 128 104
0.089844 0.484375 0.064649 192 119 94
0.093750 0.484375 0.051670 192 126 98
0.097656 0.484375 0.040260 204 141 115
0.101562 0.484375 0.029551 211 140 115
-0.042969 0.480469 -0.007731 87 41 21
-0.039062 0.480469 0.018113 159 91 53
-0.035156 0.480469 0.046120 153 89 59
-0.031250 0.480469 0.057213 132 69 50
-0.027344 0.480469 0.065702 147 79 61
-0.023438 0.480469 0.073838 155 83 65
-0.019531 0.480469 0.080505 169 93 75
-0.015625 0.480469 0.085219 163 88 74
-0.011719 0.480469 0.087767 143 75 63
-0.007812 0.480469 0.088448 131 67 57
-0.003906 0.480469 0.088971 129 66 57
0.000000 0.480469 0.089968 130 66 57
0.003906 0.480469 0.091469 109 52 46
0.007812 0.480469 0.093903 104 48 43
0.011719 0.480469 0.096942 129 61 54
0.015625 0.480469 0.100373 154 76 67
0.019531 0.480469 0.102812 172 88 77
0.023438 0.480469 0.103609 179 89 78
0.027344 0.480469 0.103970 171 78 69
0.031250 0.480469 0.104938 173 81 71
0.035156 0.480469 0.105353 197 110 94
0.039062 0.480469 0.102699 193 109 95
0.042969 0.480469 0.099305 164 81 72
0.046875 0.480469 0.096890 176 93 83
0.050781 0.480469 0.096555 208 129 118
0.054688 0.480469 0.098335 223 145 134
0.058594 0.480469 0.098814 230 147 136
0.062500 0.480469 0.098419 235 152 140
0.066406 0.480469 0.097044 238 156 141
0.070312 0.480469 0.094277 236 151 134
0.074219 0.480469 0.091141 230 145 125
0.078125 0.480469 0.087391 224 141 119
0.082031 0.480469 0.082152 212 131 107
0.085938 0.480469 0.073792 198 123 98
0.089844 0.480469 0.062247 192 117 92
0.093750 0.480469 0.043152 182 106 81
0.097656 0.480469 0.012245 162 91 73
-0.039062 0.476562 0.011968 143 76 40
-0.035156 0.476562 0.040591 166 99 65
-0.031250 0.476562 0.053394 131 69 49
-0.027344 0.476562 0.061909 138 73 55
-0.023438 0.476562 0.069447 142 74 56
-0.019531 0.476562 0.076178 146 76 59
-0.015625 0.476562 0.081113 143 74 60
-0.011719 0.476562 0.084331 131 67 55
-0.007812 0.476562 0.086057 128 66 56
-0.003906 0.476562 0.087442 133 71 60
0.000000 0.476562 0.088888 136 72 62
0.003906 0.476562 0.090308 126 64 55
0.007812 0.476562 0.092052 124 62 53
0.011719 0.476562 0.094156 125 61 52
0.015625 0.476562 0.096620 123 57 50
0.019531 0.476562 0.098413 129 58 51
0.023438 0.476562 0.099358 133 58 50
0.027344 0.476562 0.100053 122 50 44
0.031250 0.476562 0.100944 115 47 41
0.035156 0.476562 0.101495 151 69 58
0.039062 0.476562 0.099720 181 97 81
0.042969 0.476562 0.096956 160 82 69
0.046875 0.476562 0.094140 149 73 65
0.050781 0.476562 0.093483 182 100 91
0.054688 0.476562 0.095554 210 128 116
0.058594 0.476562 0.096463 220 133 122
0.062500 0.476562 0.096251 226 135 122
0.066406 0.476562 0.095052 230 139 124
0.070312 0.476562 0.092430 229 138 121
0.074219 0.476562 0.089253 224 136 117
0.078125 0.476562 0.085134 217 132 110
0.082031 0.476562 0.079706 204 122 98
0.085938 0.476562 0.070261 200 124 101
0.089844 0.476562 0.054560 190 110 88
0.093750 0.476562 0.026889 140 65 50
-0.039062 0.472656 0.004301 116 60 35
-0.035156 0.472656 0.033463 176 109 77
-0.031250 0.472656 0.049624 139 74 55
-0.027344 0.472656 0.058701 135 71 53
-0.023438 0.472656 0.065826 141 75 56
-0.019531 0.472656 0.072410 138 73 55
-0.015625 0.472656 0.077137 143 76 58
-0.011719 0.472656 0.080744 140 74 57
-0.007812 0.472656 0.083290 136 71 57
-0.003906 0.472656 0.085478 136 73 61
0.000000 0.472656 0.087526 135 72 60
0.003906 0.472656 0.089255 134 69 58
0.007812 0.472656 0.091012 136 68 58
0.011719 0.472656 0.092966 129 62 54
0.015625 0.472656 0.095232 123 57 51
0.019531 0.472656 0.097146 133 62 56
0.023438 0.472656 0.098562 157 77 68
0.027344 0.472656 0.099487 174 92 79
0.031250 0.472656 0.100478 171 89 74
0.035156 0.472656 0.100659 183 100 81
0.039062 0.472656 0.098904 198 117 96
0.042969 0.472656 0.096130 176 97 79
0.046875 0.472656 0.092484 140 68 60
0.050781 0.472656 0.090718 153 77 69
0.054688 0.472656 0.092273 191 108 96
0.058594 0.472656 0.093367 207 122 110
0.062500 0.472656 0.093364 214 126 112
0.066406 0.472656 0.092319 219 129 114
0.070312 0.472656 0.089853 218 127 111
0.074219 0.472656 0.086596 213 124 106
0.078125 0.472656 0.082036 205 119 98
0.082031 0.472656 0.076702 201 120 97
0.085938 0.472656 0.064937 205 127 105
0.089844 0.472656 0.039612 170 86 70
-0.039062 0.468750 -0.008371 84 43 29
-0.035156 0.468750 0.025047 182 115 86
-0.031250 0.468750 0.046523 150 82 62
-0.027344 0.468750 0.056318 133 69 53
-0.023438 0.468750 0.063127 151 83 63
-0.019531 0.468750 0.069243 148 82 61
-0.015625 0.468750 0.073127 151 82 62
-0.011719 0.468750 0.076272 141 72 54
-0.007812 0.468750 0.078977 139 68 54
-0.003906 0.468750 0.081921 151 79 64
0.000000 0.468750 0.085006 153 82 66
0.003906 0.468750 0.087366 147 74 62
0.007812 0.468750 0.089429 144 70 61
0.011719 0.468750 0.091737 146 72 63
0.015625 0.468750 0.094337 154 78 69
0.019531 0.468750 0.096535 164 84 75
0.023438 0.468750 0.098349 183 102 90
0.027344 0.468750 0.099640 203 124 108
0.031250 0.468750 0.100830 206 128 107
0.035156 0.468750 0.100817 205 126 103
0.039062 0.468750 0.099049 203 125 102
0.042969 0.468750 0.096245 186 108 88
0.046875 0.468750 0.092195 146 74 64
0.050781 0.468750 0.089181 133 64 57
0.054688 0.468750 0.089383 165 86 74
0.058594 0.468750 0.089916 189 104 91
0.062500 0.468750 0.089868 199 113 98
0.066406 0.468750 0.088846 206 118 102
0.070312 0.468750 0.086469 204 115 98
0.074219 0.468750 0.083271 199 110 93
0.078125 0.468750 0.078423 197 112 90
0.082031 0.468750 0.072013 205 129 101
0.085938 0.468750 0.059264 198 122 92
0.089844 0.468750 0.031990 121 53 38
-0.035156 0.464844 0.016344 146 87 61
-0.031250 0.464844 0.043472 147 84 61
-0.027344 0.464844 0.053658 129 68 50
-0.023438 0.464844 0.060143 161 93 70
-0.019531 0.464844 0.066139 163 94 71
-0.015625 0.464844 0.069520 152 81 61
-0.011719 0.464844 0.071908 119 54 42
-0.007812 0.464844 0.073774 101 41 32
-0.003906 0.464844 0.076673 125 52 40
0.000000 0.464844 0.080629 148 68 54
0.003906 0.464844 0.083740 144 66 55
0.007812 0.464844 0.086095 145 65 56
0.011719 0.464844 0.088734 167 83 71
0.015625 0.464844 0.091754 185 98 85
0.019531 0.464844 0.094197 187 101 87
0.023438 0.464844 0.096109 190 107 92
0.027344 0.464844 0.097702 201 120 103
0.031250 0.464844 0.098976 206 128 107
0.035156 0.464844 0.098891 205 127 103
0.039062 0.464844 0.097607 199 122 100
0.042969 0.464844 0.095579 191 117 97
0.046875 0.464844 0.092080 163 91 77
0.050781 0.464844 0.088538 127 63 54
0.054688 0.464844 0.087240 141 68 56
0.058594 0.464844 0.086801 171 88 72
0.062500 0.464844 0.086428 185 100 84
0.066406 0.464844 0.085185 190 104 88
0.070312 0.464844 0.082892 189 102 86
0.074219 0.464844 0.079566 185 100 81
0.078125 0.464844 0.074864 186 104 82
0.082031 0.464844 0.067691 204 132 98
0.085938 0.464844 0.056413 203 133 87
0.089844 0.464844 0.032972 162 85 44
-0.035156 0.460938 0.008145 104 65 46
-0.031250 0.460938 0.040098 142 83 58
-0.027344 0.460938 0.051045 123 65 47
-0.023438 0.460938 0.057609 160 93 68
-0.019531 0.460938 0.063700 170 99 76
-0.015625 0.460938 0.066790 156 83 63
-0.011719 0.460938 0.068951 118 54 42
-0.007812 0.460938 0.069875 74 29 23
-0.003906 0.460938 0.071808 74 26 21
0.000000 0.460938 0.075820 113 45 36
0.003906 0.460938 0.079388 123 50 43
0.007812 0.460938 0.081940 117 45 40
0.011719 0.460938 0.084482 145 60 53
0.015625 0.460938 0.087352 170 75 65
0.019531 0.460938 0.089725 185 87 75
0.023438 0.460938 0.091512 197 102 89
0.027344 0.460938 0.093024 205 113 98
0.031250 0.460938 0.094192 210 123 104
0.035156 0.460938 0.094535 210 127 106
0.039062 0.460938 0.094029 209 128 109
0.042969 0.460938 0.092937 207 134 113
0.046875 0.460938 0.090527 186 117 96
0.050781 0.460938 0.087321 136 74 61
0.054688 0.460938 0.085033 120 59 48
0.058594 0.460938 0.083635 152 75 61
0.062500 0.460938 0.082937 171 91 74
0.066406 0.460938 0.081651 173 92 75
0.070312 0.460938 0.079525 177 95 78
0.074219 0.460938 0.076269 173 91 74
0.078125 0.460938 0.071611 177 96 75
0.082031 0.460938 0.063519 204 131 98
0.085938 0.460938 0.052759 203 132 84
0.089844 0.460938 0.014263 195 126 65
-0.035156 0.457031 -0.001016 102 61 42
-0.031250 0.457031 0.036234 151 88 59
-0.027344 0.457031 0.047781 122 63 45
-0.023438 0.457031 0.054228 149 84 62
-0.019531 0.457031 0.060777 169 99 77
-0.015625 0.457031 0.064316 161 88 69
-0.011719 0.457031 0.066990 147 75 60
-0.007812 0.457031 0.067878 102 44 37
-0.003906 0.457031 0.068977 70 27 23
0.000000 0.457031 0.072215 104 43 36
0.003906 0.457031 0.075727 132 59 50
0.007812 0.457031 0.078483 124 53 46
0.011719 0.457031 0.080797 130 55 49
0.015625 0.457031 0.083079 131 50 45
0.019531 0.457031 0.084930 149 57 50
0.023438 0.457031 0.086193 171 69 63
0.027344 0.457031 0.087202 168 66 61
0.031250 0.457031 0.088037 171 70 63
0.035156 0.457031 0.088638 182 83 74
0.039062 0.457031 0.088154 186 89 79
0.042969 0.457031 0.087310 184 97 81
0.046875 0.457031 0.086160 174 101 82
0.050781 0.457031 0.084105 141 81 66
0.054688 0.457031 0.081993 118 61 50
0.058594 0.457031 0.080272 138 69 56
0.062500 0.457031 0.079383 157 82 66
0.066406 0.457031 0.078103 165 87 70
0.070312 0.457031 0.075372 176 97 77
0.074219 0.457031 0.071958 170 91 73
0.078125 0.457031 0.066475 182 106 83
0.082031 0.457031 0.058163 202 134 102
0.085938 0.457031 0.046336 155 87 61
-0.031250 0.453125 0.025893 157 86 53
-0.027344 0.453125 0.043120 133 70 47
-0.023438 0.453125 0.050560 146 81 59
-0.019531 0.453125 0.058229 169 101 79
-0.015625 0.453125 0.062534 165 93 74
-0.011719 0.453125 0.065482 168 93 75
-0.007812 0.453125 0.066630 148 71 58
-0.003906 0.453125 0.067357 104 42 36
0.000000 0.453125 0.069549 118 51 42
0.003906 0.453125 0.072630 152 73 61
0.007812 0.453125 0.075888 172 92 77
0.011719 0.453125 0.078694 183 106 90
0.015625 0.453125 0.080992 164 85 74
0.019531 0.453125 0.082531 163 78 70
0.023438 0.453125 0.083119 169 80 74
0.027344 0.453125 0.083392 145 59 57
0.031250 0.453125 0.083727 144 57 54
0.035156 0.453125 0.083695 153 64 61
0.039062 0.453125 0.082130 120 45 43
0.042969 0.453125 0.080773 91 33 30
0.046875 0.453125 0.080601 114 52 46
0.050781 0.453125 0.080002 139 75 64
0.054688 0.453125 0.078855 138 73 59
0.058594 0.453125 0.077495 147 78 60
0.062500 0.453125 0.076541 156 83 65
0.066406 0.453125 0.075041 168 92 72
0.070312 0.453125 0.072378 178 103 79
0.074219 0.453125 0.068831 173 98 76
0.078125 0.453125 0.061656 196 127 100
0.082031 0.453125 0.051972 191 124 97
-0.031250 0.449219 0.010166 140 72 44
-0.027344 0.449219 0.037408 141 76 51
-0.023438 0.449219 0.046322 143 81 59
-0.019531 0.449219 0.055050 164 99 77
-0.015625 0.449219 0.060160 165 95 76
-0.011719 0.449219 0.063049 175 100 81
-0.007812 0.449219 0.064668 171 88 72
-0.003906 0.449219 0.065553 142 61 50
0.000000 0.449219 0.066940 137 57 47
0.003906 0.449219 0.069557 148 64 54
0.007812 0.449219 0.073130 173 86 73
0.011719 0.449219 0.076607 199 120 105
0.015625 0.449219 0.079592 196 118 107
0.019531 0.449219 0.081517 200 123 112
0.023438 0.449219 0.082050 206 131 121
0.027344 0.449219 0.082179 192 110 102
0.031250 0.449219 0.082429 191 104 95
0.035156 0.449219 0.081829 181 93 86
0.039062 0.449219 0.079591 114 47 45
0.042969 0.449219 0.077791 75 30 29
0.046875 0.449219 0.077611 119 57 52
0.050781 0.449219 0.077448 164 92 78
0.054688 0.449219 0.076593 163 92 72
0.058594 0.449219 0.075293 165 94 72
0.062500 0.449219 0.074206 165 93 72
0.066406 0.449219 0.072201 170 96 74
0.070312 0.449219 0.069863 177 104 78
0.074219 0.449219 0.066626 183 110 84
0.078125 0.449219 0.059927 208 139 112
0.082031 0.449219 0.033527 168 94 76
-0.031250 0.445312 -0.010196 115 61 37
-0.027344 0.445312 0.024863 138 78 52
-0.023438 0.445312 0.041273 139 79 58
-0.019531 0.445312 0.050435 153 91 70
-0.015625 0.445312 0.057312 158 91 72
-0.011719 0.445312 0.060432 172 98 80
-0.007812 0.445312 0.062089 171 91 76
-0.003906 0.445312 0.063166 157 72 60
0.000000 0.445312 0.064225 157 66 56
0.003906 0.445312 0.066522 154 60 53
0.007812 0.445312 0.069892 162 66 59
0.011719 0.445312 0.073375 183 85 78
0.015625 0.445312 0.076761 182 87 82
0.019531 0.445312 0.079033 186 93 88
0.023438 0.445312 0.079766 195 105 100
0.027344 0.445312 0.080114 187 95 89
0.031250 0.445312 0.080645 181 87 80
0.035156 0.445312 0.080464 171 80 74
0.039062 0.445312 0.079034 144 64 61
0.042969 0.445312 0.077891 147 71 66
0.046875 0.445312 0.077351 184 109 94
0.050781 0.445312 0.076487 188 116 94
0.054688 0.445312 0.075139 170 98 76
0.058594 0.445312 0.073638 174 101 79
0.062500 0.445312 0.072683 169 97 76
0.066406 0.445312 0.070541 165 92 71
0.070312 0.445312 0.067688 174 100 75
0.074219 0.445312 0.064622 185 115 88
0.078125 0.445312 0.055680 184 113 92
-0.027344 0.441406 0.002937 138 78 51
-0.023438 0.441406 0.031732 138 79 55
-0.019531 0.441406 0.045677 149 88 67
-0.015625 0.441406 0.054113 154 89 70
-0.011719 0.441406 0.057877 169 99 81
-0.007812 0.441406 0.059357 169 94 79
-0.003906 0.441406 0.060504 160 79 68
0.000000 0.441406 0.061780 166 76 67
0.003906 0.441406 0.063910 168 71 64
0.007812 0.441406 0.066899 171 68 63
0.011719 0.441406 0.070090 182 75 71
0.015625 0.441406 0.073337 182 76 72
0.019531 0.441406 0.075594 185 79 75
0.023438 0.441406 0.076484 192 86 82
0.027344 0.441406 0.077110 180 74 70
0.031250 0.441406 0.078016 159 61 57
0.035156 0.441406 0.078549 159 66 62
0.039062 0.441406 0.078236 177 88 82
0.042969 0.441406 0.077811 199 119 106
0.046875 0.441406 0.077016 207 136 115
0.050781 0.441406 0.075484 190 117 94
0.054688 0.441406 0.073545 171 98 77
0.058594 0.441406 0.071893 175 102 80
0.062500 0.441406 0.070978 167 96 76
0.066406 0.441406 0.068546 159 88 69
0.070312 0.441406 0.065082 168 98 73
0.074219 0.441406 0.061366 176 112 84
-0.027344 0.437500 -0.010189 141 82 50
-0.023438 0.437500 0.010798 129 71 47
-0.019531 0.437500 0.035549 139 82 60
-0.015625 0.437500 0.049932 148 86 67
-0.011719 0.437500 0.054946 167 100 82
-0.007812 0.437500 0.057255 171 100 85
-0.003906 0.437500 0.058349 162 87 75
0.000000 0.437500 0.059666 166 84 75
0.003906 0.437500 0.061755 172 82 76
0.007812 0.437500 0.064539 172 75 71
0.011719 0.437500 0.067503 179 76 73
0.015625 0.437500 0.070551 186 79 76
0.019531 0.437500 0.072816 193 84 81
0.023438 0.437500 0.074041 202 92 90
0.027344 0.437500 0.075137 198 88 85
0.031250 0.437500 0.076537 187 82 78
0.035156 0.437500 0.077539 193 95 88
0.039062 0.437500 0.077535 202 117 105
0.042969 0.437500 0.076982 207 132 114
0.046875 0.437500 0.075869 204 131 110
0.050781 0.437500 0.074201 190 115 92
0.054688 0.437500 0.072361 177 104 81
0.058594 0.437500 0.070711 172 100 77
0.062500 0.437500 0.070150 166 96 75
0.066406 0.437500 0.067360 164 94 74
0.070312 0.437500 0.063635 170 102 77
0.074219 0.437500 0.051914 168 107 79
-0.027344 0.433594 -0.015958 147 87 54
-0.023438 0.433594 -0.004007 134 75 48
-0.019531 0.433594 0.013539 134 79 56
-0.015625 0.433594 0.040938 138 80 61
-0.011719 0.433594 0.052257 164 97 80
-0.007812 0.433594 0.055029 176 106 90
-0.003906 0.433594 0.056289 167 94 82
0.000000 0.433594 0.057619 166 89 80
0.003906 0.433594 0.060105 173 92 85
0.007812 0.433594 0.062884 175 87 82
0.011719 0.433594 0.065743 178 84 80
0.015625 0.433594 0.068776 182 82 80
0.019531 0.433594 0.071122 181 79 79
0.023438 0.433594 0.072702 187 84 84
0.027344 0.433594 0.074344 195 95 92
0.031250 0.433594 0.076219 202 107 99
0.035156 0.433594 0.077403 210 122 110
0.039062 0.433594 0.077045 208 128 111
0.042969 0.433594 0.075927 201 126 107
0.046875 0.433594 0.074281 196 121 101
0.050781 0.433594 0.072371 185 110 87
0.054688 0.433594 0.070694 175 101 77
0.058594 0.433594 0.069078 169 96 73
0.062500 0.433594 0.069101 171 99 76
0.066406 0.433594 0.067841 172 101 80
0.070312 0.433594 0.064803 173 107 82
0.074219 0.433594 0.032217 156 98 76
-0.027344 0.429688 -0.021058 125 68 44
-0.023438 0.429688 -0.007395 142 82 50
-0.019531 0.429688 -0.002724 143 87 59
-0.015625 0.429688 0.015590 133 76 58
-0.011719 0.429688 0.044913 157 91 76
-0.007812 0.429688 0.052494 181 111 95
-0.003906 0.429688 0.054870 178 105 91
0.000000 0.429688 0.056438 171 95 86
0.003906 0.429688 0.059090 172 94 87
0.007812 0.429688 0.061678 174 93 87
0.011719 0.429688 0.064509 182 97 91
0.015625 0.429688 0.067675 191 103 96
0.019531 0.429688 0.070136 189 100 96
0.023438 0.429688 0.072002 192 104 100
0.027344 0.429688 0.073984 200 113 106
0.031250 0.429688 0.076057 205 121 110
0.035156 0.429688 0.077294 211 130 115
0.039062 0.429688 0.076830 210 131 114
0.042969 0.429688 0.075431 203 128 108
0.046875 0.429688 0.073337 195 120 99
0.050781 0.429688 0.070975 181 106 84
0.054688 0.429688 0.069035 171 98 74
0.058594 0.429688 0.067414 166 94 70
0.062500 0.429688 0.065732 166 96 72
0.066406 0.429688 0.063800 166 95 73
0.070312 0.429688 0.055173 182 110 85
-0.027344 0.425781 -0.024907 92 45 30
-0.023438 0.425781 -0.010235 117 62 38
-0.019531 0.425781 -0.003247 143 85 58
-0.015625 0.425781 0.000061 131 74 56
-0.011719 0.425781 0.028168 144 81 66
-0.007812 0.425781 0.047901 180 109 92
-0.003906 0.425781 0.053201 190 114 100
0.000000 0.425781 0.055795 184 105 95
0.003906 0.425781 0.058501 182 102 93
0.007812 0.425781 0.060966 181 100 93
0.011719 0.425781 0.063874 184 103 96
0.015625 0.425781 0.067046 191 109 101
0.019531 0.425781 0.069489 191 109 102
0.023438 0.425781 0.071572 194 111 105
0.027344 0.425781 0.073729 198 115 107
0.031250 0.425781 0.075815 200 118 107
0.035156 0.425781 0.077175 209 129 114
0.039062 0.425781 0.077119 212 135 115
0.042969 0.425781 0.075780 206 130 109
0.046875 0.425781 0.073359 194 119 97
0.050781 0.425781 0.071086 181 107 84
0.054688 0.425781 0.068429 173 101 75
0.058594 0.425781 0.066476 160 90 65
0.062500 0.425781 0.061516 153 86 61
0.066406 0.425781 0.051402 165 91 68
0.070312 0.425781 0.025422 190 101 82
-0.027344 0.421875 -0.026640 99 50 33
-0.023438 0.421875 -0.012970 103 51 34
-0.019531 0.421875 -0.005074 146 82 58
-0.015625 0.421875 -0.000795 139 80 57
-0.011719 0.421875 0.009564 136 77 59
-0.007812 0.421875 0.039001 174 102 86
-0.003906 0.421875 0.050349 195 118 105
0.000000 0.421875 0.055286 195 115 105
0.003906 0.421875 0.058538 195 114 104
0.007812 0.421875 0.060928 198 116 106
0.011719 0.421875 0.063932 198 116 107
0.015625 0.421875 0.067082 197 114 105
0.019531 0.421875 0.069574 195 110 102
0.023438 0.421875 0.071737 197 112 104
0.027344 0.421875 0.073988 201 117 107
0.031250 0.421875 0.076312 205 123 110
0.035156 0.421875 0.077863 213 136 118
0.039062 0.421875 0.077890 214 139 118
0.042969 0.421875 0.075510 205 130 107
0.046875 0.421875 0.072975 193 117 95
0.050781 0.421875 0.069502 183 109 85
0.054688 0.421875 0.061299 171 100 73
0.058594 0.421875 0.052585 146 81 57
0.062500 0.421875 0.039719 150 84 61
0.066406 0.421875 0.023547 189 118 92
0.070312 0.421875 0.000057 188 107 83
-0.027344 0.417969 -0.026837 125 67 44
-0.023438 0.417969 -0.013657 111 54 35
-0.019531 0.417969 -0.007281 139 71 48
-0.015625 0.417969 -0.001076 141 75 54
-0.011719 0.417969 0.004023 133 71 57
-0.007812 0.417969 0.025312 160 91 76
-0.003906 0.417969 0.045735 188 113 98
0.000000 0.417969 0.054001 196 117 106
0.003906 0.417969 0.058144 198 116 106
0.007812 0.417969 0.060778 205 123 112
0.011719 0.417969 0.064217 211 131 120
0.015625 0.417969 0.067748 213 131 120
0.019531 0.417969 0.070532 213 128 117
0.023438 0.417969 0.072745 214 128 117
0.027344 0.417969 0.075119 215 133 119
0.031250 0.417969 0.077519 216 138 122
0.035156 0.417969 0.079060 217 144 125
0.039062 0.417969 0.078706 213 140 119
0.042969 0.417969 0.077204 204 128 107
0.046875 0.417969 0.070789 193 117 94
0.050781 0.417969 0.046947 178 105 80
0.054688 0.417969 0.028240 155 87 62
0.058594 0.417969 0.019865 139 75 55
0.062500 0.417969 0.013981 170 101 79
0.066406 0.417969 0.008157 205 150 125
-0.031250 0.414062 -0.021280 121 67 58
-0.027344 0.414062 -0.025558 147 83 56
-0.023438 0.414062 -0.014204 121 60 39
-0.019531 0.414062 -0.007944 115 55 35
-0.015625 0.414062 -0.002716 125 60 42
-0.011719 0.414062 0.003428 131 64 51
-0.007812 0.414062 0.013378 147 80 64
-0.003906 0.414062 0.039043 176 105 87
0.000000 0.414062 0.052119 195 119 105
0.003906 0.414062 0.057599 199 118 107
0.007812 0.414062 0.061052 206 124 114
0.011719 0.414062 0.065218 215 136 125
0.015625 0.414062 0.069201 220 142 131
0.019531 0.414062 0.072403 221 141 130
0.023438 0.414062 0.074824 221 139 129
0.027344 0.414062 0.077171 221 142 129
0.031250 0.414062 0.079452 221 146 130
0.035156 0.414062 0.080354 217 146 127
0.039062 0.414062 0.079246 209 136 116
0.042969 0.414062 0.074750 198 123 102
0.046875 0.414062 0.048264 182 108 85
0.050781 0.414062 0.023553 162 92 68
0.054688 0.414062 0.021388 150 84 61
0.058594 0.414062 0.017528 164 96 72
0.062500 0.414062 0.011861 183 119 91
0.066406 0.414062 0.002517 166 115 92
-0.031250 0.410156 -0.040188 127 73 57
-0.027344 0.410156 -0.024388 163 102 65
-0.023438 0.410156 -0.014589 147 81 52
-0.019531 0.410156 -0.008828 122 63 37
-0.015625 0.410156 -0.003692 116 55 34
-0.011719 0.410156 0.002106 120 55 39
-0.007812 0.410156 0.008345 135 67 52
-0.003906 0.410156 0.028466 160 90 78
0.000000 0.410156 0.049559 183 110 99
0.003906 0.410156 0.057014 194 117 104
0.007812 0.410156 0.061245 202 123 112
0.011719 0.410156 0.065918 211 132 122
0.015625 0.410156 0.070354 219 142 131
0.019531 0.410156 0.073910 224 148 138
0.023438 0.410156 0.076236 225 150 140
0.027344 0.410156 0.078191 223 150 138
0.031250 0.410156 0.080691 220 146 132
0.035156 0.410156 0.081619 213 139 123
0.039062 0.410156 0.079344 200 123 104
0.042969 0.410156 0.054782 179 103 83
0.046875 0.410156 0.024492 158 90 70
0.050781 0.410156 0.021029 153 87 66
0.054688 0.410156 0.018704 168 99 78
0.058594 0.410156 0.013555 184 118 93
0.062500 0.410156 0.007196 166 104 79
0.066406 0.410156 -0.004233 104 64 48
-0.031250 0.406250 -0.038523 122 70 54
-0.027344 0.406250 -0.023591 169 110 71
-0.023438 0.406250 -0.015656 168 101 63
-0.019531 0.406250 -0.010102 153 87 51
-0.015625 0.406250 -0.004540 129 65 39
-0.011719 0.406250 0.000472 108 50 32
-0.007812 0.406250 0.006277 115 54 38
-0.003906 0.406250 0.013932 138 70 59
0.000000 0.406250 0.039079 160 91 78
0.003906 0.406250 0.053620 178 107 90
0.007812 0.406250 0.061017 192 116 102
0.011719 0.406250 0.066419 203 124 113
0.015625 0.406250 0.071670 211 134 122
0.019531 0.406250 0.075557 218 143 131
0.023438 0.406250 0.077696 221 147 135
0.027344 0.406250 0.079170 218 144 130
0.031250 0.406250 0.080415 211 134 120
0.035156 0.406250 0.080742 199 122 106
0.039062 0.406250 0.068987 176 99 81
0.042969 0.406250 0.027802 152 83 64
0.046875 0.406250 0.020145 152 88 68
0.050781 0.406250 0.018292 154 91 71
0.054688 0.406250 0.014093 147 84 67
0.058594 0.406250 0.009869 147 91 68
0.062500 0.406250 0.003545 139 86 61
0.066406 0.406250 -0.007819 123 78 54
-0.035156 0.402344 -0.021146 105 74 65
-0.031250 0.402344 -0.033906 140 87 67
-0.027344 0.402344 -0.023358 173 116 75
-0.023438 0.402344 -0.016772 169 104 63
-0.019531 0.402344 -0.010951 168 100 60
-0.015625 0.402344 -0.006326 156 86 51
-0.011719 0.402344 -0.001300 122 62 34
-0.007812 0.402344 0.004196 106 49 29
-0.003906 0.402344 0.008225 117 54 38
0.000000 0.402344 0.016504 141 73 57
0.003906 0.402344 0.037869 160 92 76
0.007812 0.402344 0.054172 173 101 88
0.011719 0.402344 0.063756 183 108 95
0.015625 0.402344 0.070372 193 116 104
0.019531 0.402344 0.074775 200 122 111
0.023438 0.402344 0.076802 201 123 113
0.027344 0.402344 0.078529 198 121 110
0.031250 0.402344 0.076277 191 113 100
0.035156 0.402344 0.060445 172 97 81
0.039062 0.402344 0.028922 149 82 64
0.042969 0.402344 0.020766 152 87 66
0.046875 0.402344 0.018936 161 94 76
0.050781 0.402344 0.014109 130 69 58
0.054688 0.402344 0.011008 93 48 40
0.058594 0.402344 0.006920 105 63 47
0.062500 0.402344 0.001484 136 90 62
0.066406 0.402344 -0.007846 158 112 79
-0.035156 0.398438 -0.048422 80 54 52
-0.031250 0.398438 -0.032883 133 81 63
-0.027344 0.398438 -0.023058 171 113 73
-0.023438 0.398438 -0.017655 169 102 61
-0.019531 0.398438 -0.011738 173 101 59
-0.015625 0.398438 -0.007695 174 100 57
-0.011719 0.398438 -0.002892 154 84 45
-0.007812 0.398438 0.001055 121 59 33
-0.003906 0.398438 0.005386 102 48 29
0.000000 0.398438 0.008726 119 60 40
0.003906 0.398438 0.012373 144 78 61
0.007812 0.398438 0.018706 151 87 70
0.011719 0.398438 0.030980 152 87 71
0.015625 0.398438 0.040751 161 89 77
0.019531 0.398438 0.047002 171 96 84
0.023438 0.398438 0.048187 173 98 88
0.027344 0.398438 0.045259 171 97 86
0.031250 0.398438 0.033928 159 87 74
0.035156 0.398438 0.022894 142 77 62
0.039062 0.398438 0.019445 149 88 67
0.042969 0.398438 0.018821 163 102 78
0.046875 0.398438 0.014589 132 74 60
0.050781 0.398438 0.011514 87 43 37
0.054688 0.398438 0.008314 94 47 38
0.058594 0.398438 0.004269 141 85 62
0.062500 0.398438 -0.001065 159 108 77
0.066406 0.398438 -0.008877 166 120 90
0.070312 0.398438 -0.019370 124 91 73
-0.035156 0.394531 -0.042049 79 57 55
-0.031250 0.394531 -0.031149 115 64 53
-0.027344 0.394531 -0.022932 161 98 67
-0.023438 0.394531 -0.017597 170 100 63
-0.019531 0.394531 -0.012630 172 99 59
-0.015625 0.394531 -0.008520 173 99 55
-0.011719 0.394531 -0.004694 167 96 50
-0.007812 0.394531 -0.000843 144 77 41
-0.003906 0.394531 0.002267 110 55 29
0.000000 0.394531 0.006097 98 48 27
0.003906 0.394531 0.008220 113 54 37
0.007812 0.394531 0.010833 132 69 51
0.011719 0.394531 0.012804 135 74 57
0.015625 0.394531 0.014745 134 72 58
0.019531 0.394531 0.016820 140 74 62
0.023438 0.394531 0.017557 143 77 66
0.027344 0.394531 0.017803 138 74 64
0.031250 0.394531 0.019289 132 71 59
0.035156 0.394531 0.019045 143 81 64
0.039062 0.394531 0.017837 160 94 76
0.042969 0.394531 0.014997 136 78 64
0.046875 0.394531 0.012636 87 49 40
0.050781 0.394531 0.009547 85 48 36
0.054688 0.394531 0.006268 133 77 53
0.058594 0.394531 0.002046 175 113 78
0.062500 0.394531 -0.003303 175 116 82
0.066406 0.394531 -0.010764 175 124 94
0.070312 0.394531 -0.017901 158 118 100
-0.039062 0.390625 -0.052632 44 63 57
-0.035156 0.390625 -0.037612 157 133 106
-0.031250 0.390625 -0.030076 128 74 57
-0.027344 0.390625 -0.022517 159 94 66
-0.023438 0.390625 -0.017323 172 102 68
-0.019531 0.390625 -0.013515 171 98 63
-0.015625 0.390625 -0.009468 169 95 55
-0.011719 0.390625 -0.006140 164 92 49
-0.007812 0.390625 -0.002875 155 86 46
-0.003906 0.390625 0.000316 133 70 36
0.000000 0.390625 0.002981 99 48 26
0.003906 0.390625 0.005092 83 38 24
0.007812 0.390625 0.007313 105 52 34
0.011719 0.390625 0.009047 131 71 50
0.015625 0.390625 0.011224 129 73 53
0.019531 0.390625 0.013015 118 68 51
0.023438 0.390625 0.014368 113 65 52
0.027344 0.390625 0.014909 115 65 54
0.031250 0.390625 0.015873 139 84 66
0.035156 0.390625 0.016419 162 106 80
0.039062 0.390625 0.014645 134 80 62
0.042969 0.390625 0.012874 86 47 39
0.046875 0.390625 0.010618 89 50 40
0.050781 0.390625 0.007649 131 78 58
0.054688 0.390625 0.004349 162 100 70
0.058594 0.390625 0.000239 176 109 78
0.062500 0.390625 -0.004625 178 112 82
0.066406 0.390625 -0.011090 185 127 99
0.070312 0.390625 -0.018005 179 130 114
0.074219 0.390625 -0.025521 78 57 70
0.078125 0.390625 -0.036191 6 5 10
-0.042969 0.386719 -0.060678 0 0 0
-0.039062 0.386719 -0.047429 76 82 75
-0.035156 0.386719 -0.035698 157 129 98
-0.031250 0.386719 -0.028780 126 75 55
-0.027344 0.386719 -0.022357 155 92 65
-0.023438 0.386719 -0.017810 170 102 70
-0.019531 0.386719 -0.013981 169 99 66
-0.015625 0.386719 -0.010143 166 96 60
-0.011719 0.386719 -0.006724 157 90 52
-0.007812 0.386719 -0.004090 152 87 48
-0.003906 0.386719 -0.001505 148 83 44
0.000000 0.386719 0.000918 124 64 35
0.003906 0.386719 0.003175 88 43 24
0.007812 0.386719 0.005316 89 43 24
0.011719 0.386719 0.007229 110 54 34
0.015625 0.386719 0.009134 106 54 37
0.019531 0.386719 0.010613 89 47 34
0.023438 0.386719 0.011894 82 45 35
0.027344 0.386719 0.013034 92 51 41
0.031250 0.386719 0.013941 125 73 56
0.035156 0.386719 0.014051 135 84 62
0.039062 0.386719 0.012698 95 59 43
0.042969 0.386719 0.010867 79 49 36
0.046875 0.386719 0.008791 120 74 54
0.050781 0.386719 0.005866 160 99 72
0.054688 0.386719 0.002550 170 105 76
0.058594 0.386719 -0.001273 178 109 81
0.062500 0.386719 -0.005704 183 115 88
0.066406 0.386719 -0.011195 190 129 104
0.070312 0.386719 -0.017634 189 135 116
0.074219 0.386719 -0.024627 169 133 128
0.078125 0.386719 -0.032704 129 115 124
-0.046875 0.382812 -0.064215 0 0 0
-0.042969 0.382812 -0.053419 4 4 5
-0.039062 0.382812 -0.042822 87 74 66
-0.035156 0.382812 -0.033806 142 108 80
-0.031250 0.382812 -0.027035 128 79 57
-0.027344 0.382812 -0.022246 154 94 67
-0.023438 0.382812 -0.018002 167 103 73
-0.019531 0.382812 -0.014123 165 100 70
-0.015625 0.382812 -0.010533 163 98 65
-0.011719 0.382812 -0.007230 157 91 58
-0.007812 0.382812 -0.004507 154 88 51
-0.003906 0.382812 -0.002267 154 86 47
0.000000 0.382812 0.000146 144 78 43
0.003906 0.382812 0.002538 117 60 31
0.007812 0.382812 0.004759 98 47 25
0.011719 0.382812 0.006542 92 43 25
0.015625 0.382812 0.008048 79 37 24
0.019531 0.382812 0.009364 68 33 22
0.023438 0.382812 0.010466 65 33 24
0.027344 0.382812 0.011518 73 38 28
0.031250 0.382812 0.011877 89 47 34
0.035156 0.382812 0.011669 98 53 38
0.039062 0.382812 0.010662 103 58 43
0.042969 0.382812 0.009144 124 75 55
0.046875 0.382812 0.007285 153 97 70
0.050781 0.382812 0.004687 164 100 74
0.054688 0.382812 0.001517 172 103 79
0.058594 0.382812 -0.002215 185 116 91
0.062500 0.382812 -0.006383 190 123 98
0.066406 0.382812 -0.011201 193 131 108
0.070312 0.382812 -0.016589 190 133 113
0.074219 0.382812 -0.022872 191 150 136
0.078125 0.382812 -0.030029 193 167 163
0.082031 0.382812 -0.036409 24 14 23
0.085938 0.382812 -0.045105 0 0 0
-0.050781 0.378906 -0.068759 0 0 0
-0.046875 0.378906 -0.057533 1 2 3
-0.042969 0.378906 -0.045960 52 50 46
-0.039062 0.378906 -0.039015 112 88 75
-0.035156 0.378906 -0.032095 141 102 76
-0.031250 0.378906 -0.026369 137 87 63
-0.027344 0.378906 -0.021759 153 96 69
-0.023438 0.378906 -0.017729 163 104 74
-0.019531 0.378906 -0.013988 163 102 73
-0.015625 0.378906 -0.010557 163 101 71
-0.011719 0.378906 -0.007512 160 96 65
-0.007812 0.378906 -0.004832 157 92 58
-0.003906 0.378906 -0.002369 152 87 51
0.000000 0.378906 -0.000005 143 80 45
0.003906 0.378906 0.002208 129 69 37
0.007812 0.378906 0.004288 114 58 30
0.011719 0.378906 0.006082 101 51 27
0.015625 0.378906 0.007663 88 45 25
0.019531 0.378906 0.009005 83 44 26
0.023438 0.378906 0.009980 84 46 29
0.027344 0.378906 0.010515 89 50 32
0.031250 0.378906 0.010449 98 56 36
0.035156 0.378906 0.010046 112 64 42
0.039062 0.378906 0.009215 136 79 55
0.042969 0.378906 0.007828 158 96 70
0.046875 0.378906 0.005996 169 106 79
0.050781 0.378906 0.003611 170 102 78
0.054688 0.378906 0.000662 175 104 82
0.058594 0.378906 -0.002750 187 119 94
0.062500 0.378906 -0.006515 191 125 101
0.066406 0.378906 -0.010819 192 131 108
0.070312 0.378906 -0.015802 189 133 113
0.074219 0.378906 -0.021409 195 151 133
0.078125 0.378906 -0.027280 197 164 152
0.082031 0.378906 -0.033058 102 68 77
0.085938 0.378906 -0.038983 5 3 5
0.089844 0.378906 -0.046638 0 0 0
-0.054688 0.375000 -0.070762 0 0 0
-0.050781 0.375000 -0.060332 0 1 1
-0.046875 0.375000 -0.049958 72 90 68
-0.042969 0.375000 -0.040956 137 132 102
-0.039062 0.375000 -0.035063 115 89 68
-0.035156 0.375000 -0.030199 130 89 65
-0.031250 0.375000 -0.025109 138 89 64
-0.027344 0.375000 -0.020874 147 94 67
-0.023438 0.375000 -0.017186 157 100 72
-0.019531 0.375000 -0.013687 159 102 74
-0.015625 0.375000 -0.010425 162 103 75
-0.011719 0.375000 -0.007497 162 101 72
-0.007812 0.375000 -0.004938 159 96 66
-0.003906 0.375000 -0.002460 152 88 57
0.000000 0.375000 -0.000134 142 80 48
0.003906 0.375000 0.001884 133 72 41
0.007812 0.375000 0.003761 126 67 37
0.011719 0.375000 0.005359 119 64 35
0.015625 0.375000 0.006747 113 61 34
0.019531 0.375000 0.007850 110 62 36
0.023438 0.375000 0.008471 113 65 40
0.027344 0.375000 0.008700 119 71 46
0.031250 0.375000 0.008637 130 78 52
0.035156 0.375000 0.008317 142 86 58
0.039062 0.375000 0.007667 156 95 66
0.042969 0.375000 0.006501 167 102 75
0.046875 0.375000 0.004838 175 110 83
0.050781 0.375000 0.002677 177 109 85
0.054688 0.375000 -0.000032 176 108 85
0.058594 0.375000 -0.003059 184 118 93
0.062500 0.375000 -0.006377 188 124 99
0.066406 0.375000 -0.010307 188 128 104
0.070312 0.375000 -0.014797 187 132 110
0.074219 0.375000 -0.019525 192 145 124
0.078125 0.375000 -0.024361 189 149 131
0.082031 0.375000 -0.028986 163 126 117
0.085938 0.375000 -0.033530 144 116 113
0.089844 0.375000 -0.038325 57 46 55
0.093750 0.375000 -0.044237 10 11 13
0.097656 0.375000 -0.051547 6 7 6
-0.058594 0.371094 -0.067506 0 0 0
-0.054688 0.371094 -0.059692 0 0 1
-0.050781 0.371094 -0.050986 12 14 18
-0.046875 0.371094 -0.043074 83 79 71
-0.042969 0.371094 -0.036675 128 111 84
-0.039062 0.371094 -0.031845 116 87 62
-0.035156 0.371094 -0.027570 134 93 65
-0.031250 0.371094 -0.023292 146 99 70
-0.027344 0.371094 -0.019447 149 99 70
-0.023438 0.371094 -0.016163 156 102 73
-0.019531 0.371094 -0.013091 158 103 75
-0.015625 0.371094 -0.010036 162 105 77
-0.011719 0.371094 -0.007182 164 105 77
-0.007812 0.371094 -0.004690 161 100 72
-0.003906 0.371094 -0.002346 154 92 63
0.000000 0.371094 -0.000185 146 84 54
0.003906 0.371094 0.001637 136 77 47
0.007812 0.371094 0.003277 130 72 43
0.011719 0.371094 0.004644 127 71 41
0.015625 0.371094 0.005809 123 69 41
0.019531 0.371094 0.006698 121 69 43
0.023438 0.371094 0.007143 123 71 46
0.027344 0.371094 0.007251 130 77 52
0.031250 0.371094 0.007182 141 86 60
0.035156 0.371094 0.006917 153 93 67
0.039062 0.371094 0.006487 163 101 74
0.042969 0.371094 0.005662 171 106 81
0.046875 0.371094 0.004289 178 112 87
0.050781 0.371094 0.002405 179 112 87
0.054688 0.371094 -0.000047 176 110 86
0.058594 0.371094 -0.002704 181 117 91
0.062500 0.371094 -0.005637 185 123 97
0.066406 0.371094 -0.009118 186 128 102
0.070312 0.371094 -0.013065 188 133 108
0.074219 0.371094 -0.017081 191 142 117
0.078125 0.371094 -0.021253 187 143 121
0.082031 0.371094 -0.025567 183 146 125
0.085938 0.371094 -0.029121 193 169 152
0.089844 0.371094 -0.032986 154 133 136
0.093750 0.371094 -0.037199 88 79 95
0.097656 0.371094 -0.040961 80 81 87
0.101562 0.371094 -0.045380 42 43 44
-0.070312 0.367188 -0.051170 0 0 0
-0.066406 0.367188 -0.068300 0 0 0
-0.062500 0.367188 -0.060121 1 2 2
-0.058594 0.367188 -0.055508 15 22 23
-0.054688 0.367188 -0.049305 49 57 61
-0.050781 0.367188 -0.041983 58 53 58
-0.046875 0.367188 -0.036086 78 61 54
-0.042969 0.367188 -0.031593 116 89 64
-0.039062 0.367188 -0.027466 123 89 62
-0.035156 0.367188 -0.024142 136 96 67
-0.031250 0.367188 -0.020799 145 99 70
-0.027344 0.367188 -0.017487 146 97 69
-0.023438 0.367188 -0.014598 151 100 71
-0.019531 0.367188 -0.011812 154 101 73
-0.015625 0.367188 -0.008972 159 104 76
-0.011719 0.367188 -0.006266 163 106 78
-0.007812 0.367188 -0.003867 161 103 74
-0.003906 0.367188 -0.001622 155 96 67
0.000000 0.367188 0.000397 148 88 60
0.003906 0.367188 0.002103 139 81 53
0.007812 0.367188 0.003574 132 75 48
0.011719 0.367188 0.004802 129 72 46
0.015625 0.367188 0.005849 127 71 46
0.019531 0.367188 0.006574 127 71 47
0.023438 0.367188 0.006942 130 74 50
0.027344 0.367188 0.006979 136 79 55
0.031250 0.367188 0.006836 147 88 63
0.035156 0.367188 0.006567 157 95 70
0.039062 0.367188 0.006286 166 103 78
0.042969 0.367188 0.005682 174 110 84
0.046875 0.367188 0.004528 177 113 87
0.050781 0.367188 0.002980 175 111 86
0.054688 0.367188 0.000848 173 110 84
0.058594 0.367188 -0.001540 177 116 89
0.062500 0.367188 -0.004163 180 122 94
0.066406 0.367188 -0.007290 184 128 100
0.070312 0.367188 -0.010857 187 134 107
0.074219 0.367188 -0.014471 189 140 113
0.078125 0.367188 -0.017849 188 142 117
0.082031 0.367188 -0.021115 189 152 126
0.085938 0.367188 -0.024233 193 167 143
0.089844 0.367188 -0.027290 169 144 137
0.093750 0.367188 -0.029737 135 111 121
0.097656 0.367188 -0.032236 140 124 138
0.101562 0.367188 -0.035991 155 149 159
0.105469 0.367188 -0.038654 161 157 164
0.109375 0.367188 -0.042579 160 161 166
0.113281 0.367188 -0.046306 126 140 139
-0.078125 0.363281 -0.068240 0 0 0
-0.074219 0.363281 -0.067494 0 0 0
-0.070312 0.363281 -0.062267 1 0 1
-0.066406 0.363281 -0.055875 6 5 7
-0.062500 0.363281 -0.049711 33 31 33
-0.058594 0.363281 -0.045602 92 86 87
-0.054688 0.363281 -0.040375 115 102 104
-0.050781 0.363281 -0.034404 95 77 73
-0.046875 0.363281 -0.029980 106 80 64
-0.042969 0.363281 -0.026158 136 103 73
-0.039062 0.363281 -0.022936 139 102 71
-0.035156 0.363281 -0.020376 139 98 69
-0.031250 0.363281 -0.017792 141 95 68
-0.027344 0.363281 -0.015190 142 94 66
-0.023438 0.363281 -0.012662 147 97 68
-0.019531 0.363281 -0.010091 150 98 69
-0.015625 0.363281 -0.007514 156 102 73
-0.011719 0.363281 -0.005048 161 106 76
-0.007812 0.363281 -0.002855 162 105 75
-0.003906 0.363281 -0.000790 159 101 72
0.000000 0.363281 0.001048 153 95 67
0.003906 0.363281 0.002608 145 88 61
0.007812 0.363281 0.003904 139 83 57
0.011719 0.363281 0.005001 136 80 55
0.015625 0.363281 0.005961 136 79 54
0.019531 0.363281 0.006512 139 81 56
0.023438 0.363281 0.006765 144 84 59
0.027344 0.363281 0.006790 151 89 64
0.031250 0.363281 0.006750 159 96 70
0.035156 0.363281 0.006617 165 101 74
0.039062 0.363281 0.006393 170 106 79
0.042969 0.363281 0.005818 176 113 85
0.046875 0.363281 0.004807 178 117 88
0.050781 0.363281 0.003589 176 115 87
0.054688 0.363281 0.001936 175 116 87
0.058594 0.363281 -0.000005 179 121 91
0.062500 0.363281 -0.002216 181 125 95
0.066406 0.363281 -0.004930 184 130 100
0.070312 0.363281 -0.008174 188 136 105
0.074219 0.363281 -0.011255 189 139 110
0.078125 0.363281 -0.013904 191 143 115
0.082031 0.363281 -0.016237 196 155 128
0.085938 0.363281 -0.018403 200 169 146
0.089844 0.363281 -0.020857 190 162 151
0.093750 0.363281 -0.022675 172 140 145
0.097656 0.363281 -0.024459 186 165 177
0.101562 0.363281 -0.026779 215 209 215
0.105469 0.363281 -0.029340 231 227 231
0.109375 0.363281 -0.032726 242 239 242
0.113281 0.363281 -0.034325 246 245 247
0.117188 0.363281 -0.034576 244 244 245
0.121094 0.363281 -0.036368 219 221 221
0.125000 0.363281 -0.037212 109 112 111
0.128906 0.363281 -0.036656 22 23 22
-0.093750 0.359375 -0.067809 0 0 0
-0.089844 0.359375 -0.065823 1 1 1
-0.085938 0.359375 -0.061747 13 15 11
-0.082031 0.359375 -0.057975 54 61 47
-0.078125 0.359375 -0.057311 122 122 107
-0.074219 0.359375 -0.055277 125 110 111
-0.070312 0.359375 -0.050392 95 72 82
-0.066406 0.359375 -0.045196 100 75 86
-0.062500 0.359375 -0.040857 129 108 114
-0.058594 0.359375 -0.036563 147 131 134
-0.054688 0.359375 -0.031799 134 112 116
-0.050781 0.359375 -0.027196 104 72 69
-0.046875 0.359375 -0.023371 119 87 67
-0.042969 0.359375 -0.020403 145 111 79
-0.039062 0.359375 -0.018164 149 110 77
-0.035156 0.359375 -0.016380 143 100 70
-0.031250 0.359375 -0.014499 141 96 68
-0.027344 0.359375 -0.012430 144 96 66
-0.023438 0.359375 -0.010264 148 97 67
-0.019531 0.359375 -0.007967 151 98 68
-0.015625 0.359375 -0.005673 155 100 71
-0.011719 0.359375 -0.003489 160 103 73
-0.007812 0.359375 -0.001539 161 103 73
-0.003906 0.359375 0.000331 158 100 71
0.000000 0.359375 0.002001 154 97 68
0.003906 0.359375 0.003443 147 92 65
0.007812 0.359375 0.004567 143 88 62
0.011719 0.359375 0.005488 144 88 62
0.015625 0.359375 0.006343 147 89 63
0.019531 0.359375 0.006747 154 94 67
0.023438 0.359375 0.006738 162 100 71
0.027344 0.359375 0.006531 167 104 75
0.031250 0.359375 0.006458 172 108 79
0.035156 0.359375 0.006315 172 108 79
0.039062 0.359375 0.006175 172 109 81
0.042969 0.359375 0.005887 177 116 86
0.046875 0.359375 0.005166 179 119 88
0.050781 0.359375 0.004265 176 118 86
0.054688 0.359375 0.003094 176 119 87
0.058594 0.359375 0.001651 180 126 92
0.062500 0.359375 -0.000055 182 129 96
0.066406 0.359375 -0.002211 185 134 100
0.070312 0.359375 -0.004926 190 140 106
0.074219 0.359375 -0.007450 193 145 112
0.078125 0.359375 -0.009669 198 152 120
0.082031 0.359375 -0.011656 204 163 135
0.085938 0.359375 -0.013040 207 174 151
0.089844 0.359375 -0.014384 196 167 154
0.093750 0.359375 -0.015667 177 138 146
0.097656 0.359375 -0.017183 200 182 190
0.101562 0.359375 -0.019160 224 219 222
0.105469 0.359375 -0.021188 231 228 230
0.109375 0.359375 -0.023627 233 230 232
0.113281 0.359375 -0.025515 235 232 235
0.117188 0.359375 -0.026942 237 233 236
0.121094 0.359375 -0.028073 233 230 232
0.125000 0.359375 -0.028573 221 218 220
0.128906 0.359375 -0.028778 197 194 195
0.132812 0.359375 -0.028872 164 162 163
0.136719 0.359375 -0.030418 137 140 137
0.140625 0.359375 -0.032914 107 119 108
-0.105469 0.355469 -0.066247 0 0 0
-0.101562 0.355469 -0.063707 0 0 0
-0.097656 0.355469 -0.058328 0 0 1
-0.093750 0.355469 -0.056661 3 3 5
-0.089844 0.355469 -0.055783 15 11 17
-0.085938 0.355469 -0.053114 62 47 56
-0.082031 0.355469 -0.050305 168 148 155
-0.078125 0.355469 -0.048342 229 216 220
-0.074219 0.355469 -0.045767 230 215 220
-0.070312 0.355469 -0.042058 211 192 198
-0.066406 0.355469 -0.037806 207 187 193
-0.062500 0.355469 -0.033638 215 198 201
-0.058594 0.355469 -0.029092 214 200 202
-0.054688 0.355469 -0.024645 199 178 181
-0.050781 0.355469 -0.020577 159 115 114
-0.046875 0.355469 -0.017325 141 96 77
-0.042969 0.355469 -0.014974 154 116 86
-0.039062 0.355469 -0.013292 158 118 84
-0.035156 0.355469 -0.012100 148 103 73
