ply
    format ascii 1.0
    element vertex 101260
    property float x
    property float y
    property float z
    property uchar red
    property uchar green
    property uchar blue
    end_header
0.230469 -0.906250 0.086017 69 75 77
0.234375 -0.906250 0.087573 70 75 76
0.238281 -0.906250 0.090490 71 75 76
0.242188 -0.906250 0.094820 73 76 77
0.246094 -0.906250 0.099440 76 78 79
0.250000 -0.906250 0.103712 82 84 84
0.253906 -0.906250 0.106661 86 87 87
0.257812 -0.906250 0.108484 87 88 87
0.261719 -0.906250 0.109784 88 89 87
0.265625 -0.906250 0.110884 90 90 88
0.269531 -0.906250 0.111926 91 91 88
0.273438 -0.906250 0.112542 89 89 87
0.277344 -0.906250 0.112866 88 89 86
0.281250 -0.906250 0.112745 85 86 83
0.285156 -0.906250 0.112055 80 83 79
0.289062 -0.906250 0.111314 76 80 76
0.292969 -0.906250 0.109878 70 75 71
0.296875 -0.906250 0.108461 66 72 67
0.300781 -0.906250 0.106269 65 71 66
0.304688 -0.906250 0.102976 64 70 64
0.308594 -0.906250 0.098314 61 67 61
0.312500 -0.906250 0.092467 60 66 61
0.316406 -0.906250 0.086025 57 64 60
0.320312 -0.906250 0.078308 56 62 59
0.324219 -0.906250 0.070034 55 62 59
0.328125 -0.906250 0.059795 55 68 61
0.332031 -0.906250 0.048362 50 57 54
0.335938 -0.906250 0.023720 49 48 54
-0.449219 -0.910156 0.069835 37 43 37
-0.445312 -0.910156 0.076382 108 120 115
-0.441406 -0.910156 0.078916 101 103 119
-0.437500 -0.910156 0.077920 101 111 113
-0.433594 -0.910156 0.079496 75 87 90
-0.429688 -0.910156 0.079366 89 94 100
-0.425781 -0.910156 0.079526 97 101 104
-0.421875 -0.910156 0.080241 94 100 101
-0.417969 -0.910156 0.080657 90 96 98
-0.414062 -0.910156 0.081658 90 95 98
-0.410156 -0.910156 0.082524 94 99 100
-0.406250 -0.910156 0.083480 92 98 99
-0.402344 -0.910156 0.084071 93 98 99
-0.398438 -0.910156 0.084189 92 98 98
-0.394531 -0.910156 0.084061 88 94 94
-0.390625 -0.910156 0.083558 91 96 96
-0.386719 -0.910156 0.083137 92 97 96
-0.382812 -0.910156 0.082614 93 97 96
-0.378906 -0.910156 0.082049 92 96 94
-0.375000 -0.910156 0.081289 92 94 92
-0.371094 -0.910156 0.080522 92 94 91
-0.367188 -0.910156 0.079653 91 92 90
-0.363281 -0.910156 0.078529 88 88 86
-0.359375 -0.910156 0.077218 85 86 82
-0.355469 -0.910156 0.075418 84 85 81
-0.351562 -0.910156 0.072445 81 81 77
-0.347656 -0.910156 0.068866 76 77 72
-0.343750 -0.910156 0.064869 70 71 66
-0.339844 -0.910156 0.060506 62 64 60
-0.335938 -0.910156 0.054643 56 59 56
-0.332031 -0.910156 0.047362 54 57 55
-0.328125 -0.910156 0.038191 49 53 51
-0.324219 -0.910156 0.029543 43 47 47
-0.320312 -0.910156 0.022227 44 47 48
-0.316406 -0.910156 0.015277 45 47 48
-0.312500 -0.910156 0.008935 39 39 42
-0.308594 -0.910156 0.002050 33 33 36
-0.304688 -0.910156 -0.004610 27 27 30
-0.300781 -0.910156 -0.011709 23 23 26
-0.296875 -0.910156 -0.019144 27 29 30
-0.292969 -0.910156 -0.026188 29 33 32
-0.289062 -0.910156 -0.032591 38 38 37
-0.285156 -0.910156 -0.038237 43 41 41
-0.281250 -0.910156 -0.050316 32 32 35
-0.277344 -0.910156 -0.075195 20 16 17
0.183594 -0.910156 0.047357 23 24 28
0.187500 -0.910156 0.059033 33 41 53
0.191406 -0.910156 0.065989 29 33 45
0.195312 -0.910156 0.070270 31 33 45
0.199219 -0.910156 0.074290 37 39 48
0.203125 -0.910156 0.078502 43 46 54
0.207031 -0.910156 0.079361 48 53 62
0.210938 -0.910156 0.082646 55 62 68
0.214844 -0.910156 0.082685 58 65 66
0.218750 -0.910156 0.084444 59 65 66
0.222656 -0.910156 0.085146 65 70 74
0.226562 -0.910156 0.086041 65 73 75
0.230469 -0.910156 0.087468 67 74 75
0.234375 -0.910156 0.089354 68 73 75
0.238281 -0.910156 0.092381 70 75 76
0.242188 -0.910156 0.096780 74 77 79
0.246094 -0.910156 0.101453 76 79 80
0.250000 -0.910156 0.105734 80 83 83
0.253906 -0.910156 0.108762 84 85 85
0.257812 -0.910156 0.110671 85 86 85
0.261719 -0.910156 0.112038 86 86 85
0.265625 -0.910156 0.113240 86 87 85
0.269531 -0.910156 0.114354 88 89 86
0.273438 -0.910156 0.115093 86 88 85
0.277344 -0.910156 0.115643 86 88 85
0.281250 -0.910156 0.115710 83 86 82
0.285156 -0.910156 0.115266 78 81 78
0.289062 -0.910156 0.114677 74 78 74
0.292969 -0.910156 0.113571 69 75 70
0.296875 -0.910156 0.112010 65 71 66
0.300781 -0.910156 0.110160 62 68 63
0.304688 -0.910156 0.106996 58 64 59
0.308594 -0.910156 0.102571 58 64 58
0.312500 -0.910156 0.096533 56 63 58
0.316406 -0.910156 0.089607 54 61 57
0.320312 -0.910156 0.081170 54 61 57
0.324219 -0.910156 0.071843 55 62 59
0.328125 -0.910156 0.061735 59 67 62
0.332031 -0.910156 0.050506 44 51 49
0.335938 -0.910156 0.041325 52 64 57
0.339844 -0.910156 0.021171 60 77 73
-0.453125 -0.914062 0.080579 57 84 93
-0.449219 -0.914062 0.078489 104 103 112
-0.445312 -0.914062 0.080043 94 93 108
-0.441406 -0.914062 0.081202 78 82 103
-0.437500 -0.914062 0.081634 90 98 112
-0.433594 -0.914062 0.082450 83 94 101
-0.429688 -0.914062 0.082560 91 99 103
-0.425781 -0.914062 0.082009 89 96 99
-0.421875 -0.914062 0.082981 88 95 96
-0.417969 -0.914062 0.083687 86 93 94
-0.414062 -0.914062 0.084469 89 95 95
-0.410156 -0.914062 0.085229 92 97 97
-0.406250 -0.914062 0.086033 90 96 96
-0.402344 -0.914062 0.086512 89 95 95
-0.398438 -0.914062 0.086476 88 95 94
-0.394531 -0.914062 0.086281 86 93 93
-0.390625 -0.914062 0.085831 89 96 95
-0.386719 -0.914062 0.085463 89 95 94
-0.382812 -0.914062 0.085015 90 95 93
-0.378906 -0.914062 0.084507 90 94 92
-0.375000 -0.914062 0.083756 90 93 91
-0.371094 -0.914062 0.082901 92 94 91
-0.367188 -0.914062 0.081894 92 92 90
-0.363281 -0.914062 0.080556 88 88 85
-0.359375 -0.914062 0.079062 85 86 83
-0.355469 -0.914062 0.077035 84 85 81
-0.351562 -0.914062 0.073502 79 80 76
-0.347656 -0.914062 0.069155 72 73 68
-0.343750 -0.914062 0.064422 64 65 61
-0.339844 -0.914062 0.059730 57 59 56
-0.335938 -0.914062 0.054234 52 54 52
-0.332031 -0.914062 0.047840 49 53 51
-0.328125 -0.914062 0.040057 49 53 51
-0.324219 -0.914062 0.032188 49 53 52
-0.320312 -0.914062 0.024600 50 52 52
-0.316406 -0.914062 0.016893 45 46 48
-0.312500 -0.914062 0.009424 35 35 38
-0.308594 -0.914062 0.001140 30 30 34
-0.304688 -0.914062 -0.006706 26 26 30
-0.300781 -0.914062 -0.015234 22 23 26
-0.296875 -0.914062 -0.022297 24 27 27
-0.292969 -0.914062 -0.026715 19 21 22
-0.289062 -0.914062 -0.033546 22 21 24
-0.285156 -0.914062 -0.051130 32 28 31
-0.281250 -0.914062 -0.076641 16 14 16
-0.277344 -0.914062 -0.089811 2 1 1
0.183594 -0.914062 0.046288 23 24 28
0.187500 -0.914062 0.058778 34 42 53
0.191406 -0.914062 0.065164 30 34 46
0.195312 -0.914062 0.069291 32 33 44
0.199219 -0.914062 0.073161 34 34 43
0.203125 -0.914062 0.077020 37 37 45
0.207031 -0.914062 0.078930 43 45 51
0.210938 -0.914062 0.080880 55 58 62
0.214844 -0.914062 0.083018 62 66 71
0.218750 -0.914062 0.084349 61 64 70
0.222656 -0.914062 0.085301 61 65 68
0.226562 -0.914062 0.086684 63 69 71
0.230469 -0.914062 0.088449 67 73 76
0.234375 -0.914062 0.090589 70 75 78
0.238281 -0.914062 0.093831 74 77 80
0.242188 -0.914062 0.098309 77 80 82
0.246094 -0.914062 0.103057 77 80 81
0.250000 -0.914062 0.107391 78 80 81
0.253906 -0.914062 0.110552 80 82 82
0.257812 -0.914062 0.112642 83 84 83
0.261719 -0.914062 0.114170 85 86 84
0.265625 -0.914062 0.115535 85 87 84
0.269531 -0.914062 0.116757 87 88 85
0.273438 -0.914062 0.117559 86 88 85
0.277344 -0.914062 0.118191 85 88 85
0.281250 -0.914062 0.118420 84 87 84
0.285156 -0.914062 0.118207 80 84 80
0.289062 -0.914062 0.117855 76 82 77
0.292969 -0.914062 0.116995 72 79 74
0.296875 -0.914062 0.115479 69 76 71
0.300781 -0.914062 0.113560 65 72 67
0.304688 -0.914062 0.110578 60 67 62
0.308594 -0.914062 0.106477 59 66 61
0.312500 -0.914062 0.100841 57 65 60
0.316406 -0.914062 0.093612 56 64 59
0.320312 -0.914062 0.084311 54 62 58
0.324219 -0.914062 0.074672 54 61 58
0.328125 -0.914062 0.064319 57 64 60
0.332031 -0.914062 0.054169 46 53 48
0.335938 -0.914062 0.045424 56 70 58
0.339844 -0.914062 0.036775 37 50 48
0.343750 -0.914062 0.026740 14 17 24
-0.457031 -0.917969 0.082396 171 176 179
-0.453125 -0.917969 0.085206 155 175 184
-0.449219 -0.917969 0.083336 90 98 115
-0.445312 -0.917969 0.084368 81 91 98
-0.441406 -0.917969 0.084988 87 101 102
-0.437500 -0.917969 0.084776 97 106 111
-0.433594 -0.917969 0.084409 89 97 103
-0.429688 -0.917969 0.084679 88 96 99
-0.425781 -0.917969 0.084687 88 97 98
-0.421875 -0.917969 0.085506 90 97 97
-0.417969 -0.917969 0.086210 87 93 93
-0.414062 -0.917969 0.086884 87 93 92
-0.410156 -0.917969 0.087606 88 94 92
-0.406250 -0.917969 0.088303 86 93 91
-0.402344 -0.917969 0.088525 85 93 91
-0.398438 -0.917969 0.088407 84 93 91
-0.394531 -0.917969 0.088178 84 93 91
-0.390625 -0.917969 0.087695 88 96 94
-0.386719 -0.917969 0.087264 89 95 93
-0.382812 -0.917969 0.086841 88 94 91
-0.378906 -0.917969 0.086373 87 91 89
-0.375000 -0.917969 0.085585 86 89 87
-0.371094 -0.917969 0.084691 88 91 88
-0.367188 -0.917969 0.083489 87 88 86
-0.363281 -0.917969 0.081864 84 84 81
-0.359375 -0.917969 0.080158 85 86 83
-0.355469 -0.917969 0.077796 85 86 82
-0.351562 -0.917969 0.074026 77 78 74
-0.347656 -0.917969 0.069406 67 69 64
-0.343750 -0.917969 0.064518 61 63 59
-0.339844 -0.917969 0.059699 57 60 56
-0.335938 -0.917969 0.054523 52 55 52
-0.332031 -0.917969 0.048682 49 52 50
-0.328125 -0.917969 0.041660 47 51 50
-0.324219 -0.917969 0.034120 47 50 50
-0.320312 -0.917969 0.026595 42 45 46
-0.316406 -0.917969 0.018965 34 36 39
-0.312500 -0.917969 0.010565 27 29 34
-0.308594 -0.917969 0.001248 28 28 32
-0.304688 -0.917969 -0.009672 27 28 31
-0.300781 -0.917969 -0.018762 28 31 32
-0.296875 -0.917969 -0.027291 45 46 43
-0.292969 -0.917969 -0.041600 37 38 39
-0.289062 -0.917969 -0.065230 16 16 19
-0.285156 -0.917969 -0.089740 4 3 3
0.183594 -0.917969 0.046867 28 28 30
0.187500 -0.917969 0.058736 41 47 56
0.191406 -0.917969 0.064066 35 38 48
0.195312 -0.917969 0.069339 34 35 45
0.199219 -0.917969 0.073526 32 32 42
0.203125 -0.917969 0.076510 32 31 41
0.207031 -0.917969 0.078614 36 36 44
0.210938 -0.917969 0.079843 48 49 54
0.214844 -0.917969 0.082238 59 61 72
0.218750 -0.917969 0.083574 60 64 73
0.222656 -0.917969 0.085314 57 63 64
0.226562 -0.917969 0.086906 58 63 65
0.230469 -0.917969 0.089109 64 67 73
0.234375 -0.917969 0.091625 70 73 78
0.238281 -0.917969 0.095133 74 76 80
0.242188 -0.917969 0.099737 75 77 80
0.246094 -0.917969 0.104511 76 78 81
0.250000 -0.917969 0.108900 76 78 79
0.253906 -0.917969 0.112264 79 81 80
0.257812 -0.917969 0.114636 81 83 82
0.261719 -0.917969 0.116427 83 85 83
0.265625 -0.917969 0.117997 85 87 84
0.269531 -0.917969 0.119368 86 88 85
0.273438 -0.917969 0.120259 85 88 85
0.277344 -0.917969 0.120956 84 88 84
0.281250 -0.917969 0.121337 83 87 83
0.285156 -0.917969 0.121308 80 86 81
0.289062 -0.917969 0.121014 79 86 80
0.292969 -0.917969 0.120194 77 85 79
0.296875 -0.917969 0.118860 76 85 78
0.300781 -0.917969 0.116873 74 82 76
0.304688 -0.917969 0.113832 68 77 71
0.308594 -0.917969 0.109742 68 76 70
0.312500 -0.917969 0.104350 65 74 68
0.316406 -0.917969 0.097221 66 74 69
0.320312 -0.917969 0.087782 64 72 67
0.324219 -0.917969 0.077634 61 69 64
0.328125 -0.917969 0.067252 62 70 66
0.332031 -0.917969 0.057139 59 67 62
0.335938 -0.917969 0.048191 80 91 78
0.339844 -0.917969 0.039060 47 60 57
0.343750 -0.917969 0.030674 32 45 45
0.347656 -0.917969 0.023581 67 81 75
-0.460938 -0.921875 0.085426 84 83 97
-0.457031 -0.921875 0.086349 167 153 170
-0.453125 -0.921875 0.085272 104 105 134
-0.449219 -0.921875 0.086361 68 75 99
-0.445312 -0.921875 0.086986 77 85 101
-0.441406 -0.921875 0.087378 86 96 104
-0.437500 -0.921875 0.087307 89 99 105
-0.433594 -0.921875 0.086544 85 94 100
-0.429688 -0.921875 0.086781 84 93 97
-0.425781 -0.921875 0.087000 86 96 96
-0.421875 -0.921875 0.087612 86 94 93
-0.417969 -0.921875 0.088374 84 90 90
-0.414062 -0.921875 0.089048 84 90 89
-0.410156 -0.921875 0.089802 85 91 90
-0.406250 -0.921875 0.090396 86 94 91
-0.402344 -0.921875 0.090467 84 93 91
-0.398438 -0.921875 0.090286 85 96 92
-0.394531 -0.921875 0.089979 85 95 92
-0.390625 -0.921875 0.089415 88 97 93
-0.386719 -0.921875 0.088900 88 95 92
-0.382812 -0.921875 0.088443 87 92 89
-0.378906 -0.921875 0.087916 85 89 86
-0.375000 -0.921875 0.087024 83 87 84
-0.371094 -0.921875 0.085974 84 87 84
-0.367188 -0.921875 0.084572 80 82 79
-0.363281 -0.921875 0.082713 76 78 75
-0.359375 -0.921875 0.080729 82 83 79
-0.355469 -0.921875 0.078039 82 83 78
-0.351562 -0.921875 0.074325 74 74 70
-0.347656 -0.921875 0.069853 66 67 63
-0.343750 -0.921875 0.065220 62 64 60
-0.339844 -0.921875 0.060465 59 62 58
-0.335938 -0.921875 0.055334 53 56 54
-0.332031 -0.921875 0.049518 50 53 52
-0.328125 -0.921875 0.042732 47 51 51
-0.324219 -0.921875 0.035438 48 51 51
-0.320312 -0.921875 0.028163 45 49 50
-0.316406 -0.921875 0.020797 40 42 46
-0.312500 -0.921875 0.011974 39 41 45
-0.308594 -0.921875 0.000726 38 39 42
-0.304688 -0.921875 -0.009786 36 38 38
-0.300781 -0.921875 -0.020819 27 30 32
-0.296875 -0.921875 -0.045479 31 30 34
-0.292969 -0.921875 -0.076736 24 23 29
-0.289062 -0.921875 -0.089290 1 1 2
0.187500 -0.921875 0.057314 42 44 58
0.191406 -0.921875 0.064563 36 37 48
0.195312 -0.921875 0.069934 30 31 41
0.199219 -0.921875 0.073313 29 31 41
0.203125 -0.921875 0.075480 29 30 42
0.207031 -0.921875 0.077147 32 34 44
0.210938 -0.921875 0.079622 40 42 50
0.214844 -0.921875 0.081221 54 56 65
0.218750 -0.921875 0.084429 60 64 73
0.222656 -0.921875 0.084913 62 66 71
0.226562 -0.921875 0.086841 66 69 74
0.230469 -0.921875 0.089384 68 70 76
0.234375 -0.921875 0.092375 72 74 79
0.238281 -0.921875 0.096303 72 74 80
0.242188 -0.921875 0.101140 71 74 79
0.246094 -0.921875 0.106111 75 77 80
0.250000 -0.921875 0.110615 74 76 77
0.253906 -0.921875 0.114121 77 79 79
0.257812 -0.921875 0.116760 78 79 79
0.261719 -0.921875 0.118834 80 82 81
0.265625 -0.921875 0.120641 84 86 84
0.269531 -0.921875 0.122215 86 88 85
0.273438 -0.921875 0.123249 86 89 86
0.277344 -0.921875 0.124029 85 89 85
0.281250 -0.921875 0.124502 83 88 83
0.285156 -0.921875 0.124580 81 87 81
0.289062 -0.921875 0.124327 80 88 81
0.292969 -0.921875 0.123533 78 87 80
0.296875 -0.921875 0.122195 76 85 78
0.300781 -0.921875 0.120089 74 82 76
0.304688 -0.921875 0.116890 68 77 71
0.308594 -0.921875 0.112696 66 74 69
0.312500 -0.921875 0.107394 63 70 65
0.316406 -0.921875 0.100316 64 72 66
0.320312 -0.921875 0.090970 62 70 65
0.324219 -0.921875 0.080523 61 69 64
0.328125 -0.921875 0.069501 64 71 66
0.332031 -0.921875 0.059651 62 68 64
0.335938 -0.921875 0.050852 73 81 72
0.339844 -0.921875 0.042309 52 60 57
0.343750 -0.921875 0.034322 46 59 55
0.347656 -0.921875 0.026602 50 60 60
0.351562 -0.921875 0.020684 36 37 46
-0.464844 -0.925781 0.080651 7 4 8
-0.460938 -0.925781 0.082649 183 170 188
-0.457031 -0.925781 0.087415 143 135 159
-0.453125 -0.925781 0.089484 86 91 111
-0.449219 -0.925781 0.089237 91 99 114
-0.445312 -0.925781 0.089308 89 98 109
-0.441406 -0.925781 0.088628 92 101 109
-0.437500 -0.925781 0.088433 92 101 107
-0.433594 -0.925781 0.088113 90 101 105
-0.429688 -0.925781 0.088208 89 99 101
-0.425781 -0.925781 0.088442 90 98 98
-0.421875 -0.925781 0.089118 88 96 95
-0.417969 -0.925781 0.090046 89 96 95
-0.414062 -0.925781 0.090870 89 96 94
-0.410156 -0.925781 0.091660 91 98 95
-0.406250 -0.925781 0.092129 93 101 98
-0.402344 -0.925781 0.092145 91 100 97
-0.398438 -0.925781 0.091879 95 105 100
-0.394531 -0.925781 0.091474 94 104 99
-0.390625 -0.925781 0.090805 94 103 98
-0.386719 -0.925781 0.090188 93 100 95
-0.382812 -0.925781 0.089668 91 96 92
-0.378906 -0.925781 0.089043 88 92 89
-0.375000 -0.925781 0.088060 86 90 87
-0.371094 -0.925781 0.086876 86 89 86
-0.367188 -0.925781 0.085210 80 82 79
-0.363281 -0.925781 0.083051 75 76 73
-0.359375 -0.925781 0.080756 77 78 74
-0.355469 -0.925781 0.077891 74 75 71
-0.351562 -0.925781 0.074238 68 69 66
-0.347656 -0.925781 0.070208 65 66 63
-0.343750 -0.925781 0.065865 64 66 62
-0.339844 -0.925781 0.061089 59 62 59
-0.335938 -0.925781 0.055799 52 56 54
-0.332031 -0.925781 0.049643 49 53 52
-0.328125 -0.925781 0.042845 45 49 49
-0.324219 -0.925781 0.035810 46 50 51
-0.320312 -0.925781 0.028824 45 49 51
-0.316406 -0.925781 0.021121 40 44 47
-0.312500 -0.925781 0.011324 40 44 48
-0.308594 -0.925781 -0.000471 31 35 38
-0.304688 -0.925781 -0.015880 41 43 42
-0.300781 -0.925781 -0.052216 38 40 40
-0.296875 -0.925781 -0.078797 15 17 20
0.187500 -0.925781 0.056370 32 34 49
0.191406 -0.925781 0.063156 41 41 50
0.195312 -0.925781 0.070879 30 29 38
0.199219 -0.925781 0.072072 30 31 43
0.203125 -0.925781 0.074873 34 36 49
0.207031 -0.925781 0.076656 37 41 53
0.210938 -0.925781 0.078433 39 44 56
0.214844 -0.925781 0.080432 48 54 64
0.218750 -0.925781 0.083519 58 64 71
0.222656 -0.925781 0.084334 66 70 76
0.226562 -0.925781 0.086582 75 79 84
0.230469 -0.925781 0.089357 74 80 82
0.234375 -0.925781 0.092897 73 78 81
0.238281 -0.925781 0.097390 70 74 79
0.242188 -0.925781 0.102545 68 74 77
0.246094 -0.925781 0.107751 73 76 76
0.250000 -0.925781 0.112355 75 75 75
0.253906 -0.925781 0.115885 79 79 81
0.257812 -0.925781 0.118725 79 80 81
0.261719 -0.925781 0.121086 82 84 83
0.265625 -0.925781 0.123165 87 89 87
0.269531 -0.925781 0.125010 88 90 87
0.273438 -0.925781 0.126270 88 91 88
0.277344 -0.925781 0.127246 88 91 87
0.281250 -0.925781 0.127900 84 89 84
0.285156 -0.925781 0.128129 82 87 81
0.289062 -0.925781 0.127973 80 87 80
0.292969 -0.925781 0.127222 76 84 76
0.296875 -0.925781 0.125806 72 80 73
0.300781 -0.925781 0.123592 70 78 72
0.304688 -0.925781 0.120339 68 75 70
0.308594 -0.925781 0.116041 65 72 67
0.312500 -0.925781 0.110713 59 67 62
0.316406 -0.925781 0.103757 59 66 61
0.320312 -0.925781 0.094561 57 64 59
0.324219 -0.925781 0.084182 57 64 59
0.328125 -0.925781 0.072936 60 66 62
0.332031 -0.925781 0.062512 56 62 59
0.335938 -0.925781 0.053710 60 66 62
0.339844 -0.925781 0.045400 55 62 59
0.343750 -0.925781 0.036813 66 74 70
0.347656 -0.925781 0.028801 48 56 57
0.351562 -0.925781 0.021783 44 55 56
0.355469 -0.925781 0.013294 57 74 76
-0.464844 -0.929688 0.080856 8 4 11
-0.460938 -0.929688 0.083513 143 115 150
-0.457031 -0.929688 0.089396 109 102 135
-0.453125 -0.929688 0.090144 86 92 116
-0.449219 -0.929688 0.090089 110 119 134
-0.445312 -0.929688 0.090475 99 110 121
-0.441406 -0.929688 0.089549 101 112 119
-0.437500 -0.929688 0.089259 96 108 113
-0.433594 -0.929688 0.089137 94 106 109
-0.429688 -0.929688 0.089130 94 105 106
-0.425781 -0.929688 0.089601 93 102 102
-0.421875 -0.929688 0.090455 91 100 99
-0.417969 -0.929688 0.091564 95 103 101
-0.414062 -0.929688 0.092542 94 102 100
-0.410156 -0.929688 0.093352 95 103 100
-0.406250 -0.929688 0.093788 97 106 103
-0.402344 -0.929688 0.093761 95 104 100
-0.398438 -0.929688 0.093391 99 109 103
-0.394531 -0.929688 0.092860 98 107 102
-0.390625 -0.929688 0.092064 97 106 99
-0.386719 -0.929688 0.091308 97 104 98
-0.382812 -0.929688 0.090696 94 99 95
-0.378906 -0.929688 0.089970 89 94 91
-0.375000 -0.929688 0.088884 86 91 87
-0.371094 -0.929688 0.087523 87 90 86
-0.367188 -0.929688 0.085600 82 84 80
-0.363281 -0.929688 0.083195 76 78 74
-0.359375 -0.929688 0.080639 76 77 73
-0.355469 -0.929688 0.077678 73 74 70
-0.351562 -0.929688 0.074131 70 71 67
-0.347656 -0.929688 0.070362 68 70 66
-0.343750 -0.929688 0.066319 67 69 65
-0.339844 -0.929688 0.061485 64 67 63
-0.335938 -0.929688 0.055931 58 63 60
-0.332031 -0.929688 0.049485 56 60 58
-0.328125 -0.929688 0.042618 47 51 52
-0.324219 -0.929688 0.035774 46 50 51
-0.320312 -0.929688 0.028750 41 44 48
-0.316406 -0.929688 0.020691 33 37 42
-0.312500 -0.929688 0.010645 33 37 40
-0.308594 -0.929688 -0.002824 18 20 25
-0.304688 -0.929688 -0.035003 23 21 27
0.191406 -0.929688 0.055028 25 20 30
0.195312 -0.929688 0.068107 32 29 42
0.199219 -0.929688 0.070024 35 36 48
0.203125 -0.929688 0.072259 32 36 48
0.207031 -0.929688 0.074434 41 47 61
0.210938 -0.929688 0.076624 43 49 62
0.214844 -0.929688 0.079029 49 58 67
0.218750 -0.929688 0.081383 56 64 68
0.222656 -0.929688 0.083728 59 65 67
0.226562 -0.929688 0.086088 69 73 76
0.230469 -0.929688 0.088870 73 76 79
0.234375 -0.929688 0.093013 73 75 80
0.238281 -0.929688 0.098210 70 69 77
0.242188 -0.929688 0.103884 70 71 78
0.246094 -0.929688 0.109425 70 72 77
0.250000 -0.929688 0.114205 73 73 77
0.253906 -0.929688 0.117829 80 80 81
0.257812 -0.929688 0.120824 81 82 81
0.261719 -0.929688 0.123414 83 85 85
0.265625 -0.929688 0.125748 87 89 87
0.269531 -0.929688 0.127876 86 89 87
0.273438 -0.929688 0.129399 87 89 87
0.277344 -0.929688 0.130616 85 89 86
0.281250 -0.929688 0.131521 83 87 83
0.285156 -0.929688 0.131938 81 87 81
0.289062 -0.929688 0.131945 80 87 80
0.292969 -0.929688 0.131367 76 84 77
0.296875 -0.929688 0.130050 72 81 73
0.300781 -0.929688 0.127908 72 80 73
0.304688 -0.929688 0.124693 71 79 73
0.308594 -0.929688 0.120482 69 76 71
0.312500 -0.929688 0.115272 64 71 66
0.316406 -0.929688 0.108521 62 69 64
0.320312 -0.929688 0.099566 59 66 61
0.324219 -0.929688 0.089124 59 66 61
0.328125 -0.929688 0.077620 59 65 60
0.332031 -0.929688 0.066480 56 62 58
0.335938 -0.929688 0.056767 58 62 60
0.339844 -0.929688 0.048337 55 60 60
0.343750 -0.929688 0.039680 62 68 67
0.347656 -0.929688 0.031155 50 56 57
0.351562 -0.929688 0.022889 51 65 63
0.355469 -0.929688 0.014482 42 56 61
0.359375 -0.929688 0.005505 15 19 30
-0.464844 -0.933594 0.082820 8 7 13
-0.460938 -0.933594 0.086690 103 100 119
-0.457031 -0.933594 0.090725 108 114 133
-0.453125 -0.933594 0.091178 96 107 125
-0.449219 -0.933594 0.090242 115 126 138
-0.445312 -0.933594 0.090582 98 110 120
-0.441406 -0.933594 0.090050 104 116 123
-0.437500 -0.933594 0.089844 99 111 116
-0.433594 -0.933594 0.089733 98 110 113
-0.429688 -0.933594 0.089862 100 112 112
-0.425781 -0.933594 0.090533 98 110 109
-0.421875 -0.933594 0.091594 97 108 107
-0.417969 -0.933594 0.092880 103 113 111
-0.414062 -0.933594 0.094011 100 110 108
-0.410156 -0.933594 0.094880 100 110 108
-0.406250 -0.933594 0.095416 103 112 110
-0.402344 -0.933594 0.095404 100 109 106
-0.398438 -0.933594 0.094902 103 112 108
-0.394531 -0.933594 0.094193 102 110 106
-0.390625 -0.933594 0.093239 100 108 103
-0.386719 -0.933594 0.092322 98 105 100
-0.382812 -0.933594 0.091554 95 100 96
-0.378906 -0.933594 0.090662 93 98 94
-0.375000 -0.933594 0.089421 90 95 90
-0.371094 -0.933594 0.087814 87 91 86
-0.367188 -0.933594 0.085684 80 83 78
-0.363281 -0.933594 0.083170 75 77 73
-0.359375 -0.933594 0.080400 74 76 72
-0.355469 -0.933594 0.077326 72 73 70
-0.351562 -0.933594 0.073851 69 70 67
-0.347656 -0.933594 0.070207 66 68 65
-0.343750 -0.933594 0.066291 63 65 62
-0.339844 -0.933594 0.061262 59 62 60
-0.335938 -0.933594 0.055214 55 59 59
-0.332031 -0.933594 0.048365 53 58 57
-0.328125 -0.933594 0.041479 46 50 51
-0.324219 -0.933594 0.034908 45 49 50
-0.320312 -0.933594 0.027432 43 46 49
-0.316406 -0.933594 0.018713 40 43 45
-0.312500 -0.933594 0.009821 61 60 58
-0.308594 -0.933594 -0.015227 44 45 47
0.199219 -0.933594 0.061461 41 44 54
0.203125 -0.933594 0.066417 26 27 36
0.207031 -0.933594 0.070903 36 41 54
0.210938 -0.933594 0.074528 39 44 56
0.214844 -0.933594 0.077474 49 57 66
0.218750 -0.933594 0.080088 55 63 70
0.222656 -0.933594 0.082936 50 56 61
0.226562 -0.933594 0.085067 53 59 61
0.230469 -0.933594 0.087790 58 62 65
0.234375 -0.933594 0.092034 65 68 73
0.238281 -0.933594 0.097629 69 70 77
0.242188 -0.933594 0.104095 76 75 83
0.246094 -0.933594 0.110368 71 72 80
0.250000 -0.933594 0.115554 66 71 74
0.253906 -0.933594 0.119397 72 76 73
0.257812 -0.933594 0.122542 75 77 76
0.261719 -0.933594 0.125324 79 82 82
0.265625 -0.933594 0.127958 81 84 84
0.269531 -0.933594 0.130435 81 84 83
0.273438 -0.933594 0.132281 83 86 84
0.277344 -0.933594 0.133793 83 86 84
0.281250 -0.933594 0.135015 82 86 82
0.285156 -0.933594 0.135714 81 87 81
0.289062 -0.933594 0.135985 81 87 81
0.292969 -0.933594 0.135640 80 87 79
0.296875 -0.933594 0.134457 77 85 77
0.300781 -0.933594 0.132428 76 83 76
0.304688 -0.933594 0.129345 75 83 76
0.308594 -0.933594 0.125344 73 80 74
0.312500 -0.933594 0.120357 71 79 73
0.316406 -0.933594 0.113860 72 80 74
0.320312 -0.933594 0.105244 67 75 70
0.324219 -0.933594 0.095013 65 73 68
0.328125 -0.933594 0.083520 63 70 65
0.332031 -0.933594 0.072151 63 70 65
0.335938 -0.933594 0.061500 67 73 69
0.339844 -0.933594 0.051818 62 70 66
0.343750 -0.933594 0.042517 62 69 66
0.347656 -0.933594 0.033201 57 64 64
0.351562 -0.933594 0.023972 68 80 77
0.355469 -0.933594 0.015705 46 59 62
0.359375 -0.933594 0.008339 34 54 55
-0.464844 -0.937500 0.085834 14 16 23
-0.460938 -0.937500 0.085591 101 111 129
-0.457031 -0.937500 0.090473 93 106 127
-0.453125 -0.937500 0.092254 82 96 112
-0.449219 -0.937500 0.090577 107 119 130
-0.445312 -0.937500 0.090778 96 108 116
-0.441406 -0.937500 0.090433 109 119 124
-0.437500 -0.937500 0.090191 106 117 122
-0.433594 -0.937500 0.090200 105 117 119
-0.429688 -0.937500 0.090532 108 119 120
-0.425781 -0.937500 0.091396 106 118 117
-0.421875 -0.937500 0.092649 106 118 117
-0.417969 -0.937500 0.094029 113 124 122
-0.414062 -0.937500 0.095274 111 122 120
-0.410156 -0.937500 0.096243 113 123 122
-0.406250 -0.937500 0.096942 118 126 125
-0.402344 -0.937500 0.097007 115 122 121
-0.398438 -0.937500 0.096475 119 125 122
-0.394531 -0.937500 0.095667 119 125 122
-0.390625 -0.937500 0.094623 114 121 117
-0.386719 -0.937500 0.093574 105 111 108
-0.382812 -0.937500 0.092529 98 103 101
-0.378906 -0.937500 0.091296 97 101 98
-0.375000 -0.937500 0.089733 93 97 94
-0.371094 -0.937500 0.087767 86 90 86
-0.367188 -0.937500 0.085333 78 81 77
-0.363281 -0.937500 0.082583 76 78 74
-0.359375 -0.937500 0.079540 77 78 74
-0.355469 -0.937500 0.076359 73 74 71
-0.351562 -0.937500 0.072959 68 70 67
-0.347656 -0.937500 0.069457 64 66 63
-0.343750 -0.937500 0.065640 59 62 60
-0.339844 -0.937500 0.060410 57 61 59
-0.335938 -0.937500 0.053799 54 58 57
-0.332031 -0.937500 0.046577 51 55 55
-0.328125 -0.937500 0.039488 45 47 48
-0.324219 -0.937500 0.032577 42 44 44
-0.320312 -0.937500 0.024159 39 41 42
-0.316406 -0.937500 0.014855 29 30 33
-0.312500 -0.937500 0.004076 51 47 52
-0.308594 -0.937500 -0.032391 41 40 45
0.203125 -0.937500 0.032228 21 23 35
0.207031 -0.937500 0.058890 34 41 55
0.210938 -0.937500 0.067906 28 34 49
0.214844 -0.937500 0.072769 44 52 66
0.218750 -0.937500 0.077281 63 72 81
0.222656 -0.937500 0.081062 55 65 71
0.226562 -0.937500 0.083472 48 58 63
0.230469 -0.937500 0.086099 43 52 56
0.234375 -0.937500 0.090240 44 55 59
0.238281 -0.937500 0.096006 50 62 67
0.242188 -0.937500 0.103434 64 73 76
0.246094 -0.937500 0.110768 66 70 73
0.250000 -0.937500 0.116742 66 71 73
0.253906 -0.937500 0.121083 72 76 76
0.257812 -0.937500 0.124503 74 76 77
0.261719 -0.937500 0.127580 78 80 81
0.265625 -0.937500 0.130543 78 82 82
0.269531 -0.937500 0.133342 78 81 81
0.273438 -0.937500 0.135547 80 84 83
0.277344 -0.937500 0.137433 81 85 83
0.281250 -0.937500 0.139058 81 85 83
0.285156 -0.937500 0.140129 80 86 82
0.289062 -0.937500 0.140738 82 88 83
0.292969 -0.937500 0.140669 83 90 83
0.296875 -0.937500 0.139692 82 90 82
0.300781 -0.937500 0.137907 81 89 81
0.304688 -0.937500 0.135049 80 89 81
0.308594 -0.937500 0.131302 79 88 81
0.312500 -0.937500 0.126494 79 88 81
0.316406 -0.937500 0.120220 83 91 84
0.320312 -0.937500 0.112043 80 88 82
0.324219 -0.937500 0.102073 77 85 79
0.328125 -0.937500 0.090547 72 80 74
0.332031 -0.937500 0.078502 72 79 73
0.335938 -0.937500 0.066666 73 79 75
0.339844 -0.937500 0.055344 67 75 71
0.343750 -0.937500 0.044685 63 70 69
0.347656 -0.937500 0.034350 59 67 68
0.351562 -0.937500 0.024065 66 74 73
0.355469 -0.937500 0.015798 47 55 57
0.359375 -0.937500 0.009185 46 62 61
0.363281 -0.937500 -0.001695 46 69 68
-0.460938 -0.941406 0.085473 98 102 119
-0.457031 -0.941406 0.089674 86 96 112
-0.453125 -0.941406 0.091199 82 91 104
-0.449219 -0.941406 0.090545 106 113 122
-0.445312 -0.941406 0.090749 98 107 116
-0.441406 -0.941406 0.090271 108 117 124
-0.437500 -0.941406 0.090226 108 118 123
-0.433594 -0.941406 0.090431 108 119 122
-0.429688 -0.941406 0.090971 111 122 123
-0.425781 -0.941406 0.092067 110 122 122
-0.421875 -0.941406 0.093475 108 121 120
-0.417969 -0.941406 0.095045 112 125 123
-0.414062 -0.941406 0.096424 111 124 123
-0.410156 -0.941406 0.097574 118 129 128
-0.406250 -0.941406 0.098420 126 135 134
-0.402344 -0.941406 0.098478 127 134 133
-0.398438 -0.941406 0.097853 133 139 136
-0.394531 -0.941406 0.096919 137 142 139
-0.390625 -0.941406 0.095773 136 142 138
-0.386719 -0.941406 0.094627 125 130 127
-0.382812 -0.941406 0.093334 112 116 114
-0.378906 -0.941406 0.091730 104 108 105
-0.375000 -0.941406 0.089759 98 101 98
-0.371094 -0.941406 0.087335 88 92 88
-0.367188 -0.941406 0.084542 78 81 77
-0.363281 -0.941406 0.081474 75 77 73
-0.359375 -0.941406 0.078078 74 75 71
-0.355469 -0.941406 0.074731 70 71 68
-0.351562 -0.941406 0.071350 66 68 65
-0.347656 -0.941406 0.067938 63 66 62
-0.343750 -0.941406 0.064212 60 63 61
-0.339844 -0.941406 0.058855 59 62 61
-0.335938 -0.941406 0.051839 53 57 56
-0.332031 -0.941406 0.044453 44 48 50
-0.328125 -0.941406 0.037077 37 41 43
-0.324219 -0.941406 0.028753 33 35 38
-0.320312 -0.941406 0.018796 38 39 40
-0.316406 -0.941406 0.009718 36 39 39
-0.312500 -0.941406 -0.008805 77 81 72
0.210938 -0.941406 0.035302 16 19 33
0.214844 -0.941406 0.065010 29 32 52
0.218750 -0.941406 0.072221 50 55 73
0.222656 -0.941406 0.078198 51 62 77
0.226562 -0.941406 0.082005 44 57 70
0.230469 -0.941406 0.084513 33 43 48
0.234375 -0.941406 0.088543 27 37 36
0.238281 -0.941406 0.094406 30 44 39
0.242188 -0.941406 0.102489 44 57 51
0.246094 -0.941406 0.110699 54 59 60
0.250000 -0.941406 0.117599 67 69 75
0.253906 -0.941406 0.122643 75 78 82
0.257812 -0.941406 0.126502 73 76 79
0.261719 -0.941406 0.130001 76 80 81
0.265625 -0.941406 0.133277 78 83 83
0.269531 -0.941406 0.136268 80 84 84
0.273438 -0.941406 0.138764 84 88 88
0.277344 -0.941406 0.140995 86 91 90
0.281250 -0.941406 0.143019 88 94 92
0.285156 -0.941406 0.144505 90 97 94
0.289062 -0.941406 0.145527 95 103 98
0.292969 -0.941406 0.145822 97 106 99
0.296875 -0.941406 0.145095 96 106 98
0.300781 -0.941406 0.143620 94 104 95
0.304688 -0.941406 0.141032 92 102 93
0.308594 -0.941406 0.137572 90 100 92
0.312500 -0.941406 0.132906 87 98 90
0.316406 -0.941406 0.126786 88 98 90
0.320312 -0.941406 0.118946 86 95 87
0.324219 -0.941406 0.109196 83 93 85
0.328125 -0.941406 0.097566 79 87 80
0.332031 -0.941406 0.084807 76 84 78
0.335938 -0.941406 0.071725 73 80 75
0.339844 -0.941406 0.059446 68 76 71
0.343750 -0.941406 0.047541 66 74 71
0.347656 -0.941406 0.035225 63 70 69
0.351562 -0.941406 0.024205 61 69 69
0.355469 -0.941406 0.015972 49 57 59
0.359375 -0.941406 0.008968 66 75 70
0.363281 -0.941406 0.000220 74 86 83
-0.460938 -0.945312 0.089104 120 119 143
-0.457031 -0.945312 0.089283 104 104 127
-0.453125 -0.945312 0.090650 90 95 110
-0.449219 -0.945312 0.090390 90 100 110
-0.445312 -0.945312 0.090205 89 98 108
-0.441406 -0.945312 0.089586 96 104 114
-0.437500 -0.945312 0.089759 101 109 118
-0.433594 -0.945312 0.090183 103 112 119
-0.429688 -0.945312 0.090924 107 117 121
-0.425781 -0.945312 0.092224 109 121 122
-0.421875 -0.945312 0.093864 110 122 123
-0.417969 -0.945312 0.095613 111 125 124
-0.414062 -0.945312 0.097126 110 123 123
-0.410156 -0.945312 0.098389 115 127 128
-0.406250 -0.945312 0.099277 124 134 135
-0.402344 -0.945312 0.099202 129 135 136
-0.398438 -0.945312 0.098369 133 138 137
-0.394531 -0.945312 0.097201 138 141 140
-0.390625 -0.945312 0.095736 142 145 143
-0.386719 -0.945312 0.094320 133 136 134
-0.382812 -0.945312 0.092629 119 122 120
-0.378906 -0.945312 0.090518 109 111 108
-0.375000 -0.945312 0.088134 101 103 100
-0.371094 -0.945312 0.085370 92 94 90
-0.367188 -0.945312 0.082415 81 82 79
-0.363281 -0.945312 0.079243 74 76 73
-0.359375 -0.945312 0.075733 68 70 67
-0.355469 -0.945312 0.072423 63 65 63
-0.351562 -0.945312 0.069161 62 64 61
-0.347656 -0.945312 0.065905 61 64 60
-0.343750 -0.945312 0.062310 57 60 58
-0.339844 -0.945312 0.057057 52 56 55
-0.335938 -0.945312 0.049978 41 44 46
-0.332031 -0.945312 0.042592 35 38 42
-0.328125 -0.945312 0.034562 34 37 40
-0.324219 -0.945312 0.024605 26 29 30
-0.320312 -0.945312 0.015038 38 40 38
-0.316406 -0.945312 0.001949 46 50 49
-0.312500 -0.945312 -0.027501 62 66 52
0.214844 -0.945312 0.030594 28 35 58
0.218750 -0.945312 0.061875 32 39 60
0.222656 -0.945312 0.073083 45 58 73
0.226562 -0.945312 0.077643 43 58 65
0.230469 -0.945312 0.081565 31 42 39
0.234375 -0.945312 0.086284 20 31 22
0.238281 -0.945312 0.092723 20 35 22
0.242188 -0.945312 0.101448 31 47 33
0.246094 -0.945312 0.110168 44 51 48
0.250000 -0.945312 0.117826 61 64 70
0.253906 -0.945312 0.123762 70 74 78
0.257812 -0.945312 0.128368 69 75 77
0.261719 -0.945312 0.132387 75 80 82
0.265625 -0.945312 0.136011 82 87 86
0.269531 -0.945312 0.139160 85 90 90
0.273438 -0.945312 0.141824 91 96 95
0.277344 -0.945312 0.144323 96 101 100
0.281250 -0.945312 0.146690 101 107 105
0.285156 -0.945312 0.148588 108 115 111
0.289062 -0.945312 0.150050 115 122 117
0.292969 -0.945312 0.150772 116 124 117
0.296875 -0.945312 0.150379 113 122 114
0.300781 -0.945312 0.149259 109 119 110
0.304688 -0.945312 0.147002 104 114 105
0.308594 -0.945312 0.143887 101 111 102
0.312500 -0.945312 0.139596 96 106 97
0.316406 -0.945312 0.134067 93 104 95
0.320312 -0.945312 0.127029 91 101 92
0.324219 -0.945312 0.117726 88 99 90
0.328125 -0.945312 0.105732 83 93 85
0.332031 -0.945312 0.091757 79 88 81
0.335938 -0.945312 0.077049 74 82 76
0.339844 -0.945312 0.063069 70 78 72
0.343750 -0.945312 0.049606 70 78 73
0.347656 -0.945312 0.034847 65 73 71
0.351562 -0.945312 0.023178 59 67 68
0.355469 -0.945312 0.015629 47 54 59
0.359375 -0.945312 0.008829 58 65 65
0.363281 -0.945312 0.001590 64 68 69
0.367188 -0.945312 -0.008708 83 92 93
-0.460938 -0.949219 0.087589 94 100 119
-0.457031 -0.949219 0.087128 93 96 115
-0.453125 -0.949219 0.088511 89 95 108
-0.449219 -0.949219 0.088433 82 92 100
-0.445312 -0.949219 0.088300 91 100 107
-0.441406 -0.949219 0.087672 95 101 109
-0.437500 -0.949219 0.087971 104 110 119
-0.433594 -0.949219 0.088574 107 114 123
-0.429688 -0.949219 0.089617 105 116 121
-0.425781 -0.949219 0.091331 107 119 121
-0.421875 -0.949219 0.093309 110 122 124
-0.417969 -0.949219 0.095310 115 127 128
-0.414062 -0.949219 0.096894 116 128 129
-0.410156 -0.949219 0.097995 119 131 132
-0.406250 -0.949219 0.098568 127 136 136
-0.402344 -0.949219 0.098170 132 137 137
-0.398438 -0.949219 0.097058 133 136 136
-0.394531 -0.949219 0.095648 133 135 135
-0.390625 -0.949219 0.093815 134 136 135
-0.386719 -0.949219 0.091944 124 125 125
-0.382812 -0.949219 0.089660 109 111 110
-0.378906 -0.949219 0.086794 98 100 98
-0.375000 -0.949219 0.083982 90 91 90
-0.371094 -0.949219 0.081130 84 84 82
-0.367188 -0.949219 0.078314 76 77 75
-0.363281 -0.949219 0.075340 72 73 72
-0.359375 -0.949219 0.072026 65 67 66
-0.355469 -0.949219 0.068966 61 63 62
-0.351562 -0.949219 0.065980 62 64 62
-0.347656 -0.949219 0.063103 60 62 59
-0.343750 -0.949219 0.060019 53 56 55
-0.339844 -0.949219 0.055417 46 48 50
-0.335938 -0.949219 0.048833 33 36 40
-0.332031 -0.949219 0.040986 31 35 39
-0.328125 -0.949219 0.031165 34 38 40
-0.324219 -0.949219 0.020741 25 30 30
-0.320312 -0.949219 0.011019 50 56 51
-0.316406 -0.949219 -0.015600 39 43 47
0.218750 -0.949219 0.033970 25 33 50
0.222656 -0.949219 0.062843 57 69 79
0.226562 -0.949219 0.072822 53 62 66
0.230469 -0.949219 0.078417 44 54 53
0.234375 -0.949219 0.085701 35 48 41
0.238281 -0.949219 0.092717 32 49 37
0.242188 -0.949219 0.101471 38 55 43
0.246094 -0.949219 0.109957 43 50 51
0.250000 -0.949219 0.117419 57 59 67
0.253906 -0.949219 0.123853 66 71 75
0.257812 -0.949219 0.129362 70 77 78
0.261719 -0.949219 0.134071 77 83 83
0.265625 -0.949219 0.138274 84 90 88
0.269531 -0.949219 0.141654 86 92 90
0.273438 -0.949219 0.144422 91 96 95
0.277344 -0.949219 0.147141 96 103 102
0.281250 -0.949219 0.149841 103 110 108
0.285156 -0.949219 0.152253 112 120 117
0.289062 -0.949219 0.154391 121 130 124
0.292969 -0.949219 0.155818 122 132 125
0.296875 -0.949219 0.156129 120 130 123
0.300781 -0.949219 0.155661 118 128 120
0.304688 -0.949219 0.153890 111 121 113
0.308594 -0.949219 0.151282 108 117 110
0.312500 -0.949219 0.147771 104 113 105
0.316406 -0.949219 0.142994 102 110 102
0.320312 -0.949219 0.136349 97 106 98
0.324219 -0.949219 0.127040 93 102 94
0.328125 -0.949219 0.113889 86 94 88
0.332031 -0.949219 0.099384 80 88 82
0.335938 -0.949219 0.083884 72 80 75
0.339844 -0.949219 0.067363 67 75 70
0.343750 -0.949219 0.051342 66 73 69
0.347656 -0.949219 0.035092 60 68 66
0.351562 -0.949219 0.023070 56 65 65
0.355469 -0.949219 0.015320 51 59 62
0.359375 -0.949219 0.009124 59 67 71
0.363281 -0.949219 0.002940 60 67 71
0.367188 -0.949219 -0.005953 94 106 97
-0.460938 -0.953125 0.084025 56 60 70
-0.457031 -0.953125 0.084109 77 85 90
-0.453125 -0.953125 0.085029 74 75 84
-0.449219 -0.953125 0.085192 73 72 84
-0.445312 -0.953125 0.085090 91 91 102
-0.441406 -0.953125 0.084447 89 90 101
-0.437500 -0.953125 0.084790 98 101 110
-0.433594 -0.953125 0.085426 103 108 117
-0.429688 -0.953125 0.086588 100 109 116
-0.425781 -0.953125 0.088332 100 110 115
-0.421875 -0.953125 0.090373 102 112 116
-0.417969 -0.953125 0.092443 105 116 119
-0.414062 -0.953125 0.094070 110 121 123
-0.410156 -0.953125 0.095269 114 123 125
-0.406250 -0.953125 0.095809 118 125 127
-0.402344 -0.953125 0.095333 122 126 127
-0.398438 -0.953125 0.093910 122 124 125
-0.394531 -0.953125 0.091997 120 121 122
-0.390625 -0.953125 0.089586 119 119 121
-0.386719 -0.953125 0.086855 109 110 112
-0.382812 -0.953125 0.083840 95 96 98
-0.378906 -0.953125 0.080801 83 85 87
-0.375000 -0.953125 0.078499 77 78 79
-0.371094 -0.953125 0.076241 72 73 74
-0.367188 -0.953125 0.073882 67 68 69
-0.363281 -0.953125 0.071331 65 66 66
-0.359375 -0.953125 0.068413 59 61 61
-0.355469 -0.953125 0.065636 54 56 56
-0.351562 -0.953125 0.062916 52 53 52
-0.347656 -0.953125 0.060562 46 47 46
-0.343750 -0.953125 0.058151 39 40 41
-0.339844 -0.953125 0.054697 36 37 40
-0.335938 -0.953125 0.048702 28 32 37
-0.332031 -0.953125 0.039669 29 34 39
-0.328125 -0.953125 0.029065 36 42 42
-0.324219 -0.953125 0.019208 30 36 40
-0.320312 -0.953125 0.004027 70 82 81
0.222656 -0.953125 0.037310 40 52 76
0.226562 -0.953125 0.062143 31 41 54
0.230469 -0.953125 0.071771 41 53 63
0.234375 -0.953125 0.082462 53 64 68
0.238281 -0.953125 0.090914 61 73 73
0.242188 -0.953125 0.099634 60 72 70
0.246094 -0.953125 0.107832 49 56 60
0.250000 -0.953125 0.115079 54 57 64
0.253906 -0.953125 0.121786 57 61 67
0.257812 -0.953125 0.128361 63 68 72
0.261719 -0.953125 0.134318 70 76 77
0.265625 -0.953125 0.139790 77 84 83
0.269531 -0.953125 0.144103 79 85 85
0.273438 -0.953125 0.147639 85 92 91
0.277344 -0.953125 0.151061 93 100 99
0.281250 -0.953125 0.154492 99 107 106
0.285156 -0.953125 0.157926 110 119 117
0.289062 -0.953125 0.161257 122 131 127
0.292969 -0.953125 0.163829 125 135 129
0.296875 -0.953125 0.165189 124 134 127
0.300781 -0.953125 0.165553 122 132 125
0.304688 -0.953125 0.164489 115 123 117
0.308594 -0.953125 0.162679 113 120 114
0.312500 -0.953125 0.160338 111 117 111
0.316406 -0.953125 0.156024 106 112 106
0.320312 -0.953125 0.148528 100 107 100
0.324219 -0.953125 0.137104 94 101 95
0.328125 -0.953125 0.121713 86 93 88
0.332031 -0.953125 0.107800 78 85 81
0.335938 -0.953125 0.089168 70 78 73
0.339844 -0.953125 0.069105 65 72 68
0.343750 -0.953125 0.050194 63 70 67
0.347656 -0.953125 0.032581 59 67 65
0.351562 -0.953125 0.020862 57 65 64
0.355469 -0.953125 0.014451 53 60 61
0.359375 -0.953125 0.009141 55 62 66
0.363281 -0.953125 0.003353 46 53 59
0.367188 -0.953125 -0.005250 60 68 68
-0.460938 -0.957031 0.080552 75 60 67
-0.457031 -0.957031 0.081603 106 108 101
-0.453125 -0.957031 0.082627 66 67 69
-0.449219 -0.957031 0.082489 57 54 64
-0.445312 -0.957031 0.081578 77 73 83
-0.441406 -0.957031 0.080454 68 66 78
-0.437500 -0.957031 0.080411 74 73 84
-0.433594 -0.957031 0.080658 79 81 90
-0.429688 -0.957031 0.081416 80 84 93
-0.425781 -0.957031 0.082612 85 90 97
-0.421875 -0.957031 0.084238 87 93 99
-0.417969 -0.957031 0.086110 88 95 100
-0.414062 -0.957031 0.087772 95 101 106
-0.410156 -0.957031 0.089359 99 104 109
-0.406250 -0.957031 0.089845 101 105 109
-0.402344 -0.957031 0.089193 104 106 109
-0.398438 -0.957031 0.086908 102 103 106
-0.394531 -0.957031 0.083003 98 98 101
-0.390625 -0.957031 0.078329 99 99 101
-0.386719 -0.957031 0.074093 97 97 99
-0.382812 -0.957031 0.071742 87 87 90
-0.378906 -0.957031 0.070816 77 78 80
-0.375000 -0.957031 0.070355 73 73 75
-0.371094 -0.957031 0.069737 68 68 70
-0.367188 -0.957031 0.068543 64 64 66
-0.363281 -0.957031 0.066894 62 61 62
-0.359375 -0.957031 0.064775 56 56 57
-0.355469 -0.957031 0.062618 51 52 52
-0.351562 -0.957031 0.060501 45 45 45
-0.347656 -0.957031 0.058835 37 37 38
-0.343750 -0.957031 0.057328 31 32 34
-0.339844 -0.957031 0.054822 31 33 36
-0.335938 -0.957031 0.048790 30 33 38
-0.332031 -0.957031 0.039601 33 36 38
-0.328125 -0.957031 0.030211 46 45 42
-0.324219 -0.957031 0.016737 41 40 44
-0.320312 -0.957031 -0.006980 37 37 36
0.222656 -0.957031 -0.010930 43 57 75
0.226562 -0.957031 0.025026 32 41 56
0.230469 -0.957031 0.057909 44 55 67
0.234375 -0.957031 0.074987 41 49 59
0.238281 -0.957031 0.087564 57 62 74
0.242188 -0.957031 0.097924 66 73 81
0.246094 -0.957031 0.105917 56 64 69
0.250000 -0.957031 0.112997 54 61 65
0.253906 -0.957031 0.120146 48 53 60
0.257812 -0.957031 0.127399 55 61 66
0.261719 -0.957031 0.134427 62 69 71
0.265625 -0.957031 0.141165 71 78 77
0.269531 -0.957031 0.146574 72 79 79
0.273438 -0.957031 0.151215 80 86 85
0.277344 -0.957031 0.155562 87 93 92
0.281250 -0.957031 0.159956 90 97 96
0.285156 -0.957031 0.164613 103 111 108
0.289062 -0.957031 0.169160 117 125 121
0.292969 -0.957031 0.172834 122 131 125
0.296875 -0.957031 0.175116 125 133 127
0.300781 -0.957031 0.176304 124 131 124
0.304688 -0.957031 0.176040 116 122 116
0.308594 -0.957031 0.175037 116 121 115
0.312500 -0.957031 0.173397 115 119 114
0.316406 -0.957031 0.168971 111 116 110
0.320312 -0.957031 0.159943 105 110 103
0.324219 -0.957031 0.150934 101 107 100
0.328125 -0.957031 0.138017 91 97 92
0.332031 -0.957031 0.113037 80 86 81
0.335938 -0.957031 0.077992 71 77 72
0.339844 -0.957031 0.047804 65 70 66
0.343750 -0.957031 0.029594 63 68 65
0.347656 -0.957031 0.021321 61 66 63
0.351562 -0.957031 0.016838 58 63 61
0.355469 -0.957031 0.012662 47 53 53
0.359375 -0.957031 0.008643 41 47 51
0.363281 -0.957031 0.003863 34 40 46
0.367188 -0.957031 -0.005084 44 51 54
-0.460938 -0.960938 0.078983 74 53 57
-0.457031 -0.960938 0.079976 116 117 97
-0.453125 -0.960938 0.080490 62 67 61
-0.449219 -0.960938 0.080598 48 51 53
-0.445312 -0.960938 0.079137 61 61 66
-0.441406 -0.960938 0.077314 53 52 62
-0.437500 -0.960938 0.076603 56 56 66
-0.433594 -0.960938 0.076064 58 59 67
-0.429688 -0.960938 0.076127 61 62 71
-0.425781 -0.960938 0.076474 67 69 76
-0.421875 -0.960938 0.077331 73 75 81
-0.417969 -0.960938 0.078323 74 77 84
-0.414062 -0.960938 0.079091 79 82 90
-0.410156 -0.960938 0.079955 82 86 92
-0.406250 -0.960938 0.079797 85 88 93
-0.402344 -0.960938 0.078540 89 90 94
-0.398438 -0.960938 0.073443 89 90 93
-0.394531 -0.960938 0.065273 87 87 89
-0.390625 -0.960938 0.059368 88 88 89
-0.386719 -0.960938 0.058105 87 86 88
-0.382812 -0.960938 0.059967 80 79 80
-0.378906 -0.960938 0.062658 72 71 72
-0.375000 -0.960938 0.064847 66 64 67
-0.371094 -0.960938 0.065953 61 59 61
-0.367188 -0.960938 0.065734 56 55 56
-0.363281 -0.960938 0.064747 50 49 50
-0.359375 -0.960938 0.063210 44 43 45
-0.355469 -0.960938 0.061545 40 40 42
-0.351562 -0.960938 0.059962 34 34 36
-0.347656 -0.960938 0.058883 29 30 33
-0.343750 -0.960938 0.057964 27 28 32
-0.339844 -0.960938 0.055796 28 29 33
-0.335938 -0.960938 0.050165 28 29 34
-0.332031 -0.960938 0.041624 26 27 29
-0.328125 -0.960938 0.029366 40 36 38
-0.324219 -0.960938 0.004838 35 32 39
0.226562 -0.960938 -0.011856 29 27 47
0.230469 -0.960938 0.024875 42 49 66
0.234375 -0.960938 0.058445 28 35 49
0.238281 -0.960938 0.076475 51 58 74
0.242188 -0.960938 0.089260 63 68 81
0.246094 -0.960938 0.097654 58 67 78
0.250000 -0.960938 0.104541 57 66 75
0.253906 -0.960938 0.112395 47 53 61
0.257812 -0.960938 0.120752 50 56 61
0.261719 -0.960938 0.128907 54 60 64
0.265625 -0.960938 0.136471 62 69 70
0.269531 -0.960938 0.142377 66 73 73
0.273438 -0.960938 0.147617 74 79 79
0.277344 -0.960938 0.152387 80 85 84
0.281250 -0.960938 0.157471 80 86 85
0.285156 -0.960938 0.163150 89 95 93
0.289062 -0.960938 0.169001 100 107 103
0.292969 -0.960938 0.174171 110 117 111
0.296875 -0.960938 0.178086 119 125 118
0.300781 -0.960938 0.180819 118 123 117
0.304688 -0.960938 0.181392 111 115 110
0.308594 -0.960938 0.180335 110 114 109
0.312500 -0.960938 0.177602 110 113 108
0.316406 -0.960938 0.173382 107 111 105
0.320312 -0.960938 0.173281 101 105 98
0.324219 -0.960938 0.171001 99 102 96
0.328125 -0.960938 0.134496 88 92 86
0.332031 -0.960938 0.067546 74 78 73
0.335938 -0.960938 0.033733 66 69 64
0.339844 -0.960938 0.026461 60 61 58
0.343750 -0.960938 0.023942 55 56 53
0.347656 -0.960938 0.020258 50 51 49
0.351562 -0.960938 0.016920 43 46 45
0.355469 -0.960938 0.013292 32 35 37
0.359375 -0.960938 0.009592 27 31 36
0.363281 -0.960938 0.005510 28 34 39
0.367188 -0.960938 -0.004209 39 46 47
-0.460938 -0.964844 0.078352 67 41 53
-0.457031 -0.964844 0.078864 106 89 85
-0.453125 -0.964844 0.078768 62 58 57
-0.449219 -0.964844 0.080752 50 52 54
-0.445312 -0.964844 0.079073 55 56 63
-0.441406 -0.964844 0.076460 49 50 62
-0.437500 -0.964844 0.074996 52 53 63
-0.433594 -0.964844 0.073575 52 52 60
-0.429688 -0.964844 0.072529 55 54 62
-0.425781 -0.964844 0.071632 60 58 66
-0.421875 -0.964844 0.071163 66 65 72
-0.417969 -0.964844 0.070276 68 68 75
-0.414062 -0.964844 0.069063 71 71 79
-0.410156 -0.964844 0.068094 73 73 80
-0.406250 -0.964844 0.065406 74 74 80
-0.402344 -0.964844 0.059252 74 74 79
-0.398438 -0.964844 0.052176 76 75 79
-0.394531 -0.964844 0.048294 76 74 78
-0.390625 -0.964844 0.049297 76 73 76
-0.386719 -0.964844 0.052931 70 67 70
-0.382812 -0.964844 0.056953 61 59 61
-0.378906 -0.964844 0.060335 56 53 56
-0.375000 -0.964844 0.063615 53 50 53
-0.371094 -0.964844 0.065536 51 48 50
-0.367188 -0.964844 0.065778 48 45 47
-0.363281 -0.964844 0.065078 42 40 42
-0.359375 -0.964844 0.063914 37 35 38
-0.355469 -0.964844 0.062716 36 34 37
-0.351562 -0.964844 0.061360 33 31 33
-0.347656 -0.964844 0.060069 32 31 32
-0.343750 -0.964844 0.058345 34 34 34
-0.339844 -0.964844 0.056624 37 38 39
-0.335938 -0.964844 0.052624 43 42 42
-0.332031 -0.964844 0.045347 43 43 40
-0.328125 -0.964844 0.019952 69 66 59
0.230469 -0.964844 -0.013694 18 21 29
0.234375 -0.964844 0.022090 16 21 32
0.238281 -0.964844 0.055371 42 52 68
0.242188 -0.964844 0.071563 43 49 62
0.246094 -0.964844 0.081984 45 56 68
0.250000 -0.964844 0.090542 51 64 73
0.253906 -0.964844 0.097981 44 52 58
0.257812 -0.964844 0.107855 46 52 58
0.261719 -0.964844 0.119303 47 53 60
0.265625 -0.964844 0.129274 55 61 65
0.269531 -0.964844 0.137168 59 64 66
0.273438 -0.964844 0.144001 64 69 69
0.277344 -0.964844 0.149833 71 76 75
0.281250 -0.964844 0.155921 73 77 77
0.285156 -0.964844 0.161950 79 82 81
0.289062 -0.964844 0.168275 86 89 88
0.292969 -0.964844 0.175138 95 98 94
0.296875 -0.964844 0.180153 104 106 101
0.300781 -0.964844 0.183189 102 104 98
0.304688 -0.964844 0.184748 97 98 94
0.308594 -0.964844 0.186670 95 97 92
0.312500 -0.964844 0.187699 92 94 89
0.316406 -0.964844 0.184164 89 91 85
0.320312 -0.964844 0.151846 83 84 79
0.324219 -0.964844 0.070281 81 82 77
0.328125 -0.964844 0.027019 74 75 70
0.332031 -0.964844 0.026165 62 63 59
0.335938 -0.964844 0.029730 57 57 53
0.339844 -0.964844 0.027824 51 50 48
0.343750 -0.964844 0.024602 44 44 43
0.347656 -0.964844 0.021556 40 40 40
0.351562 -0.964844 0.019205 35 37 38
0.355469 -0.964844 0.016016 26 29 32
0.359375 -0.964844 0.013501 24 28 33
0.363281 -0.964844 0.009105 31 35 41
0.367188 -0.964844 -0.001842 44 45 48
-0.460938 -0.968750 0.075799 52 27 45
-0.457031 -0.968750 0.078751 72 47 62
-0.453125 -0.968750 0.079241 52 41 46
-0.449219 -0.968750 0.081837 52 47 51
-0.445312 -0.968750 0.079870 52 51 58
-0.441406 -0.968750 0.077548 52 52 62
-0.437500 -0.968750 0.075858 54 55 65
-0.433594 -0.968750 0.073717 52 53 61
-0.429688 -0.968750 0.071613 57 55 63
-0.425781 -0.968750 0.069434 58 56 63
