ply
    format ascii 1.0
    element vertex 76170
    property float x
    property float y
    property float z
    property uchar red
    property uchar green
    property uchar blue
    end_header
0.261719 -0.621094 0.065279 8 8 7
0.265625 -0.621094 0.058102 9 8 8
0.269531 -0.621094 0.048064 5 4 5
0.273438 -0.621094 0.035520 5 4 5
-0.199219 -0.625000 0.019646 10 9 9
-0.195312 -0.625000 0.038457 7 7 7
-0.191406 -0.625000 0.043811 10 10 9
-0.187500 -0.625000 0.046679 9 9 9
-0.183594 -0.625000 0.050445 9 10 9
-0.179688 -0.625000 0.055376 9 10 10
-0.175781 -0.625000 0.059893 10 10 10
-0.171875 -0.625000 0.063991 10 10 10
-0.167969 -0.625000 0.067175 10 10 10
-0.164062 -0.625000 0.069292 10 10 10
-0.160156 -0.625000 0.070805 10 9 10
-0.156250 -0.625000 0.071601 10 9 9
-0.152344 -0.625000 0.071791 9 8 9
-0.148438 -0.625000 0.071413 9 8 8
-0.144531 -0.625000 0.070686 9 8 8
-0.140625 -0.625000 0.069586 9 8 8
-0.136719 -0.625000 0.067807 9 8 8
-0.132812 -0.625000 0.065251 9 8 8
-0.128906 -0.625000 0.062145 9 8 8
-0.125000 -0.625000 0.058771 8 7 8
-0.121094 -0.625000 0.055309 8 7 7
-0.117188 -0.625000 0.052935 8 7 7
-0.113281 -0.625000 0.051711 7 7 7
-0.109375 -0.625000 0.051810 8 7 7
-0.105469 -0.625000 0.052854 8 7 7
-0.101562 -0.625000 0.054262 8 7 8
-0.097656 -0.625000 0.055858 8 7 8
-0.093750 -0.625000 0.057172 8 7 8
-0.089844 -0.625000 0.057971 8 7 8
-0.085938 -0.625000 0.058303 8 7 7
-0.082031 -0.625000 0.058506 8 7 7
-0.078125 -0.625000 0.058457 8 7 7
-0.074219 -0.625000 0.057992 8 7 7
-0.070312 -0.625000 0.057027 8 7 7
-0.066406 -0.625000 0.055836 8 7 7
-0.062500 -0.625000 0.054405 8 7 8
-0.058594 -0.625000 0.052105 9 8 8
-0.054688 -0.625000 0.048346 9 8 8
-0.050781 -0.625000 0.043027 9 8 8
-0.046875 -0.625000 0.036340 8 7 7
-0.042969 -0.625000 0.027945 8 7 7
-0.039062 -0.625000 0.019383 8 7 7
-0.035156 -0.625000 0.012402 10 8 8
-0.031250 -0.625000 0.006776 10 8 8
-0.027344 -0.625000 0.002923 9 7 7
-0.023438 -0.625000 -0.004643 8 6 7
0.074219 -0.625000 -0.019845 16 12 11
0.078125 -0.625000 -0.009268 16 13 11
0.082031 -0.625000 -0.001800 12 9 9
0.085938 -0.625000 0.004465 11 8 8
0.089844 -0.625000 0.010336 10 8 7
0.093750 -0.625000 0.016044 10 8 7
0.097656 -0.625000 0.021734 11 8 8
0.101562 -0.625000 0.027616 11 9 8
0.105469 -0.625000 0.033328 12 10 9
0.109375 -0.625000 0.038839 13 10 9
0.113281 -0.625000 0.044103 13 10 9
0.117188 -0.625000 0.048832 13 10 9
0.121094 -0.625000 0.053271 13 10 9
0.125000 -0.625000 0.057378 11 9 9
0.128906 -0.625000 0.061555 11 9 8
0.132812 -0.625000 0.065782 10 8 8
0.136719 -0.625000 0.069724 10 8 8
0.140625 -0.625000 0.073108 10 8 8
0.144531 -0.625000 0.075363 11 9 8
0.148438 -0.625000 0.076328 11 9 8
0.152344 -0.625000 0.076830 10 9 8
0.156250 -0.625000 0.077265 10 8 8
0.160156 -0.625000 0.077380 9 8 8
0.164062 -0.625000 0.077180 9 7 7
0.167969 -0.625000 0.076783 9 8 8
0.171875 -0.625000 0.076425 9 7 7
0.175781 -0.625000 0.076668 8 7 7
0.179688 -0.625000 0.077753 8 7 7
0.183594 -0.625000 0.079014 8 7 7
0.187500 -0.625000 0.080173 9 8 8
0.191406 -0.625000 0.081028 9 9 8
0.195312 -0.625000 0.081539 10 9 9
0.199219 -0.625000 0.082045 11 10 10
0.203125 -0.625000 0.082441 10 10 9
0.207031 -0.625000 0.082719 11 11 10
0.210938 -0.625000 0.082852 11 11 10
0.214844 -0.625000 0.082858 12 12 11
0.218750 -0.625000 0.082743 13 13 12
0.222656 -0.625000 0.082091 12 12 11
0.226562 -0.625000 0.080731 13 12 11
0.230469 -0.625000 0.079133 14 13 12
0.234375 -0.625000 0.077676 11 11 10
0.238281 -0.625000 0.076720 10 9 9
0.242188 -0.625000 0.076475 9 8 8
0.246094 -0.625000 0.076125 8 7 7
0.250000 -0.625000 0.075276 8 8 7
0.253906 -0.625000 0.073182 8 8 7
0.257812 -0.625000 0.069513 9 8 8
0.261719 -0.625000 0.064615 9 8 8
0.265625 -0.625000 0.057399 9 9 8
0.269531 -0.625000 0.047245 6 5 6
0.273438 -0.625000 0.034503 5 4 5
-0.199219 -0.628906 0.016210 8 7 8
-0.195312 -0.628906 0.035500 8 7 7
-0.191406 -0.628906 0.040999 10 11 10
-0.187500 -0.628906 0.044096 9 9 9
-0.183594 -0.628906 0.048217 9 10 9
-0.179688 -0.628906 0.053442 9 10 10
-0.175781 -0.628906 0.058086 10 10 10
-0.171875 -0.628906 0.062225 11 10 10
-0.167969 -0.628906 0.065429 11 10 10
-0.164062 -0.628906 0.067541 11 10 10
-0.160156 -0.628906 0.069033 10 10 10
-0.156250 -0.628906 0.069829 10 9 9
-0.152344 -0.628906 0.070023 10 9 9
-0.148438 -0.628906 0.069654 10 8 9
-0.144531 -0.628906 0.068911 9 8 8
-0.140625 -0.628906 0.067722 9 8 8
-0.136719 -0.628906 0.065808 9 7 8
-0.132812 -0.628906 0.063100 8 7 7
-0.128906 -0.628906 0.059873 8 7 7
-0.125000 -0.628906 0.056512 8 7 7
-0.121094 -0.628906 0.053256 8 7 7
-0.117188 -0.628906 0.051178 7 7 7
-0.113281 -0.628906 0.050160 8 7 7
-0.109375 -0.628906 0.050241 8 7 7
-0.105469 -0.628906 0.051106 8 7 7
-0.101562 -0.628906 0.052328 8 7 7
-0.097656 -0.628906 0.053780 8 7 7
-0.093750 -0.628906 0.055028 8 7 7
-0.089844 -0.628906 0.055794 8 7 8
-0.085938 -0.628906 0.056100 8 7 8
-0.082031 -0.628906 0.056267 8 7 8
-0.078125 -0.628906 0.056178 8 7 7
-0.074219 -0.628906 0.055669 8 7 7
-0.070312 -0.628906 0.054669 8 7 7
-0.066406 -0.628906 0.053380 8 7 8
-0.062500 -0.628906 0.051764 9 7 8
-0.058594 -0.628906 0.049086 9 8 8
-0.054688 -0.628906 0.044688 9 8 8
-0.050781 -0.628906 0.038852 9 7 8
-0.046875 -0.628906 0.031384 8 7 7
-0.042969 -0.628906 0.022354 8 7 7
-0.039062 -0.628906 0.014383 8 7 7
-0.035156 -0.628906 0.008329 9 7 7
-0.031250 -0.628906 0.003367 10 8 8
-0.027344 -0.628906 -0.000007 8 6 7
-0.023438 -0.628906 -0.008822 8 6 7
0.078125 -0.628906 -0.014691 13 10 10
0.082031 -0.628906 -0.004399 11 9 8
0.085938 -0.628906 0.002141 12 9 8
0.089844 -0.628906 0.007988 10 8 7
0.093750 -0.628906 0.013867 11 8 8
0.097656 -0.628906 0.019748 11 8 8
0.101562 -0.628906 0.025756 11 9 8
0.105469 -0.628906 0.031483 12 9 8
0.109375 -0.628906 0.036944 12 10 9
0.113281 -0.628906 0.042149 12 10 9
0.117188 -0.628906 0.046850 13 10 9
0.121094 -0.628906 0.051264 13 10 9
0.125000 -0.628906 0.055382 12 9 9
0.128906 -0.628906 0.059618 11 9 8
0.132812 -0.628906 0.063903 11 9 8
0.136719 -0.628906 0.067901 10 8 8
0.140625 -0.628906 0.071306 10 8 8
0.144531 -0.628906 0.073494 10 8 8
0.148438 -0.628906 0.074314 10 8 8
0.152344 -0.628906 0.074639 10 8 8
0.156250 -0.628906 0.074907 10 8 8
0.160156 -0.628906 0.074889 9 8 7
0.164062 -0.628906 0.074593 8 7 7
0.167969 -0.628906 0.074134 8 7 7
0.171875 -0.628906 0.073802 7 6 7
0.175781 -0.628906 0.074186 7 6 6
0.179688 -0.628906 0.075493 7 7 7
0.183594 -0.628906 0.076995 8 7 7
0.187500 -0.628906 0.078358 9 8 8
0.191406 -0.628906 0.079372 9 9 8
0.195312 -0.628906 0.080018 10 9 9
0.199219 -0.628906 0.080664 11 10 9
0.203125 -0.628906 0.081200 10 10 9
0.207031 -0.628906 0.081616 10 10 9
0.210938 -0.628906 0.081852 10 10 9
0.214844 -0.628906 0.081929 11 11 10
0.218750 -0.628906 0.081856 12 11 11
0.222656 -0.628906 0.081214 11 11 10
0.226562 -0.628906 0.079822 12 11 11
0.230469 -0.628906 0.078154 12 11 11
0.234375 -0.628906 0.076615 11 10 10
0.238281 -0.628906 0.075587 10 9 9
0.242188 -0.628906 0.075310 9 8 8
0.246094 -0.628906 0.075038 8 8 8
0.250000 -0.628906 0.074307 8 8 7
0.253906 -0.628906 0.072328 8 8 7
0.257812 -0.628906 0.068724 9 9 8
0.261719 -0.628906 0.063898 9 9 8
0.265625 -0.628906 0.056530 10 10 9
0.269531 -0.628906 0.046391 6 5 6
0.273438 -0.628906 0.033475 6 4 6
-0.199219 -0.632812 0.011061 9 8 8
-0.195312 -0.632812 0.031562 8 8 7
-0.191406 -0.632812 0.037398 11 12 10
-0.187500 -0.632812 0.040945 9 10 9
-0.183594 -0.632812 0.045518 10 10 10
-0.179688 -0.632812 0.051150 9 10 10
-0.175781 -0.632812 0.056015 10 10 10
-0.171875 -0.632812 0.060249 10 10 10
-0.167969 -0.632812 0.063499 10 9 9
-0.164062 -0.632812 0.065631 10 9 9
-0.160156 -0.632812 0.067137 10 9 9
-0.156250 -0.632812 0.067975 10 9 9
-0.152344 -0.632812 0.068212 10 9 9
-0.148438 -0.632812 0.067879 10 9 9
-0.144531 -0.632812 0.067136 10 9 9
-0.140625 -0.632812 0.065905 9 8 8
-0.136719 -0.632812 0.063962 8 7 7
-0.132812 -0.632812 0.061236 7 6 7
-0.128906 -0.632812 0.058041 7 6 6
-0.125000 -0.632812 0.054806 7 6 6
-0.121094 -0.632812 0.051873 7 6 7
-0.117188 -0.632812 0.050041 7 7 7
-0.113281 -0.632812 0.049121 8 7 7
-0.109375 -0.632812 0.049103 8 7 8
-0.105469 -0.632812 0.049729 8 7 7
-0.101562 -0.632812 0.050703 8 7 7
-0.097656 -0.632812 0.051951 8 7 7
-0.093750 -0.632812 0.053065 8 7 7
-0.089844 -0.632812 0.053734 8 7 7
-0.085938 -0.632812 0.053959 8 7 7
-0.082031 -0.632812 0.054058 8 7 8
-0.078125 -0.632812 0.053913 9 7 8
-0.074219 -0.632812 0.053329 9 7 8
-0.070312 -0.632812 0.052246 9 7 8
-0.066406 -0.632812 0.050683 9 8 8
-0.062500 -0.632812 0.048562 9 8 8
-0.058594 -0.632812 0.045220 9 8 8
-0.054688 -0.632812 0.040141 9 8 8
-0.050781 -0.632812 0.033160 9 8 8
-0.046875 -0.632812 0.024871 8 7 7
-0.042969 -0.632812 0.016218 8 7 7
-0.039062 -0.632812 0.009305 8 7 6
-0.035156 -0.632812 0.004198 9 7 7
-0.031250 -0.632812 0.000019 11 8 9
-0.027344 -0.632812 -0.003120 10 8 8
0.078125 -0.632812 -0.019884 10 7 7
0.082031 -0.632812 -0.008439 10 8 8
0.085938 -0.632812 -0.000428 12 9 9
0.089844 -0.632812 0.005618 10 8 7
0.093750 -0.632812 0.011590 11 8 8
0.097656 -0.632812 0.017595 11 8 8
0.101562 -0.632812 0.023789 11 9 8
0.105469 -0.632812 0.029623 11 9 8
0.109375 -0.632812 0.035107 12 9 8
0.113281 -0.632812 0.040295 11 9 8
0.117188 -0.632812 0.044969 11 9 8
0.121094 -0.632812 0.049347 11 9 8
0.125000 -0.632812 0.053412 10 8 8
0.128906 -0.632812 0.057655 11 8 8
0.132812 -0.632812 0.061984 11 9 8
0.136719 -0.632812 0.066043 10 8 8
0.140625 -0.632812 0.069457 10 9 8
0.144531 -0.632812 0.071561 11 9 8
0.148438 -0.632812 0.072221 11 9 8
0.152344 -0.632812 0.072371 10 8 8
0.156250 -0.632812 0.072486 9 8 8
0.160156 -0.632812 0.072336 9 7 7
0.164062 -0.632812 0.071947 8 7 7
0.167969 -0.632812 0.071441 8 7 7
0.171875 -0.632812 0.071152 8 6 7
0.175781 -0.632812 0.071686 8 7 7
0.179688 -0.632812 0.073220 8 7 7
0.183594 -0.632812 0.074957 9 8 8
0.187500 -0.632812 0.076523 10 9 9
0.191406 -0.632812 0.077710 11 10 9
0.195312 -0.632812 0.078520 11 10 9
0.199219 -0.632812 0.079314 11 10 9
0.203125 -0.632812 0.079987 10 9 9
0.207031 -0.632812 0.080539 10 9 9
0.210938 -0.632812 0.080888 10 10 9
0.214844 -0.632812 0.081045 12 11 11
0.218750 -0.632812 0.080997 13 12 11
0.222656 -0.632812 0.080320 12 12 11
0.226562 -0.632812 0.078852 13 12 11
0.230469 -0.632812 0.077076 12 11 11
0.234375 -0.632812 0.075426 10 9 9
0.238281 -0.632812 0.074281 10 9 9
0.242188 -0.632812 0.073920 9 8 8
0.246094 -0.632812 0.073694 8 8 7
0.250000 -0.632812 0.073064 8 8 7
0.253906 -0.632812 0.071203 8 8 7
0.257812 -0.632812 0.067614 9 9 8
0.261719 -0.632812 0.062794 10 9 8
0.265625 -0.632812 0.055242 10 10 9
0.269531 -0.632812 0.045043 6 5 6
0.273438 -0.632812 0.032072 6 5 6
-0.199219 -0.636719 0.004623 7 6 6
-0.195312 -0.636719 0.026312 7 7 6
-0.191406 -0.636719 0.032919 11 12 10
-0.187500 -0.636719 0.037331 9 10 9
-0.183594 -0.636719 0.042479 10 10 10
-0.179688 -0.636719 0.048562 10 10 10
-0.175781 -0.636719 0.053732 10 10 10
-0.171875 -0.636719 0.058063 11 10 10
-0.167969 -0.636719 0.061321 10 10 10
-0.164062 -0.636719 0.063471 10 9 9
-0.160156 -0.636719 0.064985 10 9 9
-0.156250 -0.636719 0.065878 9 9 9
-0.152344 -0.636719 0.066196 10 9 9
-0.148438 -0.636719 0.065928 10 9 9
-0.144531 -0.636719 0.065220 9 8 8
-0.140625 -0.636719 0.063999 9 8 8
-0.136719 -0.636719 0.062115 8 7 8
-0.132812 -0.636719 0.059512 8 7 7
-0.128906 -0.636719 0.056497 7 6 7
-0.125000 -0.636719 0.053574 7 6 7
-0.121094 -0.636719 0.051059 7 7 7
-0.117188 -0.636719 0.049435 8 7 7
-0.113281 -0.636719 0.048547 8 7 7
-0.109375 -0.636719 0.048392 8 7 7
-0.105469 -0.636719 0.048755 8 7 7
-0.101562 -0.636719 0.049464 8 7 7
-0.097656 -0.636719 0.050496 8 7 7
-0.093750 -0.636719 0.051453 8 7 7
-0.089844 -0.636719 0.051991 8 7 7
-0.085938 -0.636719 0.052086 8 7 7
-0.082031 -0.636719 0.052065 9 7 8
-0.078125 -0.636719 0.051826 9 7 8
-0.074219 -0.636719 0.051138 9 7 8
-0.070312 -0.636719 0.049948 9 7 8
-0.066406 -0.636719 0.047945 9 7 8
-0.062500 -0.636719 0.045013 9 7 8
-0.058594 -0.636719 0.040742 9 7 8
-0.054688 -0.636719 0.034252 9 8 8
-0.050781 -0.636719 0.025458 9 8 8
-0.046875 -0.636719 0.017160 8 7 7
-0.042969 -0.636719 0.009893 8 7 7
-0.039062 -0.636719 0.004246 8 7 7
-0.035156 -0.636719 0.000258 10 7 8
-0.031250 -0.636719 -0.003252 11 8 9
-0.027344 -0.636719 -0.007137 8 5 6
0.082031 -0.636719 -0.013878 12 9 9
0.085938 -0.636719 -0.003700 12 10 9
0.089844 -0.636719 0.003065 10 8 8
0.093750 -0.636719 0.009144 12 9 8
0.097656 -0.636719 0.015241 12 9 8
0.101562 -0.636719 0.021729 12 9 8
0.105469 -0.636719 0.027754 12 9 8
0.109375 -0.636719 0.033346 12 9 9
0.113281 -0.636719 0.038574 11 9 8
0.117188 -0.636719 0.043184 11 9 8
0.121094 -0.636719 0.047491 10 8 8
0.125000 -0.636719 0.051466 10 8 7
0.128906 -0.636719 0.055635 9 8 7
0.132812 -0.636719 0.059977 10 8 8
0.136719 -0.636719 0.064092 10 8 8
0.140625 -0.636719 0.067511 10 8 8
0.144531 -0.636719 0.069550 10 8 8
0.148438 -0.636719 0.070096 10 8 8
0.152344 -0.636719 0.070108 9 7 7
0.156250 -0.636719 0.070114 9 7 7
0.160156 -0.636719 0.069867 8 7 7
0.164062 -0.636719 0.069407 8 6 6
0.167969 -0.636719 0.068868 7 6 6
0.171875 -0.636719 0.068626 7 6 6
0.175781 -0.636719 0.069291 7 6 6
0.179688 -0.636719 0.071015 8 7 7
0.183594 -0.636719 0.072945 9 8 8
0.187500 -0.636719 0.074670 10 9 9
0.191406 -0.636719 0.076022 10 9 9
0.195312 -0.636719 0.076995 10 9 9
0.199219 -0.636719 0.077945 10 9 8
0.203125 -0.636719 0.078759 9 8 8
0.207031 -0.636719 0.079448 9 8 8
0.210938 -0.636719 0.079906 10 10 9
0.214844 -0.636719 0.080133 12 12 11
0.218750 -0.636719 0.080084 13 12 11
0.222656 -0.636719 0.079350 12 12 11
0.226562 -0.636719 0.077770 13 12 11
0.230469 -0.636719 0.075844 12 10 10
0.234375 -0.636719 0.074052 10 9 9
0.238281 -0.636719 0.072751 9 8 8
0.242188 -0.636719 0.072286 8 8 8
0.246094 -0.636719 0.072075 7 7 7
0.250000 -0.636719 0.071518 7 7 7
0.253906 -0.636719 0.069756 7 7 7
0.257812 -0.636719 0.066107 8 8 7
0.261719 -0.636719 0.061153 9 8 8
0.265625 -0.636719 0.053395 10 9 9
0.269531 -0.636719 0.043065 6 5 6
0.273438 -0.636719 0.030186 6 5 6
-0.199219 -0.640625 -0.009488 10 9 9
-0.195312 -0.640625 0.019358 8 8 7
-0.191406 -0.640625 0.027879 13 13 11
-0.187500 -0.640625 0.033401 10 10 9
-0.183594 -0.640625 0.039185 10 10 10
-0.179688 -0.640625 0.045703 10 10 10
-0.175781 -0.640625 0.051245 10 10 9
-0.171875 -0.640625 0.055691 10 10 10
-0.167969 -0.640625 0.058981 10 10 10
-0.164062 -0.640625 0.061188 10 10 10
-0.160156 -0.640625 0.062748 10 9 9
-0.156250 -0.640625 0.063712 9 9 9
-0.152344 -0.640625 0.064104 10 9 9
-0.148438 -0.640625 0.063902 9 8 9
-0.144531 -0.640625 0.063246 9 8 8
-0.140625 -0.640625 0.062076 8 7 8
-0.136719 -0.640625 0.060317 8 7 7
-0.132812 -0.640625 0.057938 7 7 7
-0.128906 -0.640625 0.055220 7 6 7
-0.125000 -0.640625 0.052698 8 7 7
-0.121094 -0.640625 0.050535 8 7 8
-0.117188 -0.640625 0.049054 8 7 8
-0.113281 -0.640625 0.048143 8 7 8
-0.109375 -0.640625 0.047861 8 7 8
-0.105469 -0.640625 0.047980 8 7 7
-0.101562 -0.640625 0.048455 8 7 7
-0.097656 -0.640625 0.049322 8 7 7
-0.093750 -0.640625 0.050157 8 7 7
-0.089844 -0.640625 0.050578 9 7 7
-0.085938 -0.640625 0.050531 8 7 7
-0.082031 -0.640625 0.050383 9 7 8
-0.078125 -0.640625 0.050002 9 7 8
-0.074219 -0.640625 0.049174 9 7 8
-0.070312 -0.640625 0.047753 9 7 8
-0.066406 -0.640625 0.045024 9 7 8
-0.062500 -0.640625 0.041107 9 8 8
-0.058594 -0.640625 0.035619 9 8 8
-0.054688 -0.640625 0.027405 9 8 8
-0.050781 -0.640625 0.018123 9 8 8
-0.046875 -0.640625 0.010672 8 7 7
-0.042969 -0.640625 0.004835 8 7 7
-0.039062 -0.640625 0.000151 8 7 7
-0.035156 -0.640625 -0.002961 10 7 8
-0.031250 -0.640625 -0.006281 10 7 9
-0.027344 -0.640625 -0.011090 6 4 6
0.082031 -0.640625 -0.018873 13 10 10
0.085938 -0.640625 -0.007117 14 12 10
0.089844 -0.640625 0.000470 13 10 9
0.093750 -0.640625 0.006560 14 11 10
0.097656 -0.640625 0.012787 13 10 9
0.101562 -0.640625 0.019708 12 10 8
0.105469 -0.640625 0.026044 11 9 8
0.109375 -0.640625 0.031815 11 8 8
0.113281 -0.640625 0.037072 10 8 8
0.117188 -0.640625 0.041596 10 8 7
0.121094 -0.640625 0.045766 10 8 7
0.125000 -0.640625 0.049633 9 7 7
0.128906 -0.640625 0.053701 9 7 7
0.132812 -0.640625 0.058001 10 8 8
0.136719 -0.640625 0.062117 10 8 8
0.140625 -0.640625 0.065543 10 8 8
0.144531 -0.640625 0.067568 9 8 8
0.148438 -0.640625 0.068058 9 7 7
0.152344 -0.640625 0.067991 8 7 7
0.156250 -0.640625 0.067937 8 7 7
0.160156 -0.640625 0.067635 8 6 6
0.164062 -0.640625 0.067131 7 6 6
0.167969 -0.640625 0.066584 7 5 6
0.171875 -0.640625 0.066397 6 5 6
0.175781 -0.640625 0.067152 7 6 6
0.179688 -0.640625 0.068990 8 6 7
0.183594 -0.640625 0.071030 8 7 7
0.187500 -0.640625 0.072864 9 8 8
0.191406 -0.640625 0.074349 10 9 9
0.195312 -0.640625 0.075478 10 9 9
0.199219 -0.640625 0.076600 10 9 9
0.203125 -0.640625 0.077567 10 8 8
0.207031 -0.640625 0.078384 9 8 8
0.210938 -0.640625 0.078916 11 10 10
0.214844 -0.640625 0.079179 13 12 11
0.218750 -0.640625 0.079111 13 12 11
0.222656 -0.640625 0.078282 12 12 11
0.226562 -0.640625 0.076551 12 12 11
0.230469 -0.640625 0.074459 11 10 9
0.234375 -0.640625 0.072513 9 8 8
0.238281 -0.640625 0.071025 8 7 7
0.242188 -0.640625 0.070407 7 7 7
0.246094 -0.640625 0.070165 7 6 6
0.250000 -0.640625 0.069611 7 6 6
0.253906 -0.640625 0.067857 7 7 6
0.257812 -0.640625 0.064046 7 7 6
0.261719 -0.640625 0.058779 7 7 7
0.265625 -0.640625 0.050693 8 8 8
0.269531 -0.640625 0.040284 5 4 5
0.273438 -0.640625 0.027328 5 4 6
-0.195312 -0.644531 0.010599 8 8 8
-0.191406 -0.644531 0.022592 13 13 12
-0.187500 -0.644531 0.029383 10 10 10
-0.183594 -0.644531 0.035883 10 10 10
-0.179688 -0.644531 0.042790 10 10 10
-0.175781 -0.644531 0.048714 10 10 9
-0.171875 -0.644531 0.053227 10 10 9
-0.167969 -0.644531 0.056496 10 10 10
-0.164062 -0.644531 0.058732 10 10 10
-0.160156 -0.644531 0.060317 10 9 9
-0.156250 -0.644531 0.061337 10 9 9
-0.152344 -0.644531 0.061776 10 9 9
-0.148438 -0.644531 0.061647 10 9 9
-0.144531 -0.644531 0.061072 9 8 8
-0.140625 -0.644531 0.059998 9 8 8
-0.136719 -0.644531 0.058394 8 7 8
-0.132812 -0.644531 0.056315 8 7 7
-0.128906 -0.644531 0.054028 8 7 7
-0.125000 -0.644531 0.051950 8 7 8
-0.121094 -0.644531 0.050127 8 7 8
-0.117188 -0.644531 0.048794 8 7 8
-0.113281 -0.644531 0.047835 8 7 8
-0.109375 -0.644531 0.047457 8 7 8
-0.105469 -0.644531 0.047375 8 7 8
-0.101562 -0.644531 0.047635 8 7 7
-0.097656 -0.644531 0.048347 8 7 7
-0.093750 -0.644531 0.049069 8 7 7
-0.089844 -0.644531 0.049394 8 7 7
-0.085938 -0.644531 0.049205 8 7 7
-0.082031 -0.644531 0.048928 9 7 8
-0.078125 -0.644531 0.048323 9 7 8
-0.074219 -0.644531 0.047328 9 8 8
-0.070312 -0.644531 0.045494 9 8 8
-0.066406 -0.644531 0.042093 10 8 8
-0.062500 -0.644531 0.037120 9 8 8
-0.058594 -0.644531 0.029517 10 8 8
-0.054688 -0.644531 0.020519 9 8 8
-0.050781 -0.644531 0.013589 9 7 8
-0.046875 -0.644531 0.007490 8 7 7
-0.042969 -0.644531 0.001974 8 7 7
-0.039062 -0.644531 -0.002998 8 7 7
-0.035156 -0.644531 -0.005739 10 7 8
-0.031250 -0.644531 -0.009182 11 7 9
-0.027344 -0.644531 -0.014667 7 5 7
0.082031 -0.644531 -0.022635 12 9 9
0.085938 -0.644531 -0.010332 11 9 8
0.089844 -0.644531 -0.002195 11 9 8
0.093750 -0.644531 0.003823 12 10 9
0.097656 -0.644531 0.010146 11 9 8
0.101562 -0.644531 0.017632 11 9 8
0.105469 -0.644531 0.024407 10 8 8
0.109375 -0.644531 0.030356 11 8 8
0.113281 -0.644531 0.035637 11 8 8
0.117188 -0.644531 0.040085 10 8 8
0.121094 -0.644531 0.044106 10 8 7
0.125000 -0.644531 0.047875 9 7 7
0.128906 -0.644531 0.051839 8 7 7
0.132812 -0.644531 0.056075 9 7 7
0.136719 -0.644531 0.060173 9 8 8
0.140625 -0.644531 0.063598 10 8 8
0.144531 -0.644531 0.065631 9 8 8
0.148438 -0.644531 0.066115 9 7 7
0.152344 -0.644531 0.066016 8 7 7
0.156250 -0.644531 0.065941 8 7 7
0.160156 -0.644531 0.065614 8 7 7
0.164062 -0.644531 0.065088 8 6 6
0.167969 -0.644531 0.064551 7 6 6
0.171875 -0.644531 0.064414 7 6 6
0.175781 -0.644531 0.065222 7 6 6
0.179688 -0.644531 0.067113 8 7 7
0.183594 -0.644531 0.069201 8 7 7
0.187500 -0.644531 0.071115 9 8 8
0.191406 -0.644531 0.072731 10 9 9
0.195312 -0.644531 0.074023 10 9 9
0.199219 -0.644531 0.075328 10 9 9
0.203125 -0.644531 0.076453 10 9 9
0.207031 -0.644531 0.077377 10 9 8
0.210938 -0.644531 0.077952 11 10 10
0.214844 -0.644531 0.078223 13 12 12
0.218750 -0.644531 0.078109 14 13 12
0.222656 -0.644531 0.077172 14 13 12
0.226562 -0.644531 0.075294 12 12 11
0.230469 -0.644531 0.073058 11 10 10
0.234375 -0.644531 0.070982 8 8 8
0.238281 -0.644531 0.069309 7 7 7
0.242188 -0.644531 0.068523 7 7 7
0.246094 -0.644531 0.068211 7 7 7
0.250000 -0.644531 0.067621 6 7 6
0.253906 -0.644531 0.065820 6 6 6
0.257812 -0.644531 0.061752 6 7 6
0.261719 -0.644531 0.055982 6 6 6
0.265625 -0.644531 0.047359 7 6 6
0.269531 -0.644531 0.036937 4 3 4
0.273438 -0.644531 0.023392 4 3 5
-0.195312 -0.648438 0.000768 6 5 6
-0.191406 -0.648438 0.017065 12 11 10
-0.187500 -0.648438 0.025990 10 10 9
-0.183594 -0.648438 0.033097 10 10 10
-0.179688 -0.648438 0.040203 9 9 9
-0.175781 -0.648438 0.046273 10 9 9
-0.171875 -0.648438 0.050790 9 9 9
-0.167969 -0.648438 0.054008 9 9 9
-0.164062 -0.648438 0.056237 10 9 9
-0.160156 -0.648438 0.057828 9 9 9
-0.156250 -0.648438 0.058884 9 8 9
-0.152344 -0.648438 0.059372 9 8 8
-0.148438 -0.648438 0.059333 9 8 8
-0.144531 -0.648438 0.058852 9 8 8
-0.140625 -0.648438 0.057899 8 7 7
-0.136719 -0.648438 0.056505 8 7 7
-0.132812 -0.648438 0.054788 7 7 7
-0.128906 -0.648438 0.052934 8 7 7
-0.125000 -0.648438 0.051256 8 7 7
-0.121094 -0.648438 0.049739 8 7 8
-0.117188 -0.648438 0.048560 8 7 7
-0.113281 -0.648438 0.047661 8 7 7
-0.109375 -0.648438 0.047232 8 7 7
-0.105469 -0.648438 0.046996 8 6 7
-0.101562 -0.648438 0.047038 8 6 7
-0.097656 -0.648438 0.047552 8 6 7
-0.093750 -0.648438 0.048145 8 7 7
-0.089844 -0.648438 0.048379 8 7 7
-0.085938 -0.648438 0.048082 9 7 7
-0.082031 -0.648438 0.047681 9 7 8
-0.078125 -0.648438 0.046890 9 7 8
-0.074219 -0.648438 0.045656 9 7 8
-0.070312 -0.648438 0.043517 9 7 8
-0.066406 -0.648438 0.039576 9 7 8
-0.062500 -0.648438 0.033736 9 7 7
-0.058594 -0.648438 0.024872 9 7 8
-0.054688 -0.648438 0.016980 9 8 8
-0.050781 -0.648438 0.011048 9 7 7
-0.046875 -0.648438 0.004853 8 7 7
-0.042969 -0.648438 -0.000550 7 6 7
-0.039062 -0.648438 -0.005390 7 6 7
-0.035156 -0.648438 -0.008343 8 6 7
-0.031250 -0.648438 -0.012350 8 5 7
-0.027344 -0.648438 -0.019659 4 2 5
0.082031 -0.648438 -0.025391 10 8 9
0.085938 -0.648438 -0.013113 9 7 7
0.089844 -0.648438 -0.004829 10 9 8
0.093750 -0.648438 0.001139 12 10 9
0.097656 -0.648438 0.007658 11 9 8
0.101562 -0.648438 0.015775 11 9 8
0.105469 -0.648438 0.022973 10 8 8
0.109375 -0.648438 0.029046 11 9 8
0.113281 -0.648438 0.034268 11 9 8
0.117188 -0.648438 0.038603 11 8 8
0.121094 -0.648438 0.042527 10 8 7
0.125000 -0.648438 0.046219 9 7 7
0.128906 -0.648438 0.050084 8 6 7
0.132812 -0.648438 0.054229 8 7 7
0.136719 -0.648438 0.058233 9 7 7
0.140625 -0.648438 0.061614 9 8 8
0.144531 -0.648438 0.063665 9 8 8
0.148438 -0.648438 0.064198 9 7 7
0.152344 -0.648438 0.064128 8 7 7
0.156250 -0.648438 0.064082 8 7 7
0.160156 -0.648438 0.063781 8 7 7
0.164062 -0.648438 0.063285 8 6 7
0.167969 -0.648438 0.062812 8 6 7
0.171875 -0.648438 0.062760 7 6 6
0.175781 -0.648438 0.063628 7 6 6
0.179688 -0.648438 0.065552 8 7 7
0.183594 -0.648438 0.067647 8 7 7
0.187500 -0.648438 0.069575 9 8 8
0.191406 -0.648438 0.071258 10 9 9
0.195312 -0.648438 0.072665 10 9 9
0.199219 -0.648438 0.074117 10 9 9
0.203125 -0.648438 0.075374 10 9 9
0.207031 -0.648438 0.076374 10 9 9
0.210938 -0.648438 0.076952 12 10 10
0.214844 -0.648438 0.077185 13 12 11
0.218750 -0.648438 0.076991 14 13 12
0.222656 -0.648438 0.075935 13 12 11
0.226562 -0.648438 0.073960 10 10 10
0.230469 -0.648438 0.071656 10 9 9
0.234375 -0.648438 0.069506 8 8 8
0.238281 -0.648438 0.067702 6 6 6
0.242188 -0.648438 0.066772 6 6 6
0.246094 -0.648438 0.066380 6 7 6
0.250000 -0.648438 0.065728 6 6 6
0.253906 -0.648438 0.063819 6 6 6
0.257812 -0.648438 0.059414 6 6 6
0.261719 -0.648438 0.052979 6 6 5
0.265625 -0.648438 0.043753 6 5 6
0.269531 -0.648438 0.033567 4 3 4
0.273438 -0.648438 0.018818 4 3 4
-0.195312 -0.652344 -0.012598 12 11 13
-0.191406 -0.652344 0.011546 15 14 12
-0.187500 -0.652344 0.023306 11 11 10
-0.183594 -0.652344 0.030865 10 11 10
-0.179688 -0.652344 0.038077 9 10 9
-0.175781 -0.652344 0.044028 10 10 9
-0.171875 -0.652344 0.048491 10 9 9
-0.167969 -0.652344 0.051585 9 9 9
-0.164062 -0.652344 0.053733 9 9 9
-0.160156 -0.652344 0.055324 9 9 9
-0.156250 -0.652344 0.056445 9 8 8
-0.152344 -0.652344 0.057027 9 8 8
-0.148438 -0.652344 0.057108 9 8 8
-0.144531 -0.652344 0.056742 8 7 8
-0.140625 -0.652344 0.056001 7 6 7
-0.136719 -0.652344 0.054876 7 6 7
-0.132812 -0.652344 0.053513 7 6 6
-0.128906 -0.652344 0.052076 7 6 7
-0.125000 -0.652344 0.050749 8 7 7
-0.121094 -0.652344 0.049498 8 7 7
-0.117188 -0.652344 0.048471 7 6 7
-0.113281 -0.652344 0.047721 8 6 7
-0.109375 -0.652344 0.047278 8 6 7
-0.105469 -0.652344 0.046877 8 6 7
-0.101562 -0.652344 0.046692 8 6 7
-0.097656 -0.652344 0.046964 8 6 7
-0.093750 -0.652344 0.047381 8 6 7
-0.089844 -0.652344 0.047496 8 7 7
-0.085938 -0.652344 0.047091 9 7 7
-0.082031 -0.652344 0.046546 9 7 8
-0.078125 -0.652344 0.045589 9 7 8
-0.074219 -0.652344 0.044102 10 8 8
-0.070312 -0.652344 0.041739 10 8 8
-0.066406 -0.652344 0.037353 9 7 8
-0.062500 -0.652344 0.031023 9 7 7
-0.058594 -0.652344 0.022084 9 7 7
-0.054688 -0.652344 0.015190 9 7 7
-0.050781 -0.652344 0.009141 9 7 7
-0.046875 -0.652344 0.003045 8 7 7
-0.042969 -0.652344 -0.002419 7 7 7
-0.039062 -0.652344 -0.007010 8 6 7
-0.035156 -0.652344 -0.010527 7 6 7
-0.031250 -0.652344 -0.016138 7 5 7
0.082031 -0.652344 -0.025157 11 9 10
0.085938 -0.652344 -0.015499 9 7 7
0.089844 -0.652344 -0.007323 11 10 8
0.093750 -0.652344 -0.001435 12 11 9
0.097656 -0.652344 0.005446 10 9 7
0.101562 -0.652344 0.014146 10 8 7
0.105469 -0.652344 0.021718 9 8 7
0.109375 -0.652344 0.027874 10 8 7
0.113281 -0.652344 0.033003 10 8 8
0.117188 -0.652344 0.037278 10 8 8
0.121094 -0.652344 0.041178 9 8 7
0.125000 -0.652344 0.044839 9 7 7
0.128906 -0.652344 0.048618 8 7 7
0.132812 -0.652344 0.052616 9 7 7
0.136719 -0.652344 0.056443 9 7 7
0.140625 -0.652344 0.059724 9 7 7
0.144531 -0.652344 0.061781 9 7 7
0.148438 -0.652344 0.062386 8 7 7
0.152344 -0.652344 0.062373 8 7 7
0.156250 -0.652344 0.062369 8 7 7
0.160156 -0.652344 0.062104 8 7 7
0.164062 -0.652344 0.061668 8 6 7
0.167969 -0.652344 0.061309 8 6 6
0.171875 -0.652344 0.061396 7 6 6
0.175781 -0.652344 0.062354 7 6 6
0.179688 -0.652344 0.064291 8 7 7
0.183594 -0.652344 0.066361 8 8 8
0.187500 -0.652344 0.068262 9 9 9
0.191406 -0.652344 0.069962 10 9 9
0.195312 -0.652344 0.071451 10 9 9
0.199219 -0.652344 0.073016 10 9 9
0.203125 -0.652344 0.074358 10 9 9
0.207031 -0.652344 0.075388 11 9 9
0.210938 -0.652344 0.075914 12 10 10
0.214844 -0.652344 0.076071 12 11 10
0.218750 -0.652344 0.075773 13 12 11
0.222656 -0.652344 0.074609 11 11 10
0.226562 -0.652344 0.072603 9 9 8
0.230469 -0.652344 0.070300 9 9 8
0.234375 -0.652344 0.068144 7 7 7
0.238281 -0.652344 0.066276 6 6 6
0.242188 -0.652344 0.065237 6 6 6
0.246094 -0.652344 0.064789 7 7 7
0.250000 -0.652344 0.064117 7 7 7
0.253906 -0.652344 0.062143 6 7 6
0.257812 -0.652344 0.057466 6 7 6
0.261719 -0.652344 0.050283 6 6 6
0.265625 -0.652344 0.040384 6 5 6
0.269531 -0.652344 0.030184 4 3 4
0.273438 -0.652344 0.013608 4 3 4
-0.191406 -0.656250 0.006496 10 9 9
-0.187500 -0.656250 0.020805 9 9 8
-0.183594 -0.656250 0.029213 10 11 10
-0.179688 -0.656250 0.036492 9 10 9
-0.175781 -0.656250 0.042166 10 10 9
-0.171875 -0.656250 0.046466 9 9 9
-0.167969 -0.656250 0.049375 9 9 9
-0.164062 -0.656250 0.051410 9 9 9
-0.160156 -0.656250 0.052994 9 9 9
-0.156250 -0.656250 0.054191 9 8 8
-0.152344 -0.656250 0.054852 9 8 8
-0.148438 -0.656250 0.055052 9 9 9
-0.144531 -0.656250 0.054904 9 8 8
-0.140625 -0.656250 0.054418 8 7 7
-0.136719 -0.656250 0.053568 8 7 7
-0.132812 -0.656250 0.052525 8 7 7
-0.128906 -0.656250 0.051421 8 7 7
-0.125000 -0.656250 0.050388 8 7 7
-0.121094 -0.656250 0.049421 8 7 7
-0.117188 -0.656250 0.048554 8 7 7
-0.113281 -0.656250 0.047920 8 7 7
-0.109375 -0.656250 0.047468 8 7 7
-0.105469 -0.656250 0.046907 8 7 7
-0.101562 -0.656250 0.046489 8 6 7
-0.097656 -0.656250 0.046467 8 6 7
-0.093750 -0.656250 0.046633 8 6 7
-0.089844 -0.656250 0.046571 8 7 7
-0.085938 -0.656250 0.046043 9 7 7
-0.082031 -0.656250 0.045333 9 7 8
-0.078125 -0.656250 0.044235 10 8 8
-0.074219 -0.656250 0.042573 10 8 8
-0.070312 -0.656250 0.040068 10 8 8
-0.066406 -0.656250 0.035569 10 8 8
-0.062500 -0.656250 0.029062 9 7 7
-0.058594 -0.656250 0.020424 9 7 7
-0.054688 -0.656250 0.013724 9 7 7
-0.050781 -0.656250 0.007654 9 8 7
-0.046875 -0.656250 0.001621 9 8 7
-0.042969 -0.656250 -0.004000 10 9 8
-0.039062 -0.656250 -0.008589 12 10 10
-0.035156 -0.656250 -0.013142 11 10 10
-0.031250 -0.656250 -0.020212 13 11 12
0.082031 -0.656250 -0.023534 11 10 10
0.085938 -0.656250 -0.017791 7 6 6
0.089844 -0.656250 -0.009616 11 10 8
0.093750 -0.656250 -0.003688 12 11 9
0.097656 -0.656250 0.003590 10 9 8
0.101562 -0.656250 0.012717 10 9 8
0.105469 -0.656250 0.020542 10 8 7
0.109375 -0.656250 0.026720 11 9 8
0.113281 -0.656250 0.031763 11 9 8
0.117188 -0.656250 0.035972 11 9 8
0.121094 -0.656250 0.039852 10 9 8
0.125000 -0.656250 0.043482 10 8 8
0.128906 -0.656250 0.047171 9 7 7
0.132812 -0.656250 0.051012 9 7 7
0.136719 -0.656250 0.054661 8 7 7
0.140625 -0.656250 0.057837 8 7 7
0.144531 -0.656250 0.059898 8 7 7
0.148438 -0.656250 0.060590 8 7 7
0.152344 -0.656250 0.060641 9 7 7
0.156250 -0.656250 0.060676 9 7 7
0.160156 -0.656250 0.060454 9 7 7
0.164062 -0.656250 0.060107 8 6 7
0.167969 -0.656250 0.059906 7 6 6
0.171875 -0.656250 0.060180 7 6 6
0.175781 -0.656250 0.061266 7 6 6
0.179688 -0.656250 0.063221 8 7 7
0.183594 -0.656250 0.065259 9 9 8
0.187500 -0.656250 0.067119 10 10 9
0.191406 -0.656250 0.068834 10 10 9
0.195312 -0.656250 0.070375 10 9 9
0.199219 -0.656250 0.071994 10 9 9
0.203125 -0.656250 0.073365 10 9 9
0.207031 -0.656250 0.074377 11 9 9
0.210938 -0.656250 0.074807 12 10 10
0.214844 -0.656250 0.074839 12 11 10
0.218750 -0.656250 0.074426 13 12 11
0.222656 -0.656250 0.073213 11 11 10
0.226562 -0.656250 0.071236 8 8 8
0.230469 -0.656250 0.068953 9 9 8
0.234375 -0.656250 0.066836 8 8 8
0.238281 -0.656250 0.065006 7 7 7
0.242188 -0.656250 0.063947 7 7 7
0.246094 -0.656250 0.063495 7 8 8
0.250000 -0.656250 0.062866 7 8 7
0.253906 -0.656250 0.060892 7 8 7
0.257812 -0.656250 0.055994 7 8 7
0.261719 -0.656250 0.048154 7 7 6
0.265625 -0.656250 0.037658 7 6 6
0.269531 -0.656250 0.026897 4 3 4
0.273438 -0.656250 0.008814 4 3 4
-0.191406 -0.660156 0.001641 9 8 7
-0.187500 -0.660156 0.018463 9 8 7
-0.183594 -0.660156 0.027934 11 12 10
-0.179688 -0.660156 0.035245 10 10 9
-0.175781 -0.660156 0.040666 10 10 9
-0.171875 -0.660156 0.044786 9 9 9
-0.167969 -0.660156 0.047513 9 9 9
-0.164062 -0.660156 0.049408 9 9 9
-0.160156 -0.660156 0.050951 9 8 9
-0.156250 -0.660156 0.052160 9 8 8
-0.152344 -0.660156 0.052871 9 8 8
-0.148438 -0.660156 0.053197 9 8 8
-0.144531 -0.660156 0.053259 8 8 8
-0.140625 -0.660156 0.053049 8 7 7
-0.136719 -0.660156 0.052505 7 7 7
-0.132812 -0.660156 0.051747 7 6 7
-0.128906 -0.660156 0.050893 7 7 7
-0.125000 -0.660156 0.050094 7 7 7
-0.121094 -0.660156 0.049390 7 7 7
-0.117188 -0.660156 0.048691 8 7 7
-0.113281 -0.660156 0.048132 8 7 7
-0.109375 -0.660156 0.047673 8 7 7
-0.105469 -0.660156 0.046997 8 6 7
-0.101562 -0.660156 0.046366 8 6 7
-0.097656 -0.660156 0.046027 8 6 7
-0.093750 -0.660156 0.045900 8 6 7
-0.089844 -0.660156 0.045633 8 6 7
-0.085938 -0.660156 0.044983 8 6 7
-0.082031 -0.660156 0.044134 9 7 7
-0.078125 -0.660156 0.042931 10 7 8
-0.074219 -0.660156 0.041138 10 8 8
-0.070312 -0.660156 0.038515 10 8 8
-0.066406 -0.660156 0.034084 10 8 8
-0.062500 -0.660156 0.027842 9 7 7
-0.058594 -0.660156 0.019879 9 7 7
-0.054688 -0.660156 0.012646 9 7 7
-0.050781 -0.660156 0.006508 10 8 8
-0.046875 -0.660156 0.000391 10 9 8
-0.042969 -0.660156 -0.005229 11 9 9
-0.039062 -0.660156 -0.010106 12 10 9
-0.035156 -0.660156 -0.015707 8 7 7
0.082031 -0.660156 -0.022261 13 12 11
0.085938 -0.660156 -0.020126 6 5 4
0.089844 -0.660156 -0.011950 11 9 8
0.093750 -0.660156 -0.005671 11 10 8
0.097656 -0.660156 0.002069 11 9 8
0.101562 -0.660156 0.011457 11 9 8
0.105469 -0.660156 0.019448 10 8 7
0.109375 -0.660156 0.025641 11 9 8
0.113281 -0.660156 0.030610 10 8 8
0.117188 -0.660156 0.034742 10 8 8
0.121094 -0.660156 0.038594 10 8 8
0.125000 -0.660156 0.042183 10 8 8
0.128906 -0.660156 0.045790 9 7 7
0.132812 -0.660156 0.049472 9 7 7
0.136719 -0.660156 0.052923 8 7 7
0.140625 -0.660156 0.055971 8 7 7
0.144531 -0.660156 0.058010 8 7 7
0.148438 -0.660156 0.058776 9 7 7
0.152344 -0.660156 0.058902 9 7 7
0.156250 -0.660156 0.058998 8 7 7
0.160156 -0.660156 0.058855 8 6 7
0.164062 -0.660156 0.058648 7 6 6
0.167969 -0.660156 0.058651 6 5 6
0.171875 -0.660156 0.059145 7 6 6
0.175781 -0.660156 0.060372 7 6 6
0.179688 -0.660156 0.062331 8 8 7
0.183594 -0.660156 0.064312 9 9 8
0.187500 -0.660156 0.066101 10 10 9
0.191406 -0.660156 0.067800 10 10 10
0.195312 -0.660156 0.069371 10 9 9
0.199219 -0.660156 0.071014 10 9 9
0.203125 -0.660156 0.072406 10 9 9
0.207031 -0.660156 0.073389 11 9 9
0.210938 -0.660156 0.073698 12 10 10
0.214844 -0.660156 0.073579 12 11 11
0.218750 -0.660156 0.073020 13 12 11
0.222656 -0.660156 0.071764 11 10 10
0.226562 -0.660156 0.069856 8 8 8
0.230469 -0.660156 0.067619 8 8 8
0.234375 -0.660156 0.065552 8 8 7
0.238281 -0.660156 0.063766 7 7 7
0.242188 -0.660156 0.062683 8 8 8
0.246094 -0.660156 0.062232 8 8 8
0.250000 -0.660156 0.061661 8 8 7
0.253906 -0.660156 0.059723 8 9 7
0.257812 -0.660156 0.054717 8 9 8
0.261719 -0.660156 0.046369 8 8 7
0.265625 -0.660156 0.035457 8 7 7
0.269531 -0.660156 0.023820 5 4 5
0.273438 -0.660156 0.004849 5 3 5
-0.191406 -0.664062 -0.002897 11 9 9
-0.187500 -0.664062 0.016150 7 6 6
-0.183594 -0.664062 0.026690 10 10 9
-0.179688 -0.664062 0.034130 9 9 8
-0.175781 -0.664062 0.039533 9 9 8
-0.171875 -0.664062 0.043587 8 8 8
-0.167969 -0.664062 0.046076 8 8 8
-0.164062 -0.664062 0.047734 8 8 8
-0.160156 -0.664062 0.049098 9 8 8
-0.156250 -0.664062 0.050241 9 9 9
-0.152344 -0.664062 0.050984 9 8 8
-0.148438 -0.664062 0.051416 9 8 8
-0.144531 -0.664062 0.051668 9 8 8
-0.140625 -0.664062 0.051730 8 8 8
-0.136719 -0.664062 0.051479 8 7 8
-0.132812 -0.664062 0.050978 8 7 7
-0.128906 -0.664062 0.050347 8 7 7
-0.125000 -0.664062 0.049740 8 7 7
-0.121094 -0.664062 0.049208 8 7 7
-0.117188 -0.664062 0.048622 8 7 7
-0.113281 -0.664062 0.048143 8 7 7
-0.109375 -0.664062 0.047714 8 7 7
-0.105469 -0.664062 0.046997 8 7 7
-0.101562 -0.664062 0.046192 8 7 7
-0.097656 -0.664062 0.045554 8 6 7
-0.093750 -0.664062 0.045118 8 6 6
-0.089844 -0.664062 0.044596 8 6 6
-0.085938 -0.664062 0.043755 8 6 7
-0.082031 -0.664062 0.042700 9 7 7
-0.078125 -0.664062 0.041339 10 7 8
-0.074219 -0.664062 0.039385 10 8 8
-0.070312 -0.664062 0.036648 10 8 8
-0.066406 -0.664062 0.032305 10 7 7
-0.062500 -0.664062 0.026327 8 7 7
-0.058594 -0.664062 0.018845 8 6 6
-0.054688 -0.664062 0.011456 8 7 6
-0.050781 -0.664062 0.005106 10 8 7
-0.046875 -0.664062 -0.001119 11 9 8
-0.042969 -0.664062 -0.006718 11 9 8
-0.039062 -0.664062 -0.012381 9 8 7
0.082031 -0.664062 -0.020903 26 25 21
0.085938 -0.664062 -0.022102 8 6 6
0.089844 -0.664062 -0.013911 13 11 9
0.093750 -0.664062 -0.007308 11 10 8
0.097656 -0.664062 0.000709 11 10 8
0.101562 -0.664062 0.010215 12 10 9
0.105469 -0.664062 0.018355 10 8 8
0.109375 -0.664062 0.024564 11 9 8
0.113281 -0.664062 0.029461 10 8 8
0.117188 -0.664062 0.033508 10 8 8
0.121094 -0.664062 0.037284 11 9 8
0.125000 -0.664062 0.040826 11 9 8
0.128906 -0.664062 0.044357 10 8 8
0.132812 -0.664062 0.047908 9 8 8
0.136719 -0.664062 0.051206 9 7 7
0.140625 -0.664062 0.054130 8 7 7
0.144531 -0.664062 0.056130 8 7 7
0.148438 -0.664062 0.056954 9 7 7
0.152344 -0.664062 0.057149 9 7 7
0.156250 -0.664062 0.057314 8 7 7
0.160156 -0.664062 0.057271 8 6 6
0.164062 -0.664062 0.057227 7 5 6
0.167969 -0.664062 0.057446 6 5 5
0.171875 -0.664062 0.058166 6 5 5
0.175781 -0.664062 0.059519 6 6 6
0.179688 -0.664062 0.061469 8 7 7
0.183594 -0.664062 0.063382 9 9 8
0.187500 -0.664062 0.065090 10 9 9
0.191406 -0.664062 0.066783 10 10 9
0.195312 -0.664062 0.068425 9 9 9
0.199219 -0.664062 0.070136 10 9 9
0.203125 -0.664062 0.071578 10 9 9
0.207031 -0.664062 0.072536 10 9 9
0.210938 -0.664062 0.072697 11 10 10
0.214844 -0.664062 0.072365 12 11 10
0.218750 -0.664062 0.071592 11 11 10
0.222656 -0.664062 0.070256 10 9 9
0.226562 -0.664062 0.068431 7 7 7
0.230469 -0.664062 0.066270 7 7 7
0.234375 -0.664062 0.064252 7 7 7
0.238281 -0.664062 0.062487 7 7 7
0.242188 -0.664062 0.061338 8 8 8
0.246094 -0.664062 0.060859 8 8 8
0.250000 -0.664062 0.060312 8 8 8
0.253906 -0.664062 0.058354 9 9 8
0.257812 -0.664062 0.053273 9 10 8
0.261719 -0.664062 0.044582 9 8 8
0.265625 -0.664062 0.033365 9 8 8
0.269531 -0.664062 0.021138 5 4 5
0.273438 -0.664062 0.002223 5 4 5
-0.191406 -0.667969 -0.006346 7 6 6
-0.187500 -0.667969 0.013831 6 5 6
-0.183594 -0.667969 0.025341 9 9 8
-0.179688 -0.667969 0.033070 9 9 8
-0.175781 -0.667969 0.038657 9 9 8
-0.171875 -0.667969 0.042784 8 8 7
-0.167969 -0.667969 0.045091 8 7 7
-0.164062 -0.667969 0.046475 8 8 8
-0.160156 -0.667969 0.047542 9 8 8
-0.156250 -0.667969 0.048476 9 9 9
-0.152344 -0.667969 0.049150 9 9 8
-0.148438 -0.667969 0.049667 9 8 8
-0.144531 -0.667969 0.050108 9 8 8
-0.140625 -0.667969 0.050421 9 8 8
-0.136719 -0.667969 0.050455 9 8 8
-0.132812 -0.667969 0.050215 8 8 8
-0.128906 -0.667969 0.049813 8 7 7
-0.125000 -0.667969 0.049387 8 7 7
-0.121094 -0.667969 0.048978 8 7 7
-0.117188 -0.667969 0.048452 8 7 7
-0.113281 -0.667969 0.048029 8 7 7
-0.109375 -0.667969 0.047617 9 7 7
-0.105469 -0.667969 0.046882 9 7 7
-0.101562 -0.667969 0.045955 8 7 7
-0.097656 -0.667969 0.045075 8 6 7
-0.093750 -0.667969 0.044362 8 6 6
-0.089844 -0.667969 0.043559 7 6 6
-0.085938 -0.667969 0.042407 8 6 6
-0.082031 -0.667969 0.041073 9 7 7
-0.078125 -0.667969 0.039469 10 7 8
-0.074219 -0.667969 0.037291 10 8 8
-0.070312 -0.667969 0.034456 10 8 8
-0.066406 -0.667969 0.030245 9 7 7
-0.062500 -0.667969 0.024574 7 6 6
-0.058594 -0.667969 0.017313 7 5 5
-0.054688 -0.667969 0.009959 7 6 6
-0.050781 -0.667969 0.003265 9 7 7
-0.046875 -0.667969 -0.002914 10 8 8
-0.042969 -0.667969 -0.008320 10 8 8
-0.039062 -0.667969 -0.015666 9 7 7
0.085938 -0.667969 -0.024509 3 2 3
0.089844 -0.667969 -0.015407 9 7 6
0.093750 -0.667969 -0.008388 8 7 6
0.097656 -0.667969 -0.000440 12 10 8
0.101562 -0.667969 0.008952 14 12 10
0.105469 -0.667969 0.017210 11 9 8
0.109375 -0.667969 0.023457 11 9 8
0.113281 -0.667969 0.028271 11 9 8
0.117188 -0.667969 0.032198 10 9 8
0.121094 -0.667969 0.035844 11 9 8
0.125000 -0.667969 0.039315 11 9 8
0.128906 -0.667969 0.042777 10 8 8
0.132812 -0.667969 0.046236 9 8 8
0.136719 -0.667969 0.049431 9 7 7
0.140625 -0.667969 0.052271 8 6 6
0.144531 -0.667969 0.054244 7 6 6
0.148438 -0.667969 0.055116 8 7 7
0.152344 -0.667969 0.055375 9 7 7
0.156250 -0.667969 0.055621 8 6 7
0.160156 -0.667969 0.055707 8 6 6
0.164062 -0.667969 0.055858 6 5 5
0.167969 -0.667969 0.056309 6 5 5
0.171875 -0.667969 0.057238 6 5 5
0.175781 -0.667969 0.058685 7 6 6
0.179688 -0.667969 0.060571 8 8 8
0.183594 -0.667969 0.062367 9 9 8
0.187500 -0.667969 0.063989 9 9 9
0.191406 -0.667969 0.065697 10 10 9
0.195312 -0.667969 0.067452 9 9 9
0.199219 -0.667969 0.069283 10 9 9
0.203125 -0.667969 0.070828 10 10 10
0.207031 -0.667969 0.071796 11 10 10
0.210938 -0.667969 0.071806 12 11 10
0.214844 -0.667969 0.071241 12 11 11
0.218750 -0.667969 0.070254 11 10 10
0.222656 -0.667969 0.068833 9 9 8
0.226562 -0.667969 0.067082 8 7 7
0.230469 -0.667969 0.065006 7 7 7
0.234375 -0.667969 0.063053 8 8 7
0.238281 -0.667969 0.061288 8 8 7
0.242188 -0.667969 0.059993 8 8 7
0.246094 -0.667969 0.059390 7 7 7
0.250000 -0.667969 0.058733 8 8 7
0.253906 -0.667969 0.056656 8 9 8
0.257812 -0.667969 0.051468 9 10 8
0.261719 -0.667969 0.042562 9 9 8
0.265625 -0.667969 0.031278 9 8 8
0.269531 -0.667969 0.019129 6 5 6
0.273438 -0.667969 0.001079 6 4 6
-0.191406 -0.671875 -0.010956 13 11 10
-0.187500 -0.671875 0.011596 9 8 8
-0.183594 -0.671875 0.023856 11 11 10
-0.179688 -0.671875 0.031988 9 9 8
-0.175781 -0.671875 0.037859 10 9 9
-0.171875 -0.671875 0.042105 8 8 8
-0.167969 -0.671875 0.044268 8 8 7
-0.164062 -0.671875 0.045367 8 8 8
-0.160156 -0.671875 0.046083 9 8 8
-0.156250 -0.671875 0.046723 9 8 8
-0.152344 -0.671875 0.047263 9 8 8
-0.148438 -0.671875 0.047867 8 8 8
-0.144531 -0.671875 0.048518 8 7 7
-0.140625 -0.671875 0.049068 8 7 8
-0.136719 -0.671875 0.049342 8 8 8
-0.132812 -0.671875 0.049364 8 7 8
-0.128906 -0.671875 0.049229 8 7 7
-0.125000 -0.671875 0.049015 7 7 7
-0.121094 -0.671875 0.048747 7 6 7
-0.117188 -0.671875 0.048278 7 6 7
-0.113281 -0.671875 0.047866 8 6 7
-0.109375 -0.671875 0.047426 8 6 7
-0.105469 -0.671875 0.046647 8 7 7
-0.101562 -0.671875 0.045634 8 6 7
-0.097656 -0.671875 0.044595 8 6 7
-0.093750 -0.671875 0.043652 8 6 6
-0.089844 -0.671875 0.042573 7 6 6
-0.085938 -0.671875 0.041053 8 6 6
-0.082031 -0.671875 0.039325 8 6 7
-0.078125 -0.671875 0.037334 9 7 7
-0.074219 -0.671875 0.034901 9 7 7
-0.070312 -0.671875 0.032022 9 7 7
-0.066406 -0.671875 0.028037 8 6 6
-0.062500 -0.671875 0.022758 7 5 5
-0.058594 -0.671875 0.015649 6 5 5
-0.054688 -0.671875 0.008331 6 5 5
-0.050781 -0.671875 0.001556 8 6 6
-0.046875 -0.671875 -0.004642 10 7 7
-0.042969 -0.671875 -0.011135 8 6 7
0.085938 -0.671875 -0.029364 2 2 3
0.089844 -0.671875 -0.017570 6 5 5
0.093750 -0.671875 -0.009527 5 4 4
0.097656 -0.671875 -0.001409 9 8 7
0.101562 -0.671875 0.007764 12 11 9
0.105469 -0.671875 0.016075 9 8 7
0.109375 -0.671875 0.022345 10 9 8
0.113281 -0.671875 0.027068 10 8 7
0.117188 -0.671875 0.030875 9 8 7
0.121094 -0.671875 0.034387 9 8 7
0.125000 -0.671875 0.037767 10 8 8
0.128906 -0.671875 0.041152 10 8 8
0.132812 -0.671875 0.044539 10 8 8
0.136719 -0.671875 0.047673 9 8 8
0.140625 -0.671875 0.050466 8 7 7
0.144531 -0.671875 0.052425 8 6 7
0.148438 -0.671875 0.053329 8 7 7
0.152344 -0.671875 0.053636 8 6 7
0.156250 -0.671875 0.053946 8 6 6
0.160156 -0.671875 0.054151 7 6 6
0.164062 -0.671875 0.054508 6 5 6
0.167969 -0.671875 0.055205 6 5 6
0.171875 -0.671875 0.056329 7 6 6
0.175781 -0.671875 0.057822 8 7 7
0.179688 -0.671875 0.059600 9 9 8
0.183594 -0.671875 0.061268 10 9 9
0.187500 -0.671875 0.062800 9 9 8
0.191406 -0.671875 0.064526 9 9 8
0.195312 -0.671875 0.066417 9 9 8
0.199219 -0.671875 0.068428 10 10 9
0.203125 -0.671875 0.070142 11 11 10
0.207031 -0.671875 0.071152 11 11 10
0.210938 -0.671875 0.071025 13 12 11
0.214844 -0.671875 0.070248 13 12 11
0.218750 -0.671875 0.069055 11 10 10
0.222656 -0.671875 0.067531 9 9 9
0.226562 -0.671875 0.065836 8 8 7
0.230469 -0.671875 0.063836 8 8 7
0.234375 -0.671875 0.061923 8 8 8
0.238281 -0.671875 0.060095 8 8 8
0.242188 -0.671875 0.058507 7 7 7
0.246094 -0.671875 0.057585 7 7 7
0.250000 -0.671875 0.056656 7 7 6
0.253906 -0.671875 0.054389 7 7 6
0.257812 -0.671875 0.049126 8 8 7
0.261719 -0.671875 0.040121 9 8 7
0.265625 -0.671875 0.028943 10 9 8
0.269531 -0.671875 0.017124 6 5 6
0.273438 -0.671875 0.000222 6 5 6
-0.191406 -0.675781 -0.014172 7 6 7
-0.187500 -0.675781 0.009260 5 5 5
-0.183594 -0.675781 0.022179 8 8 8
-0.179688 -0.675781 0.030764 9 9 8
-0.175781 -0.675781 0.037008 9 9 8
-0.171875 -0.675781 0.041491 8 8 7
-0.167969 -0.675781 0.043572 7 7 7
-0.164062 -0.675781 0.044418 8 7 7
-0.160156 -0.675781 0.044795 8 7 7
-0.156250 -0.675781 0.045140 8 7 7
-0.152344 -0.675781 0.045503 7 7 7
-0.148438 -0.675781 0.046147 8 7 7
-0.144531 -0.675781 0.046983 8 7 7
-0.140625 -0.675781 0.047747 8 7 7
-0.136719 -0.675781 0.048237 8 7 7
-0.132812 -0.675781 0.048520 8 7 7
-0.128906 -0.675781 0.048664 8 7 7
-0.125000 -0.675781 0.048675 7 7 7
-0.121094 -0.675781 0.048557 7 7 7
-0.117188 -0.675781 0.048136 7 6 7
-0.113281 -0.675781 0.047699 8 6 7
-0.109375 -0.675781 0.047199 7 6 7
-0.105469 -0.675781 0.046364 8 6 7
-0.101562 -0.675781 0.045256 8 7 7
-0.097656 -0.675781 0.044075 8 6 7
-0.093750 -0.675781 0.042925 8 6 7
-0.089844 -0.675781 0.041583 8 6 6
-0.085938 -0.675781 0.039706 8 6 6
-0.082031 -0.675781 0.037525 8 7 7
-0.078125 -0.675781 0.035042 9 7 7
-0.074219 -0.675781 0.032372 9 7 7
-0.070312 -0.675781 0.029507 9 7 7
-0.066406 -0.675781 0.025822 8 6 6
-0.062500 -0.675781 0.020853 6 5 5
-0.058594 -0.675781 0.013815 6 5 5
-0.054688 -0.675781 0.006506 6 5 5
-0.050781 -0.675781 -0.000191 7 5 6
-0.046875 -0.675781 -0.006617 8 6 7
-0.042969 -0.675781 -0.014894 7 5 6
0.085938 -0.675781 -0.024495 5 5 8
0.089844 -0.675781 -0.019739 12 10 8
0.093750 -0.675781 -0.010693 6 5 4
0.097656 -0.675781 -0.002218 11 10 8
0.101562 -0.675781 0.006785 15 13 10
0.105469 -0.675781 0.015222 10 9 8
0.109375 -0.675781 0.021438 11 9 8
0.113281 -0.675781 0.025968 10 8 8
0.117188 -0.675781 0.029586 10 8 8
0.121094 -0.675781 0.032937 9 8 8
0.125000 -0.675781 0.036193 10 8 8
0.128906 -0.675781 0.039482 10 8 8
0.132812 -0.675781 0.042809 9 8 8
0.136719 -0.675781 0.045917 9 7 7
0.140625 -0.675781 0.048679 8 7 7
0.144531 -0.675781 0.050621 8 6 7
0.148438 -0.675781 0.051542 8 7 7
0.152344 -0.675781 0.051895 8 7 7
0.156250 -0.675781 0.052255 8 6 7
0.160156 -0.675781 0.052563 8 6 6
0.164062 -0.675781 0.053129 6 5 6
0.167969 -0.675781 0.054071 7 6 6
0.171875 -0.675781 0.055362 8 7 7
0.175781 -0.675781 0.056875 8 8 8
0.179688 -0.675781 0.058547 10 9 9
0.183594 -0.675781 0.060119 10 10 9
0.187500 -0.675781 0.061594 9 9 8
0.191406 -0.675781 0.063351 9 8 8
0.195312 -0.675781 0.065383 8 8 8
0.199219 -0.675781 0.067599 9 9 8
0.203125 -0.675781 0.069512 10 10 9
0.207031 -0.675781 0.070581 11 11 10
0.210938 -0.675781 0.070298 12 12 11
0.214844 -0.675781 0.069272 12 11 11
0.218750 -0.675781 0.067864 10 10 9
0.222656 -0.675781 0.066227 9 9 8
0.226562 -0.675781 0.064590 8 8 8
0.230469 -0.675781 0.062692 8 8 7
0.234375 -0.675781 0.060841 9 9 8
0.238281 -0.675781 0.058994 8 8 8
0.242188 -0.675781 0.057171 7 7 7
0.246094 -0.675781 0.055909 7 7 7
0.250000 -0.675781 0.054663 6 6 6
0.253906 -0.675781 0.052214 6 7 6
0.257812 -0.675781 0.046794 8 8 7
0.261719 -0.675781 0.037554 8 8 7
0.265625 -0.675781 0.026395 9 8 8
0.269531 -0.675781 0.014904 5 4 5
0.273438 -0.675781 -0.000806 5 4 6
-0.191406 -0.679688 -0.016256 5 4 6
-0.187500 -0.679688 0.006784 4 4 5
-0.183594 -0.679688 0.020222 9 9 9
-0.179688 -0.679688 0.029195 10 10 9
-0.175781 -0.679688 0.035897 11 11 10
-0.171875 -0.679688 0.040716 9 9 9
-0.167969 -0.679688 0.042814 9 8 8
-0.164062 -0.679688 0.043458 9 8 8
-0.160156 -0.679688 0.043570 8 8 8
-0.156250 -0.679688 0.043694 8 7 7
-0.152344 -0.679688 0.043913 7 7 7
-0.148438 -0.679688 0.044561 7 7 7
-0.144531 -0.679688 0.045505 8 7 7
-0.140625 -0.679688 0.046462 8 7 7
-0.136719 -0.679688 0.047172 8 7 7
-0.132812 -0.679688 0.047687 8 7 7
-0.128906 -0.679688 0.048060 7 7 7
-0.125000 -0.679688 0.048265 7 7 7
-0.121094 -0.679688 0.048270 8 7 7
-0.117188 -0.679688 0.047887 8 7 7
-0.113281 -0.679688 0.047445 8 7 7
-0.109375 -0.679688 0.046901 8 7 7
-0.105469 -0.679688 0.046003 8 7 7
-0.101562 -0.679688 0.044785 9 7 7
-0.097656 -0.679688 0.043454 9 7 7
-0.093750 -0.679688 0.042146 8 6 7
-0.089844 -0.679688 0.040599 8 6 7
-0.085938 -0.679688 0.038445 8 6 6
-0.082031 -0.679688 0.035881 8 6 7
-0.078125 -0.679688 0.033056 9 7 7
-0.074219 -0.679688 0.030234 9 7 7
-0.070312 -0.679688 0.027514 8 7 7
-0.066406 -0.679688 0.024200 7 6 6
-0.062500 -0.679688 0.019451 6 5 5
-0.058594 -0.679688 0.012367 6 5 5
-0.054688 -0.679688 0.004864 6 5 5
-0.050781 -0.679688 -0.002082 8 6 6
-0.046875 -0.679688 -0.008887 10 8 8
0.089844 -0.679688 -0.023820 7 6 6
0.093750 -0.679688 -0.012424 5 3 3
0.097656 -0.679688 -0.002832 11 9 7
0.101562 -0.679688 0.006171 15 13 10
0.105469 -0.679688 0.014580 11 10 8
0.109375 -0.679688 0.020703 11 10 8
0.113281 -0.679688 0.025054 9 8 7
0.117188 -0.679688 0.028484 9 7 7
0.121094 -0.679688 0.031629 8 7 7
0.125000 -0.679688 0.034711 9 8 7
0.128906 -0.679688 0.037876 9 7 7
0.132812 -0.679688 0.041130 8 7 7
0.136719 -0.679688 0.044186 8 7 7
0.140625 -0.679688 0.046885 8 6 7
0.144531 -0.679688 0.048784 8 6 7
0.148438 -0.679688 0.049690 9 7 7
0.152344 -0.679688 0.050054 9 7 7
0.156250 -0.679688 0.050445 9 7 7
