ply
    format ascii 1.0
    element vertex 89480
    property float x
    property float y
    property float z
    property uchar red
    property uchar green
    property uchar blue
    end_header
-0.089844 -0.570312 -0.093243 105 36 43
-0.085938 -0.570312 -0.089922 104 37 43
-0.082031 -0.570312 -0.086154 92 32 38
-0.078125 -0.570312 -0.082944 89 31 38
-0.074219 -0.570312 -0.078825 100 37 42
-0.070312 -0.570312 -0.073695 94 33 36
-0.066406 -0.570312 -0.068299 86 27 29
-0.062500 -0.570312 -0.062734 77 23 24
-0.058594 -0.570312 -0.056681 80 23 25
-0.054688 -0.570312 -0.049918 88 26 28
-0.050781 -0.570312 -0.042878 74 22 25
-0.046875 -0.570312 -0.034703 77 25 28
-0.042969 -0.570312 -0.025687 92 33 36
-0.039062 -0.570312 -0.015822 81 29 30
-0.011719 -0.570312 0.014713 81 29 34
-0.007812 -0.570312 0.010566 68 22 27
-0.003906 -0.570312 0.005258 75 22 27
0.000000 -0.570312 -0.000899 79 22 27
0.003906 -0.570312 -0.007774 81 22 26
0.007812 -0.570312 -0.014474 80 21 25
0.011719 -0.570312 -0.020437 79 21 25
0.015625 -0.570312 -0.026730 78 21 27
0.019531 -0.570312 -0.032910 73 20 28
0.023438 -0.570312 -0.039379 111 32 43
0.027344 -0.570312 -0.045901 203 85 95
0.031250 -0.570312 -0.051696 229 126 132
0.035156 -0.570312 -0.057595 202 89 95
0.039062 -0.570312 -0.063252 131 41 46
0.042969 -0.570312 -0.068482 101 33 38
0.046875 -0.570312 -0.073039 125 51 57
0.050781 -0.570312 -0.076940 132 61 65
0.054688 -0.570312 -0.080233 110 47 52
0.058594 -0.570312 -0.083229 108 44 50
0.062500 -0.570312 -0.086028 122 50 56
0.066406 -0.570312 -0.088567 116 44 51
0.070312 -0.570312 -0.090849 110 39 46
0.074219 -0.570312 -0.092722 133 50 57
0.078125 -0.570312 -0.094366 143 54 60
0.082031 -0.570312 -0.095878 134 49 54
0.085938 -0.570312 -0.097031 145 58 64
0.089844 -0.570312 -0.097914 131 54 61
0.093750 -0.570312 -0.098344 94 36 45
0.097656 -0.570312 -0.098542 109 42 52
0.101562 -0.570312 -0.098586 116 41 51
0.105469 -0.570312 -0.098591 92 28 37
0.109375 -0.570312 -0.098394 93 28 36
0.113281 -0.570312 -0.097846 87 27 36
0.117188 -0.570312 -0.097124 87 29 39
0.121094 -0.570312 -0.096122 105 40 52
0.125000 -0.570312 -0.094914 108 41 53
0.128906 -0.570312 -0.093326 102 37 48
0.132812 -0.570312 -0.091337 111 40 52
0.136719 -0.570312 -0.089189 122 46 58
0.140625 -0.570312 -0.086761 133 55 68
0.144531 -0.570312 -0.083891 141 59 74
0.148438 -0.570312 -0.080691 122 45 57
0.152344 -0.570312 -0.077400 125 44 56
0.156250 -0.570312 -0.074112 151 63 75
0.160156 -0.570312 -0.070298 143 61 73
0.164062 -0.570312 -0.066018 128 54 63
0.167969 -0.570312 -0.061873 124 53 62
0.171875 -0.570312 -0.057109 106 42 53
0.175781 -0.570312 -0.052880 105 38 49
0.179688 -0.570312 -0.047514 115 41 51
0.183594 -0.570312 -0.041522 127 52 60
0.187500 -0.570312 -0.032019 161 87 89
-0.222656 -0.574219 -0.009739 96 53 49
-0.218750 -0.574219 -0.020464 94 46 45
-0.214844 -0.574219 -0.028559 84 38 39
-0.210938 -0.574219 -0.036667 88 35 36
-0.207031 -0.574219 -0.044540 83 27 28
-0.203125 -0.574219 -0.053714 92 29 31
-0.199219 -0.574219 -0.063427 98 32 34
-0.195312 -0.574219 -0.073471 82 28 32
-0.191406 -0.574219 -0.082148 95 38 43
-0.187500 -0.574219 -0.088997 110 47 53
-0.183594 -0.574219 -0.094819 96 38 44
-0.179688 -0.574219 -0.098999 99 38 42
-0.175781 -0.574219 -0.102546 87 32 35
-0.171875 -0.574219 -0.105363 84 30 33
-0.167969 -0.574219 -0.107177 88 31 34
-0.164062 -0.574219 -0.108594 73 23 26
-0.160156 -0.574219 -0.109555 79 27 31
-0.156250 -0.574219 -0.110505 93 34 42
-0.152344 -0.574219 -0.111216 138 56 64
-0.148438 -0.574219 -0.111693 185 85 87
-0.144531 -0.574219 -0.112170 193 85 89
-0.140625 -0.574219 -0.112301 209 111 112
-0.136719 -0.574219 -0.112182 200 104 107
-0.132812 -0.574219 -0.111984 156 62 68
-0.128906 -0.574219 -0.111606 132 48 54
-0.125000 -0.574219 -0.110996 140 53 58
-0.121094 -0.574219 -0.109886 160 65 69
-0.117188 -0.574219 -0.108275 170 67 72
-0.113281 -0.574219 -0.106317 180 69 73
-0.109375 -0.574219 -0.104351 184 72 74
-0.105469 -0.574219 -0.102672 182 70 73
-0.101562 -0.574219 -0.100959 163 59 63
-0.097656 -0.574219 -0.099181 130 44 51
-0.093750 -0.574219 -0.096581 112 37 44
-0.089844 -0.574219 -0.093966 110 37 43
-0.085938 -0.574219 -0.090479 123 44 50
-0.082031 -0.574219 -0.086564 112 41 47
-0.078125 -0.574219 -0.083214 100 36 43
-0.074219 -0.574219 -0.078834 105 39 45
-0.070312 -0.574219 -0.073453 89 30 34
-0.066406 -0.574219 -0.067869 76 23 26
-0.062500 -0.574219 -0.062111 73 21 23
-0.058594 -0.574219 -0.055916 75 22 24
-0.054688 -0.574219 -0.049022 82 23 26
-0.050781 -0.574219 -0.041814 72 20 23
-0.046875 -0.574219 -0.033745 74 23 26
-0.042969 -0.574219 -0.024847 89 32 34
-0.039062 -0.574219 -0.015216 62 22 24
-0.011719 -0.574219 0.026019 82 29 35
-0.007812 -0.574219 0.013145 75 24 30
-0.003906 -0.574219 0.008809 77 23 29
0.000000 -0.574219 0.002985 81 24 29
0.003906 -0.574219 -0.006168 90 27 32
0.007812 -0.574219 -0.012604 88 25 29
0.011719 -0.574219 -0.018868 77 20 24
0.015625 -0.574219 -0.025097 82 21 26
0.019531 -0.574219 -0.031208 84 22 30
0.023438 -0.574219 -0.038183 89 24 34
0.027344 -0.574219 -0.044824 136 37 50
0.031250 -0.574219 -0.050778 201 79 89
0.035156 -0.574219 -0.056989 224 118 120
0.039062 -0.574219 -0.062637 205 93 96
0.042969 -0.574219 -0.067931 142 50 56
0.046875 -0.574219 -0.072793 113 42 50
0.050781 -0.574219 -0.077106 116 48 56
0.054688 -0.574219 -0.080591 106 43 50
0.058594 -0.574219 -0.083540 97 37 43
0.062500 -0.574219 -0.086383 103 39 43
0.066406 -0.574219 -0.088837 106 38 43
0.070312 -0.574219 -0.091010 114 41 46
0.074219 -0.574219 -0.092884 144 57 64
0.078125 -0.574219 -0.094396 149 59 65
0.082031 -0.574219 -0.095723 134 50 55
0.085938 -0.574219 -0.096788 139 53 60
0.089844 -0.574219 -0.097532 125 49 57
0.093750 -0.574219 -0.097914 102 40 49
0.097656 -0.574219 -0.098144 111 42 53
0.101562 -0.574219 -0.098211 109 36 46
0.105469 -0.574219 -0.098237 99 29 38
0.109375 -0.574219 -0.098034 107 31 40
0.113281 -0.574219 -0.097504 104 32 41
0.117188 -0.574219 -0.096767 103 33 43
0.121094 -0.574219 -0.095802 111 38 49
0.125000 -0.574219 -0.094663 110 38 49
0.128906 -0.574219 -0.093118 96 31 41
0.132812 -0.574219 -0.091188 95 30 40
0.136719 -0.574219 -0.089061 103 34 45
0.140625 -0.574219 -0.086654 122 46 58
0.144531 -0.574219 -0.083822 139 60 74
0.148438 -0.574219 -0.080637 110 42 55
0.152344 -0.574219 -0.077445 104 36 48
0.156250 -0.574219 -0.074280 131 50 62
0.160156 -0.574219 -0.070527 119 45 56
0.164062 -0.574219 -0.066213 112 43 52
0.167969 -0.574219 -0.062028 130 53 63
0.171875 -0.574219 -0.057305 126 50 63
0.175781 -0.574219 -0.053066 115 42 54
0.179688 -0.574219 -0.047646 110 37 49
0.183594 -0.574219 -0.042100 126 49 59
0.187500 -0.574219 -0.032004 159 82 87
-0.218750 -0.578125 -0.019065 84 41 39
-0.214844 -0.578125 -0.027349 82 38 39
-0.210938 -0.578125 -0.035349 84 35 36
-0.207031 -0.578125 -0.043259 81 27 29
-0.203125 -0.578125 -0.052826 85 25 27
-0.199219 -0.578125 -0.062917 84 24 26
-0.195312 -0.578125 -0.073085 71 21 24
-0.191406 -0.578125 -0.081730 75 25 30
-0.187500 -0.578125 -0.088701 85 31 36
-0.183594 -0.578125 -0.094506 84 30 36
-0.179688 -0.578125 -0.098740 99 37 41
-0.175781 -0.578125 -0.102402 104 41 43
-0.171875 -0.578125 -0.105317 110 45 47
-0.167969 -0.578125 -0.107280 114 46 47
-0.164062 -0.578125 -0.108764 89 31 33
-0.160156 -0.578125 -0.109841 90 32 34
-0.156250 -0.578125 -0.110962 96 36 42
-0.152344 -0.578125 -0.111734 117 45 52
-0.148438 -0.578125 -0.112339 169 70 75
-0.144531 -0.578125 -0.112903 196 85 88
-0.140625 -0.578125 -0.113135 211 102 103
-0.136719 -0.578125 -0.113206 205 94 98
-0.132812 -0.578125 -0.112959 175 65 72
-0.128906 -0.578125 -0.112588 142 48 55
-0.125000 -0.578125 -0.112058 126 42 47
-0.121094 -0.578125 -0.110877 137 49 54
-0.117188 -0.578125 -0.109238 155 61 65
-0.113281 -0.578125 -0.107232 176 73 76
-0.109375 -0.578125 -0.105216 186 76 80
-0.105469 -0.578125 -0.103485 184 70 73
-0.101562 -0.578125 -0.101728 178 67 70
-0.097656 -0.578125 -0.099971 159 59 64
-0.093750 -0.578125 -0.097018 122 39 46
-0.089844 -0.578125 -0.094503 91 27 33
-0.085938 -0.578125 -0.090925 97 30 36
-0.082031 -0.578125 -0.086892 96 31 37
-0.078125 -0.578125 -0.083410 89 29 35
-0.074219 -0.578125 -0.078789 93 31 36
-0.070312 -0.578125 -0.073147 80 25 29
-0.066406 -0.578125 -0.067304 72 22 24
-0.062500 -0.578125 -0.061304 79 24 26
-0.058594 -0.578125 -0.054956 83 25 27
-0.054688 -0.578125 -0.047896 85 25 27
-0.050781 -0.578125 -0.040555 75 21 24
-0.046875 -0.578125 -0.032479 75 23 25
-0.042969 -0.578125 -0.023600 94 35 34
-0.039062 -0.578125 -0.014375 69 25 26
-0.007812 -0.578125 0.025737 75 25 31
-0.003906 -0.578125 0.013020 76 24 30
0.000000 -0.578125 0.009116 77 24 30
0.003906 -0.578125 -0.001182 85 26 32
0.007812 -0.578125 -0.010326 89 26 32
0.011719 -0.578125 -0.016046 79 22 27
0.015625 -0.578125 -0.023357 82 21 26
0.019531 -0.578125 -0.029712 91 23 29
0.023438 -0.578125 -0.037006 88 22 30
0.027344 -0.578125 -0.043857 89 23 32
0.031250 -0.578125 -0.050169 136 41 50
0.035156 -0.578125 -0.056373 212 96 102
0.039062 -0.578125 -0.061690 230 126 130
0.042969 -0.578125 -0.067299 202 90 97
0.046875 -0.578125 -0.072679 142 52 59
0.050781 -0.578125 -0.077226 105 37 46
0.054688 -0.578125 -0.080858 99 34 42
0.058594 -0.578125 -0.083835 101 35 41
0.062500 -0.578125 -0.086735 103 37 41
0.066406 -0.578125 -0.089245 109 38 43
0.070312 -0.578125 -0.091295 126 47 51
0.074219 -0.578125 -0.092963 157 65 71
0.078125 -0.578125 -0.094377 164 69 75
0.082031 -0.578125 -0.095571 151 61 66
0.085938 -0.578125 -0.096535 134 52 58
0.089844 -0.578125 -0.097240 113 44 50
0.093750 -0.578125 -0.097579 108 43 52
0.097656 -0.578125 -0.097757 111 41 52
0.101562 -0.578125 -0.097846 103 33 43
0.105469 -0.578125 -0.097865 104 30 39
0.109375 -0.578125 -0.097621 107 30 40
0.113281 -0.578125 -0.097152 109 32 42
0.117188 -0.578125 -0.096445 109 33 43
0.121094 -0.578125 -0.095501 105 33 43
0.125000 -0.578125 -0.094419 110 36 46
0.128906 -0.578125 -0.092919 102 32 41
0.132812 -0.578125 -0.091013 97 29 38
0.136719 -0.578125 -0.088923 99 30 39
0.140625 -0.578125 -0.086583 104 35 45
0.144531 -0.578125 -0.083788 121 47 59
0.148438 -0.578125 -0.080626 105 39 51
0.152344 -0.578125 -0.077506 100 35 46
0.156250 -0.578125 -0.074397 110 38 49
0.160156 -0.578125 -0.070681 99 33 44
0.164062 -0.578125 -0.066418 106 39 48
0.167969 -0.578125 -0.062251 126 50 61
0.171875 -0.578125 -0.057479 133 54 68
0.175781 -0.578125 -0.053209 125 49 63
0.179688 -0.578125 -0.047872 109 40 51
0.183594 -0.578125 -0.042089 126 50 60
0.187500 -0.578125 -0.032058 157 78 85
-0.218750 -0.582031 -0.017474 77 37 36
-0.214844 -0.582031 -0.025738 87 42 43
-0.210938 -0.582031 -0.033651 89 38 40
-0.207031 -0.582031 -0.041626 83 29 31
-0.203125 -0.582031 -0.051609 81 24 26
-0.199219 -0.582031 -0.062030 81 22 24
-0.195312 -0.582031 -0.072233 86 25 28
-0.191406 -0.582031 -0.080809 93 30 33
-0.187500 -0.582031 -0.087933 92 30 34
-0.183594 -0.582031 -0.093772 85 27 32
-0.179688 -0.582031 -0.098134 88 30 34
-0.175781 -0.582031 -0.101938 90 33 35
-0.171875 -0.582031 -0.105050 98 38 40
-0.167969 -0.582031 -0.107201 106 43 43
-0.164062 -0.582031 -0.108704 93 35 35
-0.160156 -0.582031 -0.109874 104 40 40
-0.156250 -0.582031 -0.111168 113 43 46
-0.152344 -0.582031 -0.112143 104 38 43
-0.148438 -0.582031 -0.112994 132 46 52
-0.144531 -0.582031 -0.113599 177 66 72
-0.140625 -0.582031 -0.113772 207 90 92
-0.136719 -0.582031 -0.113883 215 95 96
-0.132812 -0.582031 -0.113629 205 83 86
-0.128906 -0.582031 -0.113282 177 63 68
-0.125000 -0.582031 -0.112806 142 44 50
-0.121094 -0.582031 -0.111701 133 43 48
-0.117188 -0.582031 -0.110155 145 52 58
-0.113281 -0.582031 -0.108142 164 64 70
-0.109375 -0.582031 -0.105977 177 69 73
-0.105469 -0.582031 -0.104050 182 66 70
-0.101562 -0.582031 -0.102199 188 73 75
-0.097656 -0.582031 -0.100434 181 74 77
-0.093750 -0.582031 -0.097473 136 45 52
-0.089844 -0.582031 -0.094919 89 25 31
-0.085938 -0.582031 -0.091174 90 27 33
-0.082031 -0.582031 -0.087037 96 29 35
-0.078125 -0.582031 -0.083485 90 27 33
-0.074219 -0.582031 -0.078614 93 30 34
-0.070312 -0.582031 -0.072671 82 26 30
-0.066406 -0.582031 -0.066517 76 24 27
-0.062500 -0.582031 -0.060205 86 28 30
-0.058594 -0.582031 -0.053641 86 27 30
-0.054688 -0.582031 -0.046384 81 24 27
-0.050781 -0.582031 -0.039013 80 23 26
-0.046875 -0.582031 -0.030984 78 24 26
-0.042969 -0.582031 -0.022033 90 32 32
-0.039062 -0.582031 -0.012906 61 21 22
0.000000 -0.582031 0.017123 71 23 29
0.003906 -0.582031 0.007299 78 25 31
0.007812 -0.582031 -0.007277 82 27 32
0.011719 -0.582031 -0.014156 80 26 31
0.015625 -0.582031 -0.021410 82 25 30
0.019531 -0.582031 -0.028984 80 22 26
0.023438 -0.582031 -0.035943 78 19 25
0.027344 -0.582031 -0.042749 77 20 26
0.031250 -0.582031 -0.049424 87 23 32
0.035156 -0.582031 -0.055384 144 42 54
0.039062 -0.582031 -0.060745 210 91 100
0.042969 -0.582031 -0.066634 229 131 132
0.046875 -0.582031 -0.072059 217 113 116
0.050781 -0.582031 -0.076761 165 62 70
0.054688 -0.582031 -0.080602 118 36 44
0.058594 -0.582031 -0.083951 112 35 41
0.062500 -0.582031 -0.086957 120 41 46
0.066406 -0.582031 -0.089462 121 41 46
0.070312 -0.582031 -0.091564 123 44 48
0.074219 -0.582031 -0.093149 139 52 59
0.078125 -0.582031 -0.094465 158 63 69
0.082031 -0.582031 -0.095563 169 75 79
0.085938 -0.582031 -0.096350 143 61 67
0.089844 -0.582031 -0.096953 102 41 47
0.093750 -0.582031 -0.097244 101 43 50
0.097656 -0.582031 -0.097416 98 38 47
0.101562 -0.582031 -0.097597 87 28 37
0.105469 -0.582031 -0.097627 92 27 37
0.109375 -0.582031 -0.097332 92 27 38
0.113281 -0.582031 -0.096921 105 32 44
0.117188 -0.582031 -0.096329 112 35 47
0.121094 -0.582031 -0.095463 100 30 41
0.125000 -0.582031 -0.094374 113 37 47
0.128906 -0.582031 -0.092858 114 38 49
0.132812 -0.582031 -0.090928 105 34 43
0.136719 -0.582031 -0.088848 106 34 43
0.140625 -0.582031 -0.086560 106 35 45
0.144531 -0.582031 -0.083805 119 44 54
0.148438 -0.582031 -0.080673 118 44 55
0.152344 -0.582031 -0.077570 119 44 55
0.156250 -0.582031 -0.074451 117 41 53
0.160156 -0.582031 -0.070742 107 37 48
0.164062 -0.582031 -0.066501 117 43 55
0.167969 -0.582031 -0.062383 118 45 57
0.171875 -0.582031 -0.057615 127 51 64
0.175781 -0.582031 -0.053260 135 57 71
0.179688 -0.582031 -0.048140 122 50 64
0.183594 -0.582031 -0.041947 139 59 72
0.187500 -0.582031 -0.032818 189 105 109
0.191406 -0.582031 -0.001049 148 78 81
-0.218750 -0.585938 -0.015594 76 37 36
-0.214844 -0.585938 -0.024024 86 42 43
-0.210938 -0.585938 -0.031791 91 40 42
-0.207031 -0.585938 -0.039830 92 34 37
-0.203125 -0.585938 -0.050187 87 27 29
-0.199219 -0.585938 -0.061015 79 21 24
-0.195312 -0.585938 -0.071347 90 26 28
-0.191406 -0.585938 -0.079880 95 29 32
-0.187500 -0.585938 -0.087076 86 26 29
-0.183594 -0.585938 -0.092946 81 24 27
-0.179688 -0.585938 -0.097418 82 26 29
-0.175781 -0.585938 -0.101314 80 28 29
-0.171875 -0.585938 -0.104581 81 29 31
-0.167969 -0.585938 -0.106948 93 35 36
-0.164062 -0.585938 -0.108668 102 39 38
-0.160156 -0.585938 -0.110073 113 43 41
-0.156250 -0.585938 -0.111438 112 40 40
-0.152344 -0.585938 -0.112514 91 30 33
-0.148438 -0.585938 -0.113548 98 32 37
-0.144531 -0.585938 -0.114173 148 51 58
-0.140625 -0.585938 -0.114358 197 79 83
-0.136719 -0.585938 -0.114497 220 95 97
-0.132812 -0.585938 -0.114201 220 95 96
-0.128906 -0.585938 -0.113877 201 74 80
-0.125000 -0.585938 -0.113388 170 54 60
-0.121094 -0.585938 -0.112339 150 49 54
-0.117188 -0.585938 -0.110915 142 50 56
-0.113281 -0.585938 -0.108959 148 54 61
-0.109375 -0.585938 -0.106787 163 59 66
-0.105469 -0.585938 -0.104722 178 62 67
-0.101562 -0.585938 -0.102753 189 71 73
-0.097656 -0.585938 -0.100867 185 75 77
-0.093750 -0.585938 -0.097850 145 51 56
-0.089844 -0.585938 -0.095111 100 31 37
-0.085938 -0.585938 -0.091429 113 38 43
-0.082031 -0.585938 -0.087192 118 40 46
-0.078125 -0.585938 -0.083524 96 30 35
-0.074219 -0.585938 -0.078434 99 32 36
-0.070312 -0.585938 -0.072227 100 34 38
-0.066406 -0.585938 -0.065729 94 33 36
-0.062500 -0.585938 -0.059006 97 34 37
-0.058594 -0.585938 -0.052178 83 27 30
-0.054688 -0.585938 -0.044751 76 23 26
-0.050781 -0.585938 -0.037159 87 26 29
-0.046875 -0.585938 -0.028889 86 26 28
-0.042969 -0.585938 -0.020490 91 31 31
-0.039062 -0.585938 -0.011395 55 18 19
0.003906 -0.585938 0.017374 83 30 35
0.007812 -0.585938 0.002919 88 34 40
0.011719 -0.585938 -0.011324 89 36 43
0.015625 -0.585938 -0.018537 89 34 40
0.019531 -0.585938 -0.026913 76 23 28
0.023438 -0.585938 -0.035031 72 19 23
0.027344 -0.585938 -0.041794 80 20 25
0.031250 -0.585938 -0.048746 82 21 28
0.035156 -0.585938 -0.054716 93 25 36
0.039062 -0.585938 -0.060445 153 50 62
0.042969 -0.585938 -0.066133 220 109 115
0.046875 -0.585938 -0.071098 235 141 144
0.050781 -0.585938 -0.076015 218 103 108
0.054688 -0.585938 -0.080169 165 52 57
0.058594 -0.585938 -0.083622 125 36 42
0.062500 -0.585938 -0.086905 128 41 47
0.066406 -0.585938 -0.089433 130 44 49
0.070312 -0.585938 -0.091464 122 42 48
0.074219 -0.585938 -0.093203 118 42 50
0.078125 -0.585938 -0.094546 128 46 53
0.082031 -0.585938 -0.095490 155 64 69
0.085938 -0.585938 -0.096162 144 62 68
0.089844 -0.585938 -0.096647 106 46 53
0.093750 -0.585938 -0.096877 108 51 59
0.097656 -0.585938 -0.097121 104 46 55
0.101562 -0.585938 -0.097339 96 37 47
0.105469 -0.585938 -0.097332 113 41 53
0.109375 -0.585938 -0.097015 120 43 57
0.113281 -0.585938 -0.096589 132 49 64
0.117188 -0.585938 -0.096006 127 44 57
0.121094 -0.585938 -0.095215 101 31 42
0.125000 -0.585938 -0.094197 108 35 46
0.128906 -0.585938 -0.092706 117 40 52
0.132812 -0.585938 -0.090809 117 41 52
0.136719 -0.585938 -0.088782 114 40 50
0.140625 -0.585938 -0.086517 98 33 43
0.144531 -0.585938 -0.083809 102 35 45
0.148438 -0.585938 -0.080737 105 38 49
0.152344 -0.585938 -0.077663 109 39 51
0.156250 -0.585938 -0.074535 117 43 55
0.160156 -0.585938 -0.070815 130 51 63
0.164062 -0.585938 -0.066555 144 58 72
0.167969 -0.585938 -0.062435 125 48 61
0.171875 -0.585938 -0.057708 121 46 60
0.175781 -0.585938 -0.053318 132 54 69
0.179688 -0.585938 -0.048205 135 58 73
0.183594 -0.585938 -0.041671 157 71 83
0.187500 -0.585938 -0.033603 204 121 117
0.191406 -0.585938 -0.003240 213 151 139
-0.218750 -0.589844 -0.013685 74 35 36
-0.214844 -0.589844 -0.022124 81 38 40
-0.210938 -0.589844 -0.029845 82 35 37
-0.207031 -0.589844 -0.037865 89 32 35
-0.203125 -0.589844 -0.048603 90 27 30
-0.199219 -0.589844 -0.059817 80 22 24
-0.195312 -0.589844 -0.070261 90 26 28
-0.191406 -0.589844 -0.078828 95 29 31
-0.187500 -0.589844 -0.086032 86 25 28
-0.183594 -0.589844 -0.091866 88 26 29
-0.179688 -0.589844 -0.096414 98 32 34
-0.175781 -0.589844 -0.100451 94 33 34
-0.171875 -0.589844 -0.103890 83 29 32
-0.167969 -0.589844 -0.106462 86 31 34
-0.164062 -0.589844 -0.108432 97 36 38
-0.160156 -0.589844 -0.110061 102 37 38
-0.156250 -0.589844 -0.111444 104 35 35
-0.152344 -0.589844 -0.112647 98 31 33
-0.148438 -0.589844 -0.113965 97 31 35
-0.144531 -0.589844 -0.114767 126 41 48
-0.140625 -0.589844 -0.115087 170 58 65
-0.136719 -0.589844 -0.115205 208 79 84
-0.132812 -0.589844 -0.114745 225 101 101
-0.128906 -0.589844 -0.114359 222 96 98
-0.125000 -0.589844 -0.113790 207 83 86
-0.121094 -0.589844 -0.112754 186 75 78
-0.117188 -0.589844 -0.111427 165 66 72
-0.113281 -0.589844 -0.109578 154 60 69
-0.109375 -0.589844 -0.107548 155 56 64
-0.105469 -0.589844 -0.105365 169 57 63
-0.101562 -0.589844 -0.103136 177 61 64
-0.097656 -0.589844 -0.101088 178 68 69
-0.093750 -0.589844 -0.098264 149 54 60
-0.089844 -0.589844 -0.095343 100 32 39
-0.085938 -0.589844 -0.091622 109 37 43
-0.082031 -0.589844 -0.087269 114 39 45
-0.078125 -0.589844 -0.083507 89 28 32
-0.074219 -0.589844 -0.078177 93 30 34
-0.070312 -0.589844 -0.071649 97 32 36
-0.066406 -0.589844 -0.064739 94 33 36
-0.062500 -0.589844 -0.057553 98 35 38
-0.058594 -0.589844 -0.050386 82 27 30
-0.054688 -0.589844 -0.042634 75 23 26
-0.050781 -0.589844 -0.034924 82 23 26
-0.046875 -0.589844 -0.026368 79 22 24
-0.042969 -0.589844 -0.018244 92 30 30
-0.039062 -0.589844 -0.008496 63 21 21
0.007812 -0.589844 0.021284 82 34 40
0.011719 -0.589844 -0.001434 105 52 58
0.015625 -0.589844 -0.016853 111 54 58
0.019531 -0.589844 -0.024677 90 35 40
0.023438 -0.589844 -0.034287 78 24 28
0.027344 -0.589844 -0.041608 80 21 25
0.031250 -0.589844 -0.048289 83 20 27
0.035156 -0.589844 -0.054141 82 21 30
0.039062 -0.589844 -0.060217 98 26 36
0.042969 -0.589844 -0.065626 163 50 64
0.046875 -0.589844 -0.070443 223 110 118
0.050781 -0.589844 -0.075611 236 138 137
0.054688 -0.589844 -0.079570 220 102 102
0.058594 -0.589844 -0.083082 169 55 61
0.062500 -0.589844 -0.086632 132 40 48
0.066406 -0.589844 -0.089336 126 40 47
0.070312 -0.589844 -0.091322 133 48 55
0.074219 -0.589844 -0.092941 145 59 68
0.078125 -0.589844 -0.094392 143 58 64
0.082031 -0.589844 -0.095431 151 63 68
0.085938 -0.589844 -0.096141 143 62 68
0.089844 -0.589844 -0.096595 122 56 64
0.093750 -0.589844 -0.096724 132 69 77
0.097656 -0.589844 -0.096941 120 59 69
0.101562 -0.589844 -0.097163 104 45 54
0.105469 -0.589844 -0.097142 119 48 58
0.109375 -0.589844 -0.096868 122 46 59
0.113281 -0.589844 -0.096500 125 45 59
0.117188 -0.589844 -0.095900 116 38 51
0.121094 -0.589844 -0.095104 99 30 41
0.125000 -0.589844 -0.094157 104 33 44
0.128906 -0.589844 -0.092723 114 39 51
0.132812 -0.589844 -0.090861 132 50 61
0.136719 -0.589844 -0.088831 135 54 64
0.140625 -0.589844 -0.086535 109 41 52
0.144531 -0.589844 -0.083809 112 44 55
0.148438 -0.589844 -0.080748 123 52 64
0.152344 -0.589844 -0.077739 116 46 60
0.156250 -0.589844 -0.074664 122 47 60
0.160156 -0.589844 -0.070946 135 52 66
0.164062 -0.589844 -0.066661 134 50 64
0.167969 -0.589844 -0.062506 114 40 52
0.171875 -0.589844 -0.057752 110 40 51
0.175781 -0.589844 -0.053279 117 46 58
0.179688 -0.589844 -0.048047 128 53 66
0.183594 -0.589844 -0.041361 153 65 74
0.187500 -0.589844 -0.034441 192 100 97
0.191406 -0.589844 -0.011469 205 134 126
-0.218750 -0.593750 -0.011840 82 40 41
-0.214844 -0.593750 -0.020018 85 39 42
-0.210938 -0.593750 -0.027590 78 31 34
-0.207031 -0.593750 -0.035641 80 26 29
-0.203125 -0.593750 -0.046788 83 24 27
-0.199219 -0.593750 -0.058461 77 21 23
-0.195312 -0.593750 -0.069067 82 23 26
-0.191406 -0.593750 -0.077703 89 26 29
-0.187500 -0.593750 -0.084919 83 24 26
-0.183594 -0.593750 -0.090733 86 25 27
-0.179688 -0.593750 -0.095325 94 29 32
-0.175781 -0.593750 -0.099490 94 32 34
-0.171875 -0.593750 -0.103095 94 34 38
-0.167969 -0.593750 -0.105853 98 39 43
-0.164062 -0.593750 -0.108065 101 41 45
-0.160156 -0.593750 -0.109890 93 35 39
-0.156250 -0.593750 -0.111426 97 33 35
-0.152344 -0.593750 -0.112910 110 36 37
-0.148438 -0.593750 -0.114336 105 34 37
-0.144531 -0.593750 -0.115186 106 35 39
-0.140625 -0.593750 -0.115660 131 41 47
-0.136719 -0.593750 -0.115711 180 58 66
-0.132812 -0.593750 -0.115168 221 95 96
-0.128906 -0.593750 -0.114780 232 109 109
-0.125000 -0.593750 -0.114095 226 101 102
-0.121094 -0.593750 -0.113039 207 89 92
-0.117188 -0.593750 -0.111765 186 78 85
-0.113281 -0.593750 -0.110020 172 74 82
-0.109375 -0.593750 -0.108131 164 66 73
-0.105469 -0.593750 -0.105834 173 65 70
-0.101562 -0.593750 -0.103518 179 66 69
-0.097656 -0.593750 -0.101285 193 81 82
-0.093750 -0.593750 -0.098478 186 83 88
-0.089844 -0.593750 -0.095330 123 46 52
-0.085938 -0.593750 -0.091837 99 35 40
-0.082031 -0.593750 -0.087396 101 34 39
-0.078125 -0.593750 -0.083564 89 28 32
-0.074219 -0.593750 -0.078041 91 29 32
-0.070312 -0.593750 -0.071146 84 26 30
-0.066406 -0.593750 -0.063718 81 26 30
-0.062500 -0.593750 -0.055937 90 30 33
-0.058594 -0.593750 -0.048391 81 26 29
-0.054688 -0.593750 -0.040317 76 22 25
-0.050781 -0.593750 -0.032534 74 20 22
-0.046875 -0.593750 -0.023758 72 19 20
-0.042969 -0.593750 -0.015288 85 25 25
-0.039062 -0.593750 -0.003232 45 14 16
0.011719 -0.593750 0.014802 89 44 49
0.015625 -0.593750 -0.012471 105 54 58
0.019531 -0.593750 -0.023354 93 42 47
0.023438 -0.593750 -0.032886 85 31 35
0.027344 -0.593750 -0.040505 83 23 27
0.031250 -0.593750 -0.047544 87 22 27
0.035156 -0.593750 -0.053561 85 21 27
0.039062 -0.593750 -0.059674 79 19 27
0.042969 -0.593750 -0.065062 101 27 39
0.046875 -0.593750 -0.069920 173 62 75
0.050781 -0.593750 -0.074910 228 119 123
0.054688 -0.593750 -0.078436 234 126 128
0.058594 -0.593750 -0.082242 202 78 85
0.062500 -0.593750 -0.086062 141 42 49
0.066406 -0.593750 -0.088831 110 31 39
0.070312 -0.593750 -0.091064 133 46 56
0.074219 -0.593750 -0.092609 171 78 86
0.078125 -0.593750 -0.093985 165 73 79
0.082031 -0.593750 -0.095089 151 63 67
0.085938 -0.593750 -0.095889 128 52 59
0.089844 -0.593750 -0.096409 111 47 55
0.093750 -0.593750 -0.096554 125 60 69
0.097656 -0.593750 -0.096750 111 50 61
0.101562 -0.593750 -0.097026 98 40 49
0.105469 -0.593750 -0.097074 105 41 50
0.109375 -0.593750 -0.096845 96 33 44
0.113281 -0.593750 -0.096554 96 31 42
0.117188 -0.593750 -0.096016 102 31 43
0.121094 -0.593750 -0.095237 103 31 41
0.125000 -0.593750 -0.094270 102 31 41
0.128906 -0.593750 -0.092846 94 29 41
0.132812 -0.593750 -0.091014 105 35 47
0.136719 -0.593750 -0.088931 121 45 57
0.140625 -0.593750 -0.086611 119 47 59
0.144531 -0.593750 -0.083919 145 68 80
0.148438 -0.593750 -0.080809 164 85 99
0.152344 -0.593750 -0.077791 138 62 77
0.156250 -0.593750 -0.074742 118 45 58
0.160156 -0.593750 -0.071007 109 38 51
0.164062 -0.593750 -0.066705 98 32 44
0.167969 -0.593750 -0.062521 95 31 41
0.171875 -0.593750 -0.057798 113 41 52
0.175781 -0.593750 -0.053395 126 51 62
0.179688 -0.593750 -0.048168 124 49 60
0.183594 -0.593750 -0.041301 134 50 60
0.187500 -0.593750 -0.034891 177 84 82
0.191406 -0.593750 -0.017889 205 133 125
-0.218750 -0.597656 -0.009353 86 43 45
-0.214844 -0.597656 -0.017750 90 42 45
-0.210938 -0.597656 -0.025241 86 33 36
-0.207031 -0.597656 -0.033317 82 26 29
-0.203125 -0.597656 -0.044804 82 23 26
-0.199219 -0.597656 -0.056942 79 21 24
-0.195312 -0.597656 -0.067736 81 23 26
-0.191406 -0.597656 -0.076420 89 27 30
-0.187500 -0.597656 -0.083638 79 23 27
-0.183594 -0.597656 -0.089504 76 22 25
-0.179688 -0.597656 -0.094148 81 26 29
-0.175781 -0.597656 -0.098380 85 28 31
-0.171875 -0.597656 -0.102116 98 35 39
-0.167969 -0.597656 -0.105096 113 47 52
-0.164062 -0.597656 -0.107570 126 56 61
-0.160156 -0.597656 -0.109602 115 48 53
-0.156250 -0.597656 -0.111340 105 38 40
-0.152344 -0.597656 -0.113085 113 38 39
-0.148438 -0.597656 -0.114576 103 33 35
-0.144531 -0.597656 -0.115460 93 30 32
-0.140625 -0.597656 -0.116091 105 32 38
-0.136719 -0.597656 -0.116149 141 41 49
-0.132812 -0.597656 -0.115512 200 70 75
-0.128906 -0.597656 -0.115022 227 93 95
-0.125000 -0.597656 -0.114291 227 92 94
-0.121094 -0.597656 -0.113183 214 81 84
-0.117188 -0.597656 -0.111856 196 76 81
-0.113281 -0.597656 -0.110283 186 81 87
-0.109375 -0.597656 -0.108543 175 73 80
-0.105469 -0.597656 -0.106175 176 69 75
-0.101562 -0.597656 -0.103816 177 66 69
-0.097656 -0.597656 -0.101542 190 77 80
-0.093750 -0.597656 -0.098564 195 91 94
-0.089844 -0.597656 -0.095229 140 56 61
-0.085938 -0.597656 -0.091766 100 37 42
-0.082031 -0.597656 -0.087319 98 34 39
-0.078125 -0.597656 -0.083333 95 31 35
-0.074219 -0.597656 -0.077641 97 31 34
-0.070312 -0.597656 -0.070487 89 28 31
-0.066406 -0.597656 -0.062542 91 28 32
-0.062500 -0.597656 -0.054104 93 29 33
-0.058594 -0.597656 -0.046070 80 24 26
-0.054688 -0.597656 -0.037679 75 21 24
-0.050781 -0.597656 -0.029658 73 19 22
-0.046875 -0.597656 -0.020732 76 19 21
-0.042969 -0.597656 -0.013052 75 21 22
-0.039062 -0.597656 0.001658 27 9 11
0.015625 -0.597656 0.006252 69 32 36
0.019531 -0.597656 -0.020673 86 40 46
0.023438 -0.597656 -0.031456 86 35 39
0.027344 -0.597656 -0.040144 75 23 27
0.031250 -0.597656 -0.046868 84 23 27
0.035156 -0.597656 -0.053219 88 23 27
0.039062 -0.597656 -0.059265 90 23 30
0.042969 -0.597656 -0.064530 96 28 38
0.046875 -0.597656 -0.069582 113 33 45
0.050781 -0.597656 -0.073845 174 55 68
0.054688 -0.597656 -0.077376 221 101 106
0.058594 -0.597656 -0.081709 225 114 115
0.062500 -0.597656 -0.085524 194 79 84
0.066406 -0.597656 -0.088188 136 44 52
0.070312 -0.597656 -0.090701 130 44 54
0.074219 -0.597656 -0.092613 156 62 72
0.078125 -0.597656 -0.093942 150 57 64
0.082031 -0.597656 -0.094935 141 52 58
0.085938 -0.597656 -0.095737 117 42 51
0.089844 -0.597656 -0.096345 99 37 47
0.093750 -0.597656 -0.096528 115 48 58
0.097656 -0.597656 -0.096673 106 43 53
0.101562 -0.597656 -0.096913 107 41 50
0.105469 -0.597656 -0.096978 119 45 55
0.109375 -0.597656 -0.096747 104 36 46
0.113281 -0.597656 -0.096440 101 33 43
0.117188 -0.597656 -0.095922 103 32 42
0.121094 -0.597656 -0.095214 101 30 40
0.125000 -0.597656 -0.094280 104 33 43
0.128906 -0.597656 -0.092834 101 32 44
0.132812 -0.597656 -0.091045 106 34 47
0.136719 -0.597656 -0.088964 117 40 53
0.140625 -0.597656 -0.086679 117 43 56
0.144531 -0.597656 -0.084066 137 60 75
0.148438 -0.597656 -0.080947 151 73 89
0.152344 -0.597656 -0.077920 123 53 67
0.156250 -0.597656 -0.074842 111 43 54
0.160156 -0.597656 -0.071066 123 47 58
0.164062 -0.597656 -0.066759 126 48 60
0.167969 -0.597656 -0.062543 120 45 57
0.171875 -0.597656 -0.057839 135 55 66
0.175781 -0.597656 -0.053555 143 61 73
0.179688 -0.597656 -0.048447 128 51 61
0.183594 -0.597656 -0.041471 140 53 62
0.187500 -0.597656 -0.035280 177 84 83
0.191406 -0.597656 -0.022112 191 115 111
-0.218750 -0.601562 -0.006532 88 44 46
-0.214844 -0.601562 -0.015376 93 43 46
-0.210938 -0.601562 -0.022597 92 35 37
-0.207031 -0.601562 -0.030711 84 25 28
-0.203125 -0.601562 -0.042519 81 22 25
-0.199219 -0.601562 -0.055276 82 22 25
-0.195312 -0.601562 -0.066392 85 25 28
-0.191406 -0.601562 -0.075122 103 34 38
-0.187500 -0.601562 -0.082346 98 33 37
-0.183594 -0.601562 -0.088181 92 30 35
-0.179688 -0.601562 -0.092861 103 35 39
-0.175781 -0.601562 -0.097200 94 31 35
-0.171875 -0.601562 -0.101110 83 27 31
-0.167969 -0.601562 -0.104261 86 30 37
-0.164062 -0.601562 -0.106917 107 43 51
-0.160156 -0.601562 -0.109237 109 44 51
-0.156250 -0.601562 -0.111250 93 32 36
-0.152344 -0.601562 -0.113182 98 31 33
-0.148438 -0.601562 -0.114777 99 30 31
-0.144531 -0.601562 -0.115780 101 32 32
-0.140625 -0.601562 -0.116487 105 33 36
-0.136719 -0.601562 -0.116484 106 31 37
-0.132812 -0.601562 -0.115820 168 54 61
-0.128906 -0.601562 -0.115214 223 92 98
-0.125000 -0.601562 -0.114402 231 99 101
-0.121094 -0.601562 -0.113371 225 86 87
-0.117188 -0.601562 -0.112027 210 78 80
-0.113281 -0.601562 -0.110441 194 77 82
-0.109375 -0.601562 -0.108770 173 65 73
-0.105469 -0.601562 -0.106420 165 60 67
-0.101562 -0.601562 -0.104002 160 55 59
-0.097656 -0.601562 -0.101665 163 57 61
-0.093750 -0.601562 -0.098644 168 65 70
-0.089844 -0.601562 -0.095549 132 50 55
-0.085938 -0.601562 -0.091727 104 40 45
-0.082031 -0.601562 -0.087403 94 35 39
-0.078125 -0.601562 -0.083342 89 31 34
-0.074219 -0.601562 -0.077410 92 30 33
-0.070312 -0.601562 -0.069880 90 28 31
-0.066406 -0.601562 -0.061321 96 30 33
-0.062500 -0.601562 -0.052054 89 27 30
-0.058594 -0.601562 -0.043357 75 22 24
-0.054688 -0.601562 -0.034632 79 23 25
-0.050781 -0.601562 -0.026331 85 23 26
-0.046875 -0.601562 -0.017616 101 28 31
-0.042969 -0.601562 -0.010192 102 32 33
0.019531 -0.601562 -0.015843 125 74 69
0.023438 -0.601562 -0.029922 114 58 58
0.027344 -0.601562 -0.039018 76 28 33
0.031250 -0.601562 -0.045991 73 21 25
0.035156 -0.601562 -0.052196 81 20 24
0.039062 -0.601562 -0.058614 98 26 31
0.042969 -0.601562 -0.063992 104 31 37
0.046875 -0.601562 -0.068871 88 24 32
0.050781 -0.601562 -0.073116 101 26 36
0.054688 -0.601562 -0.076798 169 57 67
0.058594 -0.601562 -0.081108 222 112 115
0.062500 -0.601562 -0.084341 227 125 128
0.066406 -0.601562 -0.087293 194 84 92
0.070312 -0.601562 -0.090038 148 53 61
0.074219 -0.601562 -0.092066 132 44 53
0.078125 -0.601562 -0.093762 135 45 53
0.082031 -0.601562 -0.094914 159 61 67
0.085938 -0.601562 -0.095605 139 53 62
0.089844 -0.601562 -0.096240 108 40 50
0.093750 -0.601562 -0.096462 114 45 56
0.097656 -0.601562 -0.096559 101 38 48
0.101562 -0.601562 -0.096792 96 33 43
0.105469 -0.601562 -0.096891 107 36 46
0.109375 -0.601562 -0.096680 107 37 47
0.113281 -0.601562 -0.096443 118 43 53
0.117188 -0.601562 -0.095990 110 37 47
0.121094 -0.601562 -0.095337 96 30 40
0.125000 -0.601562 -0.094443 117 41 53
0.128906 -0.601562 -0.092998 128 48 60
0.132812 -0.601562 -0.091210 120 41 53
0.136719 -0.601562 -0.089096 115 37 49
0.140625 -0.601562 -0.086813 105 34 46
0.144531 -0.601562 -0.084212 112 41 56
0.148438 -0.601562 -0.081081 125 52 68
0.152344 -0.601562 -0.078015 108 42 55
0.156250 -0.601562 -0.074885 101 36 47
0.160156 -0.601562 -0.071071 124 45 56
0.164062 -0.601562 -0.066708 140 56 68
0.167969 -0.601562 -0.062454 127 51 64
0.171875 -0.601562 -0.057824 131 52 65
0.175781 -0.601562 -0.053598 129 51 62
0.179688 -0.601562 -0.048620 125 48 58
0.183594 -0.601562 -0.041943 169 73 80
0.187500 -0.601562 -0.036120 201 108 104
0.191406 -0.601562 -0.025312 185 107 105
-0.218750 -0.605469 -0.003894 85 43 45
-0.214844 -0.605469 -0.012714 90 41 43
-0.210938 -0.605469 -0.019329 89 33 35
-0.207031 -0.605469 -0.027859 80 23 26
-0.203125 -0.605469 -0.039960 80 21 24
-0.199219 -0.605469 -0.053432 86 24 27
-0.195312 -0.605469 -0.064920 78 23 27
-0.191406 -0.605469 -0.073656 89 29 34
-0.187500 -0.605469 -0.080930 93 32 37
-0.183594 -0.605469 -0.086670 90 31 36
-0.179688 -0.605469 -0.091322 102 34 39
-0.175781 -0.605469 -0.095747 96 30 33
-0.171875 -0.605469 -0.099836 82 24 28
-0.167969 -0.605469 -0.103120 80 25 30
-0.164062 -0.605469 -0.105882 100 36 44
-0.160156 -0.605469 -0.108464 108 41 49
-0.156250 -0.605469 -0.110766 91 30 35
-0.152344 -0.605469 -0.112855 89 27 30
-0.148438 -0.605469 -0.114507 93 27 28
-0.144531 -0.605469 -0.115630 109 32 32
-0.140625 -0.605469 -0.116461 112 36 37
-0.136719 -0.605469 -0.116519 90 28 33
-0.132812 -0.605469 -0.115951 144 48 57
-0.128906 -0.605469 -0.115346 215 94 103
-0.125000 -0.605469 -0.114386 229 102 104
-0.121094 -0.605469 -0.113320 228 89 90
-0.117188 -0.605469 -0.111956 217 80 82
-0.113281 -0.605469 -0.110335 201 74 78
-0.109375 -0.605469 -0.108766 185 68 76
-0.105469 -0.605469 -0.106535 183 72 79
-0.101562 -0.605469 -0.104025 174 66 71
-0.097656 -0.605469 -0.101499 164 60 65
-0.093750 -0.605469 -0.098428 163 63 68
-0.089844 -0.605469 -0.095589 141 56 60
-0.085938 -0.605469 -0.091505 119 50 55
-0.082031 -0.605469 -0.087329 100 42 45
-0.078125 -0.605469 -0.083149 93 36 38
-0.074219 -0.605469 -0.076950 100 35 38
-0.070312 -0.605469 -0.069076 93 31 33
-0.066406 -0.605469 -0.059859 90 29 31
-0.062500 -0.605469 -0.049622 83 25 27
-0.058594 -0.605469 -0.040193 75 22 24
-0.054688 -0.605469 -0.031061 78 22 25
-0.050781 -0.605469 -0.022645 79 21 25
-0.046875 -0.605469 -0.014466 103 29 34
-0.042969 -0.605469 -0.006551 97 29 32
0.023438 -0.605469 -0.028865 61 32 33
0.027344 -0.605469 -0.037114 72 33 34
0.031250 -0.605469 -0.045051 80 30 31
0.035156 -0.605469 -0.051846 83 25 27
0.039062 -0.605469 -0.058295 97 29 31
0.042969 -0.605469 -0.063622 97 29 32
0.046875 -0.605469 -0.068475 83 22 27
0.050781 -0.605469 -0.072676 80 20 27
0.054688 -0.605469 -0.076740 100 26 36
0.058594 -0.605469 -0.080348 156 48 61
0.062500 -0.605469 -0.083675 211 99 107
0.066406 -0.605469 -0.086994 222 125 127
0.070312 -0.605469 -0.089497 197 92 96
0.074219 -0.605469 -0.091307 142 48 56
0.078125 -0.605469 -0.093244 119 35 43
0.082031 -0.605469 -0.094766 145 48 58
0.085938 -0.605469 -0.095589 135 48 59
0.089844 -0.605469 -0.096132 103 36 47
0.093750 -0.605469 -0.096302 106 39 49
0.097656 -0.605469 -0.096460 100 36 45
0.101562 -0.605469 -0.096649 93 31 39
0.105469 -0.605469 -0.096772 97 31 40
0.109375 -0.605469 -0.096596 104 36 45
0.113281 -0.605469 -0.096425 128 50 60
0.117188 -0.605469 -0.096052 120 46 56
0.121094 -0.605469 -0.095413 103 37 47
0.125000 -0.605469 -0.094530 129 50 62
0.128906 -0.605469 -0.093121 133 51 64
0.132812 -0.605469 -0.091370 109 36 47
0.136719 -0.605469 -0.089270 106 32 43
0.140625 -0.605469 -0.086947 105 33 44
0.144531 -0.605469 -0.084325 118 42 56
0.148438 -0.605469 -0.081202 137 55 71
0.152344 -0.605469 -0.078048 125 48 61
0.156250 -0.605469 -0.074861 105 35 46
0.160156 -0.605469 -0.071033 113 37 48
0.164062 -0.605469 -0.066670 132 49 61
0.167969 -0.605469 -0.062424 123 48 61
0.171875 -0.605469 -0.057888 116 45 56
0.175781 -0.605469 -0.053723 109 40 50
0.179688 -0.605469 -0.048903 122 46 56
0.183594 -0.605469 -0.042628 180 82 90
0.187500 -0.605469 -0.036789 208 115 112
0.191406 -0.605469 -0.027268 190 113 108
-0.218750 -0.609375 -0.000139 81 41 42
-0.214844 -0.609375 -0.008439 81 35 38
-0.210938 -0.609375 -0.015219 84 30 32
-0.207031 -0.609375 -0.024568 80 23 26
-0.203125 -0.609375 -0.037140 83 23 26
-0.199219 -0.609375 -0.051270 93 26 30
-0.195312 -0.609375 -0.063377 80 23 28
-0.191406 -0.609375 -0.072034 80 25 31
-0.187500 -0.609375 -0.079401 92 32 38
-0.183594 -0.609375 -0.085110 95 34 40
-0.179688 -0.609375 -0.089797 92 30 35
-0.175781 -0.609375 -0.094270 84 24 28
-0.171875 -0.609375 -0.098445 80 22 26
-0.167969 -0.609375 -0.101877 83 24 30
-0.164062 -0.609375 -0.104857 102 35 42
-0.160156 -0.609375 -0.107628 108 39 47
-0.156250 -0.609375 -0.110125 100 34 41
-0.152344 -0.609375 -0.112456 97 31 36
-0.148438 -0.609375 -0.114281 85 24 27
-0.144531 -0.609375 -0.115473 95 25 27
-0.140625 -0.609375 -0.116261 109 32 34
-0.136719 -0.609375 -0.116375 93 30 34
-0.132812 -0.609375 -0.115918 123 44 51
-0.128906 -0.609375 -0.115271 179 69 78
-0.125000 -0.609375 -0.114277 207 77 83
-0.121094 -0.609375 -0.113186 224 86 89
-0.117188 -0.609375 -0.111683 224 89 91
-0.113281 -0.609375 -0.110003 213 80 83
-0.109375 -0.609375 -0.108467 198 73 78
-0.105469 -0.609375 -0.106151 196 82 86
-0.101562 -0.609375 -0.103622 188 79 83
-0.097656 -0.609375 -0.101275 179 73 79
-0.093750 -0.609375 -0.098362 177 75 79
-0.089844 -0.609375 -0.095532 156 67 69
-0.085938 -0.609375 -0.091341 136 61 66
-0.082031 -0.609375 -0.087210 116 52 55
-0.078125 -0.609375 -0.082971 107 44 45
-0.074219 -0.609375 -0.076465 110 41 42
-0.070312 -0.609375 -0.068233 94 32 33
-0.066406 -0.609375 -0.058217 88 28 30
-0.062500 -0.609375 -0.046708 86 27 29
-0.058594 -0.609375 -0.036413 83 25 27
-0.054688 -0.609375 -0.027283 79 22 26
-0.050781 -0.609375 -0.019080 71 18 24
-0.046875 -0.609375 -0.011123 97 27 33
-0.042969 -0.609375 -0.003129 87 24 27
0.023438 -0.609375 -0.025381 20 13 16
0.027344 -0.609375 -0.035942 59 35 34
0.031250 -0.609375 -0.044415 85 43 38
0.035156 -0.609375 -0.051060 73 28 27
0.039062 -0.609375 -0.057668 85 29 29
0.042969 -0.609375 -0.062931 86 25 27
0.046875 -0.609375 -0.068040 86 23 26
0.050781 -0.609375 -0.072100 95 25 30
0.054688 -0.609375 -0.076140 92 25 32
0.058594 -0.609375 -0.079776 95 27 38
0.062500 -0.609375 -0.083330 147 54 66
0.066406 -0.609375 -0.086573 207 105 112
0.070312 -0.609375 -0.088566 216 115 120
0.074219 -0.609375 -0.090617 187 78 84
0.078125 -0.609375 -0.092783 138 45 52
0.082031 -0.609375 -0.094438 124 38 49
0.085938 -0.609375 -0.095472 121 39 52
0.089844 -0.609375 -0.095956 110 37 48
0.093750 -0.609375 -0.096136 112 40 50
0.097656 -0.609375 -0.096437 112 40 50
0.101562 -0.609375 -0.096611 107 36 44
0.105469 -0.609375 -0.096735 106 34 42
0.109375 -0.609375 -0.096611 103 34 42
0.113281 -0.609375 -0.096436 116 43 53
0.117188 -0.609375 -0.096025 114 44 54
0.121094 -0.609375 -0.095414 104 39 50
0.125000 -0.609375 -0.094610 119 45 57
0.128906 -0.609375 -0.093224 116 40 51
0.132812 -0.609375 -0.091486 105 32 42
0.136719 -0.609375 -0.089418 114 36 45
0.140625 -0.609375 -0.087092 118 40 50
0.144531 -0.609375 -0.084448 124 46 59
0.148438 -0.609375 -0.081293 136 55 69
0.152344 -0.609375 -0.078070 131 51 63
0.156250 -0.609375 -0.074841 113 39 48
0.160156 -0.609375 -0.070992 121 40 50
0.164062 -0.609375 -0.066602 145 56 67
0.167969 -0.609375 -0.062325 135 55 67
0.171875 -0.609375 -0.057868 119 48 58
0.175781 -0.609375 -0.053739 115 44 54
0.179688 -0.609375 -0.048960 136 53 65
0.183594 -0.609375 -0.043237 178 78 87
0.187500 -0.609375 -0.037565 202 105 105
0.191406 -0.609375 -0.029339 196 121 115
-0.218750 -0.613281 0.003721 81 40 41
-0.214844 -0.613281 -0.004701 81 34 37
-0.210938 -0.613281 -0.011517 83 28 31
-0.207031 -0.613281 -0.019105 83 23 27
-0.203125 -0.613281 -0.033932 82 22 26
-0.199219 -0.613281 -0.049002 88 24 28
-0.195312 -0.613281 -0.061905 82 23 28
-0.191406 -0.613281 -0.070289 82 25 31
-0.187500 -0.613281 -0.077651 96 33 40
-0.183594 -0.613281 -0.083310 109 41 48
-0.179688 -0.613281 -0.087992 98 32 38
-0.175781 -0.613281 -0.092469 82 23 27
-0.171875 -0.613281 -0.096684 76 20 24
-0.167969 -0.613281 -0.100267 84 23 29
-0.164062 -0.613281 -0.103463 99 32 40
-0.160156 -0.613281 -0.106394 92 31 39
-0.156250 -0.613281 -0.109054 98 33 40
-0.152344 -0.613281 -0.111576 113 39 45
-0.148438 -0.613281 -0.113562 93 27 32
-0.144531 -0.613281 -0.114823 85 23 26
-0.140625 -0.613281 -0.115585 99 30 32
-0.136719 -0.613281 -0.115785 99 35 38
-0.132812 -0.613281 -0.115505 108 42 49
-0.128906 -0.613281 -0.114990 125 44 53
-0.125000 -0.613281 -0.114125 170 55 62
-0.121094 -0.613281 -0.113037 219 86 90
-0.117188 -0.613281 -0.111454 228 99 100
-0.113281 -0.613281 -0.109679 218 82 85
-0.109375 -0.613281 -0.108106 197 64 69
-0.105469 -0.613281 -0.105813 190 68 73
-0.101562 -0.613281 -0.103442 189 75 81
-0.097656 -0.613281 -0.101327 188 79 84
-0.093750 -0.613281 -0.098493 179 75 77
-0.089844 -0.613281 -0.095632 141 56 57
-0.085938 -0.613281 -0.091526 119 48 52
-0.082031 -0.613281 -0.087270 104 42 45
-0.078125 -0.613281 -0.082873 93 35 35
-0.074219 -0.613281 -0.076152 93 32 33
-0.070312 -0.613281 -0.067583 83 27 28
-0.066406 -0.613281 -0.056572 86 28 29
-0.062500 -0.613281 -0.043256 90 29 31
-0.058594 -0.613281 -0.032100 86 28 29
-0.054688 -0.613281 -0.023591 83 25 29
-0.050781 -0.613281 -0.015403 74 20 26
-0.046875 -0.613281 -0.007706 91 25 30
-0.042969 -0.613281 0.000093 82 20 23
0.023438 -0.613281 -0.017495 114 58 58
0.027344 -0.613281 -0.034476 71 53 49
0.031250 -0.613281 -0.043104 94 61 51
0.035156 -0.613281 -0.050040 70 37 32
0.039062 -0.613281 -0.057038 79 34 32
0.042969 -0.613281 -0.062542 82 29 29
0.046875 -0.613281 -0.067707 89 28 30
0.050781 -0.613281 -0.071857 104 31 34
0.054688 -0.613281 -0.075617 107 31 36
0.058594 -0.613281 -0.079469 97 31 38
0.062500 -0.613281 -0.083058 103 37 48
0.066406 -0.613281 -0.085855 138 52 65
0.070312 -0.613281 -0.087858 179 75 85
0.074219 -0.613281 -0.090006 206 104 108
0.078125 -0.613281 -0.092204 204 105 108
0.082031 -0.613281 -0.093797 164 69 78
0.085938 -0.613281 -0.094889 122 42 54
0.089844 -0.613281 -0.095383 104 35 46
0.093750 -0.613281 -0.095854 107 38 48
0.097656 -0.613281 -0.096203 112 40 49
0.101562 -0.613281 -0.096454 105 35 43
0.105469 -0.613281 -0.096612 103 32 40
0.109375 -0.613281 -0.096567 102 33 40
0.113281 -0.613281 -0.096430 108 38 47
0.117188 -0.613281 -0.096023 115 44 55
0.121094 -0.613281 -0.095463 116 45 57
0.125000 -0.613281 -0.094704 116 43 53
0.128906 -0.613281 -0.093332 106 34 43
0.132812 -0.613281 -0.091576 101 31 39
0.136719 -0.613281 -0.089523 109 36 45
0.140625 -0.613281 -0.087241 117 43 53
0.144531 -0.613281 -0.084584 115 45 56
0.148438 -0.613281 -0.081365 125 51 63
0.152344 -0.613281 -0.078039 131 53 63
0.156250 -0.613281 -0.074745 109 38 46
0.160156 -0.613281 -0.070880 109 35 44
0.164062 -0.613281 -0.066415 125 45 55
0.167969 -0.613281 -0.062037 121 48 59
0.171875 -0.613281 -0.057699 120 48 59
0.175781 -0.613281 -0.053689 127 50 60
0.179688 -0.613281 -0.048907 149 61 69
0.183594 -0.613281 -0.043782 175 74 81
0.187500 -0.613281 -0.038118 197 97 98
0.191406 -0.613281 -0.030575 189 111 108
-0.214844 -0.617188 -0.001256 85 35 38
-0.210938 -0.617188 -0.008037 82 27 29
-0.207031 -0.617188 -0.013634 82 23 26
-0.203125 -0.617188 -0.030109 81 22 26
-0.199219 -0.617188 -0.046205 84 22 27
-0.195312 -0.617188 -0.059537 82 22 29
-0.191406 -0.617188 -0.068043 79 23 30
-0.187500 -0.617188 -0.075359 85 28 36
-0.183594 -0.617188 -0.081026 101 37 46
-0.179688 -0.617188 -0.085786 95 32 38
-0.175781 -0.617188 -0.090352 86 24 29
-0.171875 -0.617188 -0.094653 86 23 28
-0.167969 -0.617188 -0.098352 96 27 33
-0.164062 -0.617188 -0.101672 111 35 43
-0.160156 -0.617188 -0.104741 93 29 37
-0.156250 -0.617188 -0.107540 97 31 38
-0.152344 -0.617188 -0.110082 118 40 47
-0.148438 -0.617188 -0.112110 102 32 38
-0.144531 -0.617188 -0.113508 92 27 32
-0.140625 -0.617188 -0.114392 99 32 36
-0.136719 -0.617188 -0.114707 108 43 47
-0.132812 -0.617188 -0.114514 117 52 60
-0.128906 -0.617188 -0.114170 109 44 53
-0.125000 -0.617188 -0.113472 143 49 56
-0.121094 -0.617188 -0.112294 203 80 84
-0.117188 -0.617188 -0.110666 219 91 94
-0.113281 -0.617188 -0.108879 212 73 77
-0.109375 -0.617188 -0.107238 201 63 69
-0.105469 -0.617188 -0.105109 209 82 87
-0.101562 -0.617188 -0.102879 209 94 98
-0.097656 -0.617188 -0.100829 195 83 86
-0.093750 -0.617188 -0.098145 170 65 66
-0.089844 -0.617188 -0.095213 126 45 47
-0.085938 -0.617188 -0.091161 104 37 41
-0.082031 -0.617188 -0.086869 91 32 34
-0.078125 -0.617188 -0.082244 82 28 29
-0.074219 -0.617188 -0.075397 87 29 30
-0.070312 -0.617188 -0.066526 84 28 29
-0.066406 -0.617188 -0.054638 92 31 32
-0.062500 -0.617188 -0.039752 95 32 33
-0.058594 -0.617188 -0.027855 83 27 29
-0.054688 -0.617188 -0.019715 85 27 31
-0.050781 -0.617188 -0.012425 79 23 27
-0.046875 -0.617188 -0.005828 84 21 24
-0.042969 -0.617188 0.004007 67 14 18
0.027344 -0.617188 -0.030778 47 40 38
0.031250 -0.617188 -0.040807 89 70 55
0.035156 -0.617188 -0.049455 79 57 45
0.039062 -0.617188 -0.056257 84 50 42
0.042969 -0.617188 -0.061869 84 38 36
0.046875 -0.617188 -0.067276 91 34 35
0.050781 -0.617188 -0.071529 93 28 31
0.054688 -0.617188 -0.075271 94 26 29
0.058594 -0.617188 -0.079051 97 29 34
0.062500 -0.617188 -0.082836 100 34 42
0.066406 -0.617188 -0.085521 103 39 51
0.070312 -0.617188 -0.087672 120 46 59
0.074219 -0.617188 -0.089985 177 80 90
0.078125 -0.617188 -0.091633 208 113 119
0.082031 -0.617188 -0.093107 178 81 89
0.085938 -0.617188 -0.094428 116 39 49
0.089844 -0.617188 -0.094713 90 27 37
0.093750 -0.617188 -0.095503 99 33 43
0.097656 -0.617188 -0.095940 115 40 50
0.101562 -0.617188 -0.096193 105 34 43
0.105469 -0.617188 -0.096355 98 30 38
0.109375 -0.617188 -0.096360 101 32 39
0.113281 -0.617188 -0.096276 109 39 47
0.117188 -0.617188 -0.095984 126 52 62
0.121094 -0.617188 -0.095456 130 55 65
0.125000 -0.617188 -0.094637 118 44 54
0.128906 -0.617188 -0.093243 107 35 44
0.132812 -0.617188 -0.091503 103 33 42
0.136719 -0.617188 -0.089466 114 40 51
0.140625 -0.617188 -0.087210 133 54 66
0.144531 -0.617188 -0.084560 120 48 60
0.148438 -0.617188 -0.081350 123 51 61
0.152344 -0.617188 -0.077996 142 60 68
0.156250 -0.617188 -0.074678 120 44 51
0.160156 -0.617188 -0.070814 108 37 45
0.164062 -0.617188 -0.066380 111 41 50
0.167969 -0.617188 -0.061972 116 47 58
0.171875 -0.617188 -0.057649 125 52 63
0.175781 -0.617188 -0.053703 126 49 59
0.179688 -0.617188 -0.049017 140 56 63
0.183594 -0.617188 -0.044222 169 69 76
0.187500 -0.617188 -0.038400 194 93 95
0.191406 -0.617188 -0.031250 172 89 91
-0.214844 -0.621094 0.002738 97 39 42
-0.210938 -0.621094 -0.003584 84 28 30
-0.207031 -0.621094 -0.009213 79 22 26
-0.203125 -0.621094 -0.024228 83 23 28
-0.199219 -0.621094 -0.042936 90 25 30
-0.195312 -0.621094 -0.057025 89 25 31
-0.191406 -0.621094 -0.065776 85 25 32
-0.187500 -0.621094 -0.072881 92 30 38
-0.183594 -0.621094 -0.078600 114 42 52
-0.179688 -0.621094 -0.083413 105 36 44
-0.175781 -0.621094 -0.088064 92 27 33
-0.171875 -0.621094 -0.092416 90 24 30
-0.167969 -0.621094 -0.096135 87 23 29
-0.164062 -0.621094 -0.099535 96 27 34
-0.160156 -0.621094 -0.102685 87 25 32
-0.156250 -0.621094 -0.105553 87 25 32
-0.152344 -0.621094 -0.108110 99 30 37
-0.148438 -0.621094 -0.110166 93 28 35
-0.144531 -0.621094 -0.111653 98 31 37
-0.140625 -0.621094 -0.112638 105 37 42
-0.136719 -0.621094 -0.113164 115 49 54
-0.132812 -0.621094 -0.113167 131 64 71
-0.128906 -0.621094 -0.112966 119 55 62
-0.125000 -0.621094 -0.112405 132 52 59
-0.121094 -0.621094 -0.111316 183 75 81
-0.117188 -0.621094 -0.109737 213 98 101
-0.113281 -0.621094 -0.107949 213 83 88
-0.109375 -0.621094 -0.106235 210 74 78
-0.105469 -0.621094 -0.104202 225 106 108
-0.101562 -0.621094 -0.102125 218 104 106
-0.097656 -0.621094 -0.100196 182 67 71
-0.093750 -0.621094 -0.097647 155 52 54
