ply
    format ascii 1.0
    element vertex 52570
    property float x
    property float y
    property float z
    property uchar red
    property uchar green
    property uchar blue
    end_header
0.160156 -0.328125 -0.050016 126 157 183
0.164062 -0.328125 -0.043416 157 181 199
0.167969 -0.328125 -0.037223 137 167 185
0.171875 -0.328125 -0.014158 35 51 74
-0.148438 -0.332031 -0.000876 152 165 169
-0.144531 -0.332031 -0.043877 105 122 126
-0.140625 -0.332031 -0.065610 96 121 132
-0.136719 -0.332031 -0.072984 92 123 140
-0.132812 -0.332031 -0.079687 90 120 142
-0.128906 -0.332031 -0.084011 101 133 155
-0.125000 -0.332031 -0.087925 103 136 159
-0.121094 -0.332031 -0.091186 98 133 158
-0.117188 -0.332031 -0.094289 102 139 165
-0.113281 -0.332031 -0.097206 103 141 167
-0.109375 -0.332031 -0.099946 105 144 172
-0.105469 -0.332031 -0.102598 113 153 180
-0.101562 -0.332031 -0.105077 103 145 175
-0.097656 -0.332031 -0.107666 102 144 175
-0.093750 -0.332031 -0.110217 112 154 183
-0.089844 -0.332031 -0.112485 106 149 178
-0.085938 -0.332031 -0.114481 104 147 176
-0.082031 -0.332031 -0.116385 109 149 179
-0.078125 -0.332031 -0.118109 104 144 175
-0.074219 -0.332031 -0.119491 100 140 171
-0.070312 -0.332031 -0.120684 98 138 169
-0.066406 -0.332031 -0.121773 99 138 169
-0.062500 -0.332031 -0.122962 101 140 169
-0.058594 -0.332031 -0.124063 96 135 166
-0.054688 -0.332031 -0.125098 103 142 170
-0.050781 -0.332031 -0.126268 117 152 178
-0.046875 -0.332031 -0.127532 114 148 174
-0.042969 -0.332031 -0.129133 106 140 166
-0.039062 -0.332031 -0.130656 78 113 141
-0.035156 -0.332031 -0.131901 69 104 133
-0.031250 -0.332031 -0.133383 85 118 146
-0.027344 -0.332031 -0.134168 62 92 119
-0.023438 -0.332031 -0.133871 54 80 106
-0.019531 -0.332031 -0.134229 72 98 122
-0.015625 -0.332031 -0.134988 68 95 119
-0.011719 -0.332031 -0.134154 64 90 116
-0.007812 -0.332031 -0.133198 68 94 121
-0.003906 -0.332031 -0.132150 66 92 119
0.000000 -0.332031 -0.130813 69 94 121
0.003906 -0.332031 -0.130762 75 101 128
0.007812 -0.332031 -0.130831 77 104 131
0.011719 -0.332031 -0.131324 80 108 135
0.015625 -0.332031 -0.131219 82 111 138
0.019531 -0.332031 -0.131535 84 114 143
0.023438 -0.332031 -0.131548 89 119 150
0.027344 -0.332031 -0.131771 99 129 160
0.031250 -0.332031 -0.132236 102 132 162
0.035156 -0.332031 -0.132657 98 129 159
0.039062 -0.332031 -0.133316 99 132 161
0.042969 -0.332031 -0.133909 98 131 160
0.046875 -0.332031 -0.134451 99 134 161
0.050781 -0.332031 -0.134872 102 136 164
0.054688 -0.332031 -0.135307 102 136 164
0.058594 -0.332031 -0.135531 109 141 168
0.062500 -0.332031 -0.135587 106 138 165
0.066406 -0.332031 -0.135399 107 139 167
0.070312 -0.332031 -0.134925 109 141 168
0.074219 -0.332031 -0.134256 107 139 166
0.078125 -0.332031 -0.133367 105 137 164
0.082031 -0.332031 -0.132259 99 131 160
0.085938 -0.332031 -0.130986 105 138 166
0.089844 -0.332031 -0.129542 111 144 172
0.093750 -0.332031 -0.127847 112 145 173
0.097656 -0.332031 -0.125819 111 144 171
0.101562 -0.332031 -0.123634 112 145 172
0.105469 -0.332031 -0.121253 117 150 177
0.109375 -0.332031 -0.118923 114 147 175
0.113281 -0.332031 -0.116477 118 151 178
0.117188 -0.332031 -0.113625 116 151 178
0.121094 -0.332031 -0.110325 107 145 174
0.125000 -0.332031 -0.106838 109 147 176
0.128906 -0.332031 -0.102632 110 148 176
0.132812 -0.332031 -0.096963 109 147 176
0.136719 -0.332031 -0.090250 121 158 185
0.140625 -0.332031 -0.083539 119 156 184
0.144531 -0.332031 -0.076024 110 147 176
0.148438 -0.332031 -0.068413 111 148 174
0.152344 -0.332031 -0.062401 107 144 171
0.156250 -0.332031 -0.055756 111 147 173
0.160156 -0.332031 -0.050199 124 152 178
0.164062 -0.332031 -0.044683 167 183 198
0.167969 -0.332031 -0.039554 166 184 196
0.171875 -0.332031 -0.005405 35 46 70
-0.148438 -0.335938 0.000932 154 167 171
-0.144531 -0.335938 -0.038791 104 121 126
-0.140625 -0.335938 -0.063210 99 124 135
-0.136719 -0.335938 -0.071190 97 127 143
-0.132812 -0.335938 -0.077755 95 125 146
-0.128906 -0.335938 -0.082591 99 131 153
-0.125000 -0.335938 -0.086618 96 131 154
-0.121094 -0.335938 -0.089886 96 132 157
-0.117188 -0.335938 -0.093027 101 138 164
-0.113281 -0.335938 -0.096025 97 134 162
-0.109375 -0.335938 -0.098917 92 131 160
-0.105469 -0.335938 -0.101720 97 138 168
-0.101562 -0.335938 -0.104416 89 130 164
-0.097656 -0.335938 -0.107180 89 131 165
-0.093750 -0.335938 -0.109883 104 146 177
-0.089844 -0.335938 -0.112273 100 143 173
-0.085938 -0.335938 -0.114439 96 139 170
-0.082031 -0.335938 -0.116467 102 143 173
-0.078125 -0.335938 -0.118303 101 141 172
-0.074219 -0.335938 -0.119835 99 139 170
-0.070312 -0.335938 -0.121135 97 137 169
-0.066406 -0.335938 -0.122361 95 136 166
-0.062500 -0.335938 -0.123501 97 137 167
-0.058594 -0.335938 -0.124627 101 140 170
-0.054688 -0.335938 -0.125700 112 149 176
-0.050781 -0.335938 -0.126823 119 154 180
-0.046875 -0.335938 -0.128086 111 145 173
-0.042969 -0.335938 -0.129638 99 135 162
-0.039062 -0.335938 -0.131140 78 118 147
-0.035156 -0.335938 -0.132553 77 117 148
-0.031250 -0.335938 -0.134506 89 126 156
-0.027344 -0.335938 -0.135267 69 103 134
-0.023438 -0.335938 -0.133910 60 91 119
-0.019531 -0.335938 -0.136259 68 98 124
-0.015625 -0.335938 -0.143272 68 97 124
-0.011719 -0.335938 -0.146718 74 103 132
-0.007812 -0.335938 -0.136039 78 106 136
-0.003906 -0.335938 -0.127236 62 89 118
0.000000 -0.335938 -0.123922 55 81 109
0.003906 -0.335938 -0.124184 62 89 117
0.007812 -0.335938 -0.125753 65 92 121
0.011719 -0.335938 -0.127814 71 100 129
0.015625 -0.335938 -0.129360 85 116 144
0.019531 -0.335938 -0.130809 90 122 152
0.023438 -0.335938 -0.131973 93 125 156
0.027344 -0.335938 -0.132880 99 131 162
0.031250 -0.335938 -0.133795 98 129 162
0.035156 -0.335938 -0.134257 96 128 160
0.039062 -0.335938 -0.134708 99 133 163
0.042969 -0.335938 -0.135169 98 132 162
0.046875 -0.335938 -0.135552 101 136 165
0.050781 -0.335938 -0.135962 106 141 170
0.054688 -0.335938 -0.136415 107 142 171
0.058594 -0.335938 -0.136762 109 142 171
0.062500 -0.335938 -0.136915 101 135 164
0.066406 -0.335938 -0.136895 104 136 164
0.070312 -0.335938 -0.136587 109 141 168
0.074219 -0.335938 -0.136109 102 135 164
0.078125 -0.335938 -0.135518 102 135 164
0.082031 -0.335938 -0.134667 108 142 170
0.085938 -0.335938 -0.133691 111 146 175
0.089844 -0.335938 -0.132486 110 146 175
0.093750 -0.335938 -0.131066 110 146 175
0.097656 -0.335938 -0.128979 104 140 169
0.101562 -0.335938 -0.126604 100 136 166
0.105469 -0.335938 -0.123602 104 140 171
0.109375 -0.335938 -0.120829 107 144 173
0.113281 -0.335938 -0.118152 112 149 178
0.117188 -0.335938 -0.115825 115 152 181
0.121094 -0.335938 -0.113252 113 152 181
0.125000 -0.335938 -0.109447 113 153 182
0.128906 -0.335938 -0.103932 111 151 181
0.132812 -0.335938 -0.095647 105 146 178
0.136719 -0.335938 -0.085575 118 157 186
0.140625 -0.335938 -0.077116 121 159 187
0.144531 -0.335938 -0.069764 108 146 176
0.148438 -0.335938 -0.062212 113 150 178
0.152344 -0.335938 -0.059573 111 148 175
0.156250 -0.335938 -0.054610 107 140 166
0.160156 -0.335938 -0.049867 124 149 172
0.164062 -0.335938 -0.043546 178 190 200
0.167969 -0.335938 -0.038303 208 211 213
0.171875 -0.335938 -0.016052 65 60 83
-0.148438 -0.339844 0.001990 138 151 159
-0.144531 -0.339844 -0.036021 99 116 122
-0.140625 -0.339844 -0.060381 106 131 141
-0.136719 -0.339844 -0.069421 106 135 150
-0.132812 -0.339844 -0.075130 103 132 151
-0.128906 -0.339844 -0.080225 101 133 154
-0.125000 -0.339844 -0.084447 95 130 154
-0.121094 -0.339844 -0.087687 95 131 157
-0.117188 -0.339844 -0.090843 98 135 161
-0.113281 -0.339844 -0.093921 95 133 160
-0.109375 -0.339844 -0.097033 92 132 161
-0.105469 -0.339844 -0.100089 102 143 172
-0.101562 -0.339844 -0.103037 94 136 168
-0.097656 -0.339844 -0.106028 88 130 164
-0.093750 -0.339844 -0.108849 103 144 175
-0.089844 -0.339844 -0.111275 103 145 175
-0.085938 -0.339844 -0.113416 99 142 173
-0.082031 -0.339844 -0.115361 101 144 174
-0.078125 -0.339844 -0.117069 100 142 173
-0.074219 -0.339844 -0.118577 103 144 174
-0.070312 -0.339844 -0.119936 102 143 174
-0.066406 -0.339844 -0.121159 98 139 170
-0.062500 -0.339844 -0.121960 102 142 172
-0.058594 -0.339844 -0.123281 106 147 176
-0.054688 -0.339844 -0.125105 108 148 175
-0.050781 -0.339844 -0.126895 109 148 175
-0.046875 -0.339844 -0.128903 96 133 165
-0.042969 -0.339844 -0.131252 78 117 150
-0.039062 -0.339844 -0.133052 78 120 155
-0.035156 -0.339844 -0.134949 87 131 166
-0.031250 -0.339844 -0.136201 85 128 161
-0.027344 -0.339844 -0.139567 70 111 144
-0.023438 -0.339844 -0.148418 64 103 135
-0.019531 -0.339844 -0.151611 61 97 127
-0.015625 -0.339844 -0.109192 64 97 127
-0.011719 -0.339844 -0.068709 86 119 149
-0.007812 -0.339844 -0.080071 99 132 161
-0.003906 -0.339844 -0.080010 81 115 146
0.000000 -0.339844 -0.083703 71 104 136
0.003906 -0.339844 -0.090710 78 111 142
0.007812 -0.339844 -0.095934 75 107 139
0.011719 -0.339844 -0.101255 74 107 138
0.015625 -0.339844 -0.107189 90 125 154
0.019531 -0.339844 -0.112176 97 132 163
0.023438 -0.339844 -0.116580 99 134 166
0.027344 -0.339844 -0.121189 102 137 170
0.031250 -0.339844 -0.125950 97 132 167
0.035156 -0.339844 -0.130203 97 132 166
0.039062 -0.339844 -0.133842 104 139 171
0.042969 -0.339844 -0.136301 102 138 169
0.046875 -0.339844 -0.137703 102 140 171
0.050781 -0.339844 -0.138565 106 143 175
0.054688 -0.339844 -0.139106 104 141 174
0.058594 -0.339844 -0.139525 105 142 173
0.062500 -0.339844 -0.139809 98 133 166
0.066406 -0.339844 -0.140080 99 133 164
0.070312 -0.339844 -0.140278 108 141 170
0.074219 -0.339844 -0.140631 101 135 166
0.078125 -0.339844 -0.141128 100 135 166
0.082031 -0.339844 -0.141568 110 145 176
0.085938 -0.339844 -0.142057 111 148 180
0.089844 -0.339844 -0.142197 108 146 178
0.093750 -0.339844 -0.141825 107 145 177
0.097656 -0.339844 -0.140078 98 137 170
0.101562 -0.339844 -0.136836 92 131 164
0.105469 -0.339844 -0.131826 97 136 170
0.109375 -0.339844 -0.126536 107 145 176
0.113281 -0.339844 -0.121981 106 145 176
0.117188 -0.339844 -0.119438 99 140 173
0.121094 -0.339844 -0.118001 102 144 177
0.125000 -0.339844 -0.114668 108 151 182
0.128906 -0.339844 -0.108840 110 153 184
0.132812 -0.339844 -0.105225 101 144 178
0.136719 -0.339844 -0.100909 107 149 181
0.140625 -0.339844 -0.089343 115 155 184
0.144531 -0.339844 -0.078154 110 149 177
0.148438 -0.339844 -0.068318 129 163 186
0.152344 -0.339844 -0.062259 134 166 186
0.156250 -0.339844 -0.053241 120 148 167
0.160156 -0.339844 -0.049536 152 168 181
0.164062 -0.339844 -0.042738 204 208 212
0.167969 -0.339844 -0.035396 214 213 213
0.171875 -0.339844 -0.030394 111 94 107
-0.148438 -0.343750 0.002016 157 171 176
-0.144531 -0.343750 -0.034748 112 129 133
-0.140625 -0.343750 -0.056434 113 136 145
-0.136719 -0.343750 -0.066112 103 132 147
-0.132812 -0.343750 -0.071681 93 123 143
-0.128906 -0.343750 -0.077182 91 123 145
-0.125000 -0.343750 -0.081576 89 124 148
-0.121094 -0.343750 -0.084881 92 129 156
-0.117188 -0.343750 -0.088154 96 134 160
-0.113281 -0.343750 -0.091356 101 140 166
-0.109375 -0.343750 -0.094799 102 142 170
-0.105469 -0.343750 -0.098232 110 150 177
-0.101562 -0.343750 -0.101556 100 142 173
-0.097656 -0.343750 -0.104851 89 132 166
-0.093750 -0.343750 -0.107746 101 143 174
-0.089844 -0.343750 -0.110258 101 143 175
-0.085938 -0.343750 -0.112328 101 144 175
-0.082031 -0.343750 -0.114291 101 145 176
-0.078125 -0.343750 -0.115896 97 141 173
-0.074219 -0.343750 -0.116928 101 144 175
-0.070312 -0.343750 -0.117707 98 140 173
-0.066406 -0.343750 -0.118439 93 134 167
-0.062500 -0.343750 -0.120022 103 144 174
-0.058594 -0.343750 -0.122772 111 151 180
-0.054688 -0.343750 -0.127334 112 151 179
-0.050781 -0.343750 -0.131409 115 154 182
-0.046875 -0.343750 -0.134179 98 137 171
-0.042969 -0.343750 -0.135481 80 121 158
-0.039062 -0.343750 -0.133882 87 133 170
-0.035156 -0.343750 -0.132698 92 138 175
-0.031250 -0.343750 -0.131587 83 128 165
-0.027344 -0.343750 -0.134641 76 119 156
-0.023438 -0.343750 -0.086425 74 116 152
-0.019531 -0.343750 0.018854 64 104 139
-0.015625 -0.343750 0.056969 61 98 128
-0.011719 -0.343750 0.057790 88 122 151
-0.007812 -0.343750 0.021727 112 145 173
-0.003906 -0.343750 -0.028953 101 136 167
0.000000 -0.343750 -0.053838 93 129 162
0.003906 -0.343750 -0.066563 102 137 168
0.007812 -0.343750 -0.068563 94 129 160
0.011719 -0.343750 -0.072045 88 123 155
0.015625 -0.343750 -0.076550 100 137 166
0.019531 -0.343750 -0.079341 102 139 170
0.023438 -0.343750 -0.080802 102 140 172
0.027344 -0.343750 -0.083295 109 146 178
0.031250 -0.343750 -0.086647 103 139 175
0.035156 -0.343750 -0.091259 97 135 171
0.039062 -0.343750 -0.097699 100 138 174
0.042969 -0.343750 -0.103649 96 134 171
0.046875 -0.343750 -0.109276 95 135 172
0.050781 -0.343750 -0.114324 100 140 177
0.054688 -0.343750 -0.118940 98 138 175
0.058594 -0.343750 -0.122103 96 136 174
0.062500 -0.343750 -0.123935 89 128 167
0.066406 -0.343750 -0.123999 91 127 165
0.070312 -0.343750 -0.122145 102 137 172
0.074219 -0.343750 -0.119570 100 135 170
0.078125 -0.343750 -0.116242 96 132 168
0.082031 -0.343750 -0.112348 96 134 171
0.085938 -0.343750 -0.107604 98 138 175
0.089844 -0.343750 -0.103391 102 142 178
0.093750 -0.343750 -0.099646 100 139 176
0.097656 -0.343750 -0.097979 87 128 167
0.101562 -0.343750 -0.097287 75 117 156
0.105469 -0.343750 -0.103481 77 118 157
0.109375 -0.343750 -0.108402 90 130 167
0.113281 -0.343750 -0.106608 89 129 164
0.117188 -0.343750 -0.101565 83 124 158
0.121094 -0.343750 -0.102832 92 136 168
0.125000 -0.343750 -0.112031 108 150 179
0.128906 -0.343750 -0.107625 127 166 190
0.132812 -0.343750 -0.054637 125 164 189
0.136719 -0.343750 0.027360 120 158 183
0.140625 -0.343750 0.057731 125 162 185
0.144531 -0.343750 0.046969 125 158 179
0.148438 -0.343750 -0.016531 139 166 183
0.152344 -0.343750 -0.056673 129 156 173
0.156250 -0.343750 -0.055223 97 121 136
0.160156 -0.343750 -0.047905 160 166 173
0.164062 -0.343750 -0.044294 224 221 220
0.167969 -0.343750 -0.038947 204 204 203
0.171875 -0.343750 -0.030908 127 121 126
-0.148438 -0.347656 -0.000604 175 189 192
-0.144531 -0.347656 -0.034549 118 135 139
-0.140625 -0.347656 -0.052085 110 133 142
-0.136719 -0.347656 -0.062067 101 129 144
-0.132812 -0.347656 -0.067886 91 121 142
-0.128906 -0.347656 -0.073679 93 126 148
-0.125000 -0.347656 -0.078123 95 131 156
-0.121094 -0.347656 -0.081555 97 135 163
-0.117188 -0.347656 -0.084947 96 135 164
-0.113281 -0.347656 -0.088267 97 137 168
-0.109375 -0.347656 -0.091960 92 133 166
-0.105469 -0.347656 -0.095654 99 141 173
-0.101562 -0.347656 -0.099205 98 142 175
-0.097656 -0.347656 -0.102991 93 136 172
-0.093750 -0.347656 -0.105831 99 141 176
-0.089844 -0.347656 -0.108549 88 131 168
-0.085938 -0.347656 -0.110579 91 135 171
-0.082031 -0.347656 -0.112835 100 145 178
-0.078125 -0.347656 -0.115315 96 141 176
-0.074219 -0.347656 -0.116985 105 150 182
-0.070312 -0.347656 -0.119411 104 147 181
-0.066406 -0.347656 -0.123065 96 139 173
-0.062500 -0.347656 -0.126855 106 147 179
-0.058594 -0.347656 -0.123104 108 147 179
-0.054688 -0.347656 -0.112000 108 147 178
-0.050781 -0.347656 -0.098740 110 151 181
-0.046875 -0.347656 -0.087170 89 131 168
-0.042969 -0.347656 -0.079415 80 125 163
-0.039062 -0.347656 -0.076366 90 138 175
-0.035156 -0.347656 -0.068009 88 135 173
-0.031250 -0.347656 -0.055361 82 127 166
-0.027344 -0.347656 -0.009456 75 118 158
-0.023438 -0.347656 0.029268 71 111 152
-0.019531 -0.347656 0.045854 65 105 143
-0.015625 -0.347656 0.047183 53 87 122
-0.011719 -0.347656 0.041588 58 89 124
-0.007812 -0.347656 -0.010851 81 115 150
-0.003906 -0.347656 -0.075408 87 124 159
0.000000 -0.347656 -0.074480 86 123 161
0.003906 -0.347656 -0.077988 94 130 166
0.007812 -0.347656 -0.078591 84 119 156
0.011719 -0.347656 -0.080254 76 112 149
0.015625 -0.347656 -0.083597 81 119 155
0.019531 -0.347656 -0.085230 74 110 151
0.023438 -0.347656 -0.085726 72 109 151
0.027344 -0.347656 -0.085313 84 122 163
0.031250 -0.347656 -0.084374 82 120 163
0.035156 -0.347656 -0.085143 81 120 162
0.039062 -0.347656 -0.085765 87 127 168
0.042969 -0.347656 -0.086236 88 128 168
0.046875 -0.347656 -0.086963 90 131 171
0.050781 -0.347656 -0.087656 91 133 174
0.054688 -0.347656 -0.088584 84 127 169
0.058594 -0.347656 -0.089183 79 122 166
0.062500 -0.347656 -0.089349 75 116 161
0.066406 -0.347656 -0.088814 76 115 158
0.070312 -0.347656 -0.087796 80 117 157
0.074219 -0.347656 -0.086210 87 123 160
0.078125 -0.347656 -0.084207 99 136 170
0.082031 -0.347656 -0.081907 98 135 169
0.085938 -0.347656 -0.079283 100 138 172
0.089844 -0.347656 -0.076448 109 146 178
0.093750 -0.347656 -0.072867 104 140 175
0.097656 -0.347656 -0.068545 98 135 171
0.101562 -0.347656 -0.061946 84 124 161
0.105469 -0.347656 -0.055553 83 121 156
0.109375 -0.347656 -0.052796 108 143 171
0.113281 -0.347656 -0.066074 117 148 171
0.117188 -0.347656 -0.073743 118 147 166
0.121094 -0.347656 -0.067798 120 150 169
0.125000 -0.347656 -0.019775 105 137 158
0.128906 -0.347656 0.053810 108 140 160
0.152344 -0.347656 0.062098 151 168 175
0.156250 -0.347656 -0.020248 123 140 148
0.160156 -0.347656 -0.047759 173 172 174
0.164062 -0.347656 -0.042461 227 222 216
0.167969 -0.347656 -0.041974 191 192 187
0.171875 -0.347656 -0.031054 72 77 88
-0.148438 -0.351562 -0.002696 161 179 183
-0.144531 -0.351562 -0.032992 107 127 130
-0.140625 -0.351562 -0.047971 104 127 136
-0.136719 -0.351562 -0.056914 100 128 144
-0.132812 -0.351562 -0.062269 89 119 143
-0.128906 -0.351562 -0.067884 86 120 147
-0.125000 -0.351562 -0.072306 81 118 149
-0.121094 -0.351562 -0.076034 77 117 151
-0.117188 -0.351562 -0.079854 76 118 155
-0.113281 -0.351562 -0.083950 80 123 162
-0.109375 -0.351562 -0.088514 76 120 161
-0.105469 -0.351562 -0.092913 84 130 169
-0.101562 -0.351562 -0.096373 88 135 173
-0.097656 -0.351562 -0.100367 88 134 173
-0.093750 -0.351562 -0.103248 94 139 176
-0.089844 -0.351562 -0.106072 81 125 166
-0.085938 -0.351562 -0.108475 88 132 172
-0.082031 -0.351562 -0.110678 97 145 181
-0.078125 -0.351562 -0.113921 87 136 175
-0.074219 -0.351562 -0.115317 102 149 185
-0.070312 -0.351562 -0.109723 105 150 185
-0.066406 -0.351562 -0.092025 99 143 178
-0.062500 -0.351562 -0.059690 111 152 182
-0.058594 -0.351562 -0.040313 102 141 175
-0.054688 -0.351562 -0.030707 103 142 174
-0.050781 -0.351562 -0.024462 109 149 178
-0.046875 -0.351562 -0.019489 92 132 166
-0.042969 -0.351562 -0.014486 99 141 172
-0.039062 -0.351562 -0.008892 108 152 181
-0.035156 -0.351562 -0.003385 95 140 173
-0.031250 -0.351562 0.000303 93 137 172
-0.027344 -0.351562 0.011113 83 126 165
-0.023438 -0.351562 0.029064 74 115 156
-0.019531 -0.351562 0.048720 76 116 154
-0.015625 -0.351562 0.057292 60 96 133
-0.011719 -0.351562 0.056641 51 84 122
-0.007812 -0.351562 -0.034332 74 111 149
-0.003906 -0.351562 -0.067657 92 130 166
0.000000 -0.351562 -0.069678 84 122 162
0.003906 -0.351562 -0.073205 79 116 158
0.007812 -0.351562 -0.075431 65 100 144
0.011719 -0.351562 -0.077860 61 97 140
0.015625 -0.351562 -0.081775 70 107 149
0.019531 -0.351562 -0.083863 67 102 146
0.023438 -0.351562 -0.085117 73 109 152
0.027344 -0.351562 -0.085596 92 130 168
0.031250 -0.351562 -0.085026 97 135 173
0.035156 -0.351562 -0.084239 103 141 175
0.039062 -0.351562 -0.084523 114 150 181
0.042969 -0.351562 -0.085148 113 147 178
0.046875 -0.351562 -0.086022 111 144 175
0.050781 -0.351562 -0.086875 110 143 176
0.054688 -0.351562 -0.087438 107 142 175
0.058594 -0.351562 -0.087710 109 145 178
0.062500 -0.351562 -0.087620 109 144 176
0.066406 -0.351562 -0.087123 102 136 167
0.070312 -0.351562 -0.086342 86 118 148
0.074219 -0.351562 -0.085117 90 119 148
0.078125 -0.351562 -0.083590 115 140 164
0.082031 -0.351562 -0.081597 112 136 156
0.085938 -0.351562 -0.079283 116 139 157
0.089844 -0.351562 -0.076685 129 152 168
0.093750 -0.351562 -0.073471 122 144 165
0.097656 -0.351562 -0.069573 125 147 168
0.101562 -0.351562 -0.064112 117 141 162
0.105469 -0.351562 -0.058479 112 135 154
0.109375 -0.351562 -0.051028 132 149 162
0.113281 -0.351562 -0.048354 118 131 140
0.117188 -0.351562 -0.059810 106 115 121
0.121094 -0.351562 -0.035848 110 121 126
0.125000 -0.351562 0.029066 79 96 103
0.128906 -0.351562 0.072309 67 88 98
0.152344 -0.351562 0.061758 166 175 175
0.156250 -0.351562 0.048443 176 182 180
0.160156 -0.351562 -0.013897 170 169 167
0.164062 -0.351562 -0.035880 205 200 194
0.167969 -0.351562 -0.037478 214 213 207
0.171875 -0.351562 -0.029645 158 157 155
-0.148438 -0.355469 -0.005062 168 188 189
-0.144531 -0.355469 -0.030964 114 135 138
-0.140625 -0.355469 -0.043747 96 118 131
-0.136719 -0.355469 -0.051380 82 111 132
-0.132812 -0.355469 -0.055957 76 107 135
-0.128906 -0.355469 -0.060645 80 116 146
-0.125000 -0.355469 -0.063354 80 121 154
-0.121094 -0.355469 -0.065407 83 126 160
-0.117188 -0.355469 -0.067389 93 138 169
-0.113281 -0.355469 -0.070159 111 155 184
-0.109375 -0.355469 -0.074179 115 158 187
-0.105469 -0.355469 -0.081988 121 165 191
-0.101562 -0.355469 -0.091244 114 157 186
-0.097656 -0.355469 -0.097532 106 149 179
-0.093750 -0.355469 -0.102256 116 157 184
-0.089844 -0.355469 -0.105117 108 149 179
-0.085938 -0.355469 -0.105826 117 157 185
-0.082031 -0.355469 -0.100030 128 169 194
-0.078125 -0.355469 -0.084720 121 166 194
-0.074219 -0.355469 -0.062625 138 179 202
-0.070312 -0.355469 -0.046658 127 168 194
-0.066406 -0.355469 -0.041043 110 151 181
-0.062500 -0.355469 -0.041274 114 152 180
-0.058594 -0.355469 -0.042136 96 130 164
-0.054688 -0.355469 -0.040267 112 143 171
-0.050781 -0.355469 -0.037357 124 152 173
-0.046875 -0.355469 -0.033990 101 125 147
-0.042969 -0.355469 -0.030027 112 136 155
-0.039062 -0.355469 -0.024385 114 141 159
-0.035156 -0.355469 -0.019666 98 128 151
-0.031250 -0.355469 -0.016341 112 144 166
-0.027344 -0.355469 -0.006573 117 149 173
-0.023438 -0.355469 0.014243 110 142 168
-0.019531 -0.355469 0.040320 122 153 173
-0.015625 -0.355469 0.055597 118 150 170
-0.011719 -0.355469 0.058281 102 136 161
-0.007812 -0.355469 -0.049879 112 147 174
-0.003906 -0.355469 -0.057345 112 148 179
0.000000 -0.355469 -0.064516 102 138 174
0.003906 -0.355469 -0.068690 102 138 173
0.007812 -0.355469 -0.073090 98 135 171
0.011719 -0.355469 -0.076782 111 147 177
0.015625 -0.355469 -0.080822 126 156 183
0.019531 -0.355469 -0.083432 121 146 175
0.023438 -0.355469 -0.085062 127 149 174
0.027344 -0.355469 -0.086654 139 159 180
0.031250 -0.355469 -0.088469 134 153 174
0.035156 -0.355469 -0.089781 133 149 169
0.039062 -0.355469 -0.090524 138 151 168
0.042969 -0.355469 -0.090750 129 140 156
0.046875 -0.355469 -0.090516 121 129 145
0.050781 -0.355469 -0.090224 124 130 147
0.054688 -0.355469 -0.090202 133 139 155
0.058594 -0.355469 -0.090269 139 147 161
0.062500 -0.355469 -0.090223 134 143 157
0.066406 -0.355469 -0.089770 123 134 145
0.070312 -0.355469 -0.088908 108 117 128
0.074219 -0.355469 -0.087773 118 123 131
0.078125 -0.355469 -0.086380 137 138 141
0.082031 -0.355469 -0.084477 120 118 119
0.085938 -0.355469 -0.082250 123 118 115
0.089844 -0.355469 -0.079901 137 133 129
0.093750 -0.355469 -0.077134 124 122 124
0.097656 -0.355469 -0.073689 131 130 132
0.101562 -0.355469 -0.068578 132 132 134
0.105469 -0.355469 -0.064948 133 131 131
0.109375 -0.355469 -0.064044 146 141 137
0.113281 -0.355469 -0.064216 98 94 92
0.117188 -0.355469 -0.053069 72 72 68
0.121094 -0.355469 -0.050443 99 103 92
0.125000 -0.355469 -0.000075 104 115 98
0.128906 -0.355469 0.058998 130 144 123
0.152344 -0.355469 0.063599 181 188 185
0.156250 -0.355469 0.053908 200 203 198
0.160156 -0.355469 0.038241 147 152 149
0.164062 -0.355469 -0.014640 150 153 154
0.167969 -0.355469 -0.033069 210 209 206
0.171875 -0.355469 -0.026830 127 121 126
-0.148438 -0.359375 -0.007852 147 168 171
-0.144531 -0.359375 -0.028401 109 132 140
-0.140625 -0.359375 -0.039474 84 110 128
-0.136719 -0.359375 -0.046090 78 108 131
-0.132812 -0.359375 -0.049131 94 125 146
-0.128906 -0.359375 -0.051892 116 144 162
-0.125000 -0.359375 -0.052439 135 163 179
-0.121094 -0.359375 -0.052427 130 160 177
-0.117188 -0.359375 -0.051603 112 142 161
-0.113281 -0.359375 -0.051565 122 148 166
-0.109375 -0.359375 -0.051682 130 154 170
-0.105469 -0.359375 -0.054642 138 161 173
-0.101562 -0.359375 -0.063750 131 154 168
-0.097656 -0.359375 -0.070883 122 145 162
-0.093750 -0.359375 -0.076637 133 153 167
-0.089844 -0.359375 -0.074134 119 141 157
-0.085938 -0.359375 -0.060195 118 142 157
-0.082031 -0.359375 -0.050240 136 159 174
-0.078125 -0.359375 -0.045414 145 170 186
-0.074219 -0.359375 -0.045132 161 182 195
-0.070312 -0.359375 -0.045185 137 162 180
-0.066406 -0.359375 -0.044181 123 151 173
-0.062500 -0.359375 -0.043257 127 155 176
-0.058594 -0.359375 -0.040952 104 128 154
-0.054688 -0.359375 -0.038134 128 143 161
-0.050781 -0.359375 -0.035113 119 129 137
-0.046875 -0.359375 -0.031895 66 71 76
-0.042969 -0.359375 -0.028034 67 69 72
-0.039062 -0.359375 -0.022686 72 74 78
-0.035156 -0.359375 -0.018237 71 76 81
-0.031250 -0.359375 -0.015406 94 102 107
-0.027344 -0.359375 -0.006721 102 111 119
-0.023438 -0.359375 0.010111 93 104 113
-0.019531 -0.359375 0.034114 103 114 120
-0.015625 -0.359375 0.053450 109 120 129
-0.011719 -0.359375 0.049589 103 121 133
-0.007812 -0.359375 -0.048227 106 135 150
-0.003906 -0.359375 -0.053852 98 131 155
0.000000 -0.359375 -0.060044 107 133 159
0.003906 -0.359375 -0.065673 123 143 167
0.007812 -0.359375 -0.071228 117 139 162
0.011719 -0.359375 -0.075324 122 140 158
0.015625 -0.359375 -0.079379 111 122 140
0.019531 -0.359375 -0.082200 88 94 112
0.023438 -0.359375 -0.084237 85 86 100
0.027344 -0.359375 -0.086143 90 85 95
0.031250 -0.359375 -0.088140 85 78 86
0.035156 -0.359375 -0.089720 84 76 81
0.039062 -0.359375 -0.090872 96 84 86
0.042969 -0.359375 -0.091885 100 85 83
0.046875 -0.359375 -0.092652 100 81 78
0.050781 -0.359375 -0.093197 106 85 80
0.054688 -0.359375 -0.093370 115 92 87
0.058594 -0.359375 -0.093138 116 95 90
0.062500 -0.359375 -0.092521 111 91 86
0.066406 -0.359375 -0.091538 113 94 85
0.070312 -0.359375 -0.090282 117 97 86
0.074219 -0.359375 -0.088996 134 112 97
0.078125 -0.359375 -0.087627 145 122 104
0.082031 -0.359375 -0.085815 119 95 78
0.085938 -0.359375 -0.083656 118 90 70
0.089844 -0.359375 -0.081367 131 103 80
0.093750 -0.359375 -0.078755 122 99 80
0.097656 -0.359375 -0.075656 139 117 97
0.101562 -0.359375 -0.071180 141 121 102
0.105469 -0.359375 -0.069048 138 118 100
0.109375 -0.359375 -0.064180 162 140 120
0.113281 -0.359375 -0.059829 142 124 107
0.117188 -0.359375 -0.050883 140 134 110
0.121094 -0.359375 -0.053333 152 154 120
-0.148438 -0.363281 -0.010116 105 129 140
-0.144531 -0.363281 -0.024856 109 135 143
-0.140625 -0.363281 -0.033866 105 134 145
-0.136719 -0.363281 -0.039983 106 134 143
-0.132812 -0.363281 -0.042569 114 132 138
-0.128906 -0.363281 -0.044927 104 113 121
-0.125000 -0.363281 -0.045857 118 123 128
-0.121094 -0.363281 -0.046512 110 116 121
-0.117188 -0.363281 -0.047497 76 82 89
-0.113281 -0.363281 -0.049027 83 85 91
-0.109375 -0.363281 -0.049722 90 88 92
-0.105469 -0.363281 -0.050268 90 86 88
-0.101562 -0.363281 -0.050636 98 92 94
-0.097656 -0.363281 -0.052137 114 106 107
-0.093750 -0.363281 -0.054073 132 123 122
-0.089844 -0.363281 -0.053403 124 118 117
-0.085938 -0.363281 -0.052989 121 118 117
-0.082031 -0.363281 -0.053771 126 124 125
-0.078125 -0.363281 -0.053351 124 123 129
-0.074219 -0.363281 -0.052128 126 127 135
-0.070312 -0.363281 -0.049639 106 112 124
-0.066406 -0.363281 -0.046939 124 135 149
-0.062500 -0.363281 -0.044484 154 167 178
-0.058594 -0.363281 -0.041587 136 146 157
-0.054688 -0.363281 -0.038330 154 149 150
-0.050781 -0.363281 -0.034758 136 123 112
-0.046875 -0.363281 -0.030735 81 67 57
-0.042969 -0.363281 -0.026568 82 63 51
-0.039062 -0.363281 -0.021567 83 63 51
-0.035156 -0.363281 -0.017327 78 62 51
-0.031250 -0.363281 -0.013565 83 70 60
-0.027344 -0.363281 -0.006554 82 71 64
-0.023438 -0.363281 0.004889 79 70 62
-0.019531 -0.363281 0.025547 83 74 66
-0.015625 -0.363281 0.045183 79 72 68
-0.011719 -0.363281 0.029736 90 92 91
-0.007812 -0.363281 -0.042461 119 135 138
-0.003906 -0.363281 -0.055580 95 117 131
0.000000 -0.363281 -0.061469 66 76 93
0.003906 -0.363281 -0.067214 50 53 69
0.007812 -0.363281 -0.071233 40 44 56
0.011719 -0.363281 -0.074000 43 45 54
0.015625 -0.363281 -0.077880 42 40 46
0.019531 -0.363281 -0.081095 49 43 46
0.023438 -0.363281 -0.083765 66 53 51
0.027344 -0.363281 -0.086233 80 59 53
0.031250 -0.363281 -0.088391 89 63 53
0.035156 -0.363281 -0.090028 91 64 52
0.039062 -0.363281 -0.091082 102 71 56
0.042969 -0.363281 -0.091996 113 77 58
0.046875 -0.363281 -0.092679 120 80 59
0.050781 -0.363281 -0.093105 129 86 62
0.054688 -0.363281 -0.093330 133 89 65
0.058594 -0.363281 -0.093296 133 89 65
0.062500 -0.363281 -0.093121 132 89 64
0.066406 -0.363281 -0.092501 140 95 68
0.070312 -0.363281 -0.091349 139 97 70
0.074219 -0.363281 -0.090029 144 104 76
0.078125 -0.363281 -0.088489 157 119 89
0.082031 -0.363281 -0.086575 139 103 72
0.085938 -0.363281 -0.084196 129 91 58
0.089844 -0.363281 -0.082000 136 97 60
0.093750 -0.363281 -0.079598 128 92 59
0.097656 -0.363281 -0.076797 138 104 69
0.101562 -0.363281 -0.072928 128 98 67
0.105469 -0.363281 -0.068521 106 82 57
0.109375 -0.363281 -0.062682 119 95 68
0.113281 -0.363281 -0.058952 132 111 85
0.117188 -0.363281 -0.053552 163 150 118
0.121094 -0.363281 -0.048574 123 121 85
-0.148438 -0.367188 -0.007083 146 172 176
-0.144531 -0.367188 -0.021449 134 158 154
-0.140625 -0.367188 -0.028979 123 144 142
-0.136719 -0.367188 -0.034450 109 122 116
-0.132812 -0.367188 -0.037336 103 102 93
-0.128906 -0.367188 -0.039582 81 72 68
-0.125000 -0.367188 -0.040983 101 87 77
-0.121094 -0.367188 -0.042392 123 105 91
-0.117188 -0.367188 -0.044294 119 102 88
-0.113281 -0.367188 -0.045922 143 121 102
-0.109375 -0.367188 -0.046903 146 120 99
-0.105469 -0.367188 -0.048149 130 103 85
-0.101562 -0.367188 -0.049013 137 108 90
-0.097656 -0.367188 -0.050490 153 124 105
-0.093750 -0.367188 -0.051567 162 134 115
-0.089844 -0.367188 -0.051722 161 135 116
-0.085938 -0.367188 -0.051680 166 144 124
-0.082031 -0.367188 -0.051098 164 144 127
-0.078125 -0.367188 -0.050502 158 139 126
-0.074219 -0.367188 -0.049221 156 140 129
-0.070312 -0.367188 -0.047220 137 127 123
-0.066406 -0.367188 -0.045209 160 156 157
-0.062500 -0.367188 -0.042986 185 186 189
-0.058594 -0.367188 -0.039961 152 153 156
-0.054688 -0.367188 -0.036712 137 122 114
-0.050781 -0.367188 -0.033069 129 103 82
-0.046875 -0.367188 -0.028972 116 86 62
-0.042969 -0.367188 -0.024741 127 91 62
-0.039062 -0.367188 -0.019647 120 86 57
-0.035156 -0.367188 -0.015455 106 76 51
-0.031250 -0.367188 -0.011301 98 73 52
-0.027344 -0.367188 -0.005014 93 72 53
-0.023438 -0.367188 0.003692 96 76 55
-0.019531 -0.367188 0.021743 98 79 57
-0.015625 -0.367188 0.039565 79 66 51
-0.007812 -0.367188 -0.038589 113 115 115
-0.003906 -0.367188 -0.055399 101 108 117
0.000000 -0.367188 -0.059846 54 58 65
0.003906 -0.367188 -0.065505 27 28 33
0.007812 -0.367188 -0.070004 28 28 31
0.011719 -0.367188 -0.073610 41 38 38
0.015625 -0.367188 -0.077710 47 40 38
0.019531 -0.367188 -0.081081 74 58 50
0.023438 -0.367188 -0.083681 98 73 57
0.027344 -0.367188 -0.086034 106 74 55
0.031250 -0.367188 -0.088095 116 80 57
0.035156 -0.367188 -0.089552 115 79 54
0.039062 -0.367188 -0.090457 120 81 54
0.042969 -0.367188 -0.091377 127 85 56
0.046875 -0.367188 -0.092069 136 90 58
0.050781 -0.367188 -0.092471 145 96 62
0.054688 -0.367188 -0.092702 148 99 65
0.058594 -0.367188 -0.092657 149 99 65
0.062500 -0.367188 -0.092462 149 99 63
0.066406 -0.367188 -0.091797 153 102 66
0.070312 -0.367188 -0.090617 146 98 64
0.074219 -0.367188 -0.089261 143 100 68
0.078125 -0.367188 -0.087695 165 127 91
0.082031 -0.367188 -0.085846 154 119 81
0.085938 -0.367188 -0.083475 129 94 56
0.089844 -0.367188 -0.081220 135 96 55
0.093750 -0.367188 -0.078652 131 94 54
0.097656 -0.367188 -0.075514 132 97 56
0.101562 -0.367188 -0.071602 125 93 56
0.105469 -0.367188 -0.067364 107 80 50
0.109375 -0.367188 -0.061933 102 76 50
0.113281 -0.367188 -0.057914 96 77 53
0.117188 -0.367188 -0.052209 106 91 68
0.121094 -0.367188 -0.044778 99 103 92
-0.148438 -0.371094 -0.000343 91 108 118
-0.144531 -0.371094 -0.017342 85 100 94
-0.140625 -0.371094 -0.023923 91 99 91
-0.136719 -0.371094 -0.028694 87 83 70
-0.132812 -0.371094 -0.032094 110 91 69
-0.128906 -0.371094 -0.034878 120 92 70
-0.125000 -0.371094 -0.037306 145 112 85
-0.121094 -0.371094 -0.039866 166 133 102
-0.117188 -0.371094 -0.042301 168 138 106
-0.113281 -0.371094 -0.044225 180 151 117
-0.109375 -0.371094 -0.045861 179 148 114
-0.105469 -0.371094 -0.047440 171 137 105
-0.101562 -0.371094 -0.048858 176 143 111
-0.097656 -0.371094 -0.050434 184 152 122
-0.093750 -0.371094 -0.051708 182 153 124
-0.089844 -0.371094 -0.051991 180 154 125
-0.085938 -0.371094 -0.051509 184 161 131
-0.082031 -0.371094 -0.050858 184 161 134
-0.078125 -0.371094 -0.050187 185 162 138
-0.074219 -0.371094 -0.048754 184 161 139
-0.070312 -0.371094 -0.046611 162 143 130
-0.066406 -0.371094 -0.044603 176 167 161
-0.062500 -0.371094 -0.042392 200 198 196
-0.058594 -0.371094 -0.039361 173 171 167
-0.054688 -0.371094 -0.036057 139 123 106
-0.050781 -0.371094 -0.032497 126 99 73
-0.046875 -0.371094 -0.028694 121 90 60
-0.042969 -0.371094 -0.024269 122 88 56
-0.039062 -0.371094 -0.018893 113 81 51
-0.035156 -0.371094 -0.013968 103 74 47
-0.031250 -0.371094 -0.008657 94 69 45
-0.027344 -0.371094 -0.002412 88 66 44
-0.023438 -0.371094 0.006077 87 66 44
-0.019531 -0.371094 0.021560 89 68 46
-0.015625 -0.371094 0.034322 71 54 38
-0.007812 -0.371094 -0.042598 42 41 41
-0.003906 -0.371094 -0.053717 65 67 70
0.000000 -0.371094 -0.059664 71 75 74
0.003906 -0.371094 -0.064984 36 40 39
0.007812 -0.371094 -0.070388 37 38 34
0.011719 -0.371094 -0.074619 54 48 42
0.015625 -0.371094 -0.078428 53 43 37
0.019531 -0.371094 -0.081569 70 52 42
0.023438 -0.371094 -0.084010 79 56 43
0.027344 -0.371094 -0.086124 79 54 39
0.031250 -0.371094 -0.088154 92 63 43
0.035156 -0.371094 -0.089612 101 68 46
0.039062 -0.371094 -0.090506 111 75 50
0.042969 -0.371094 -0.091451 124 84 55
0.046875 -0.371094 -0.092198 137 93 60
0.050781 -0.371094 -0.092639 145 99 64
0.054688 -0.371094 -0.092907 148 101 66
0.058594 -0.371094 -0.092911 152 105 68
0.062500 -0.371094 -0.092730 154 107 68
0.066406 -0.371094 -0.092014 157 110 70
0.070312 -0.371094 -0.090741 152 106 69
0.074219 -0.371094 -0.089373 146 105 69
0.078125 -0.371094 -0.087834 168 132 92
0.082031 -0.371094 -0.085939 160 128 87
0.085938 -0.371094 -0.083535 126 96 59
0.089844 -0.371094 -0.081307 131 96 57
0.093750 -0.371094 -0.078777 136 101 59
0.097656 -0.371094 -0.075639 137 103 60
0.101562 -0.371094 -0.071850 135 103 62
0.105469 -0.371094 -0.067623 128 95 61
0.109375 -0.371094 -0.062225 122 90 60
0.113281 -0.371094 -0.058340 115 92 62
0.117188 -0.371094 -0.052425 118 103 73
0.121094 -0.371094 -0.043640 152 154 120
-0.152344 -0.375000 0.035929 84 81 69
-0.148438 -0.375000 0.003196 42 47 55
-0.144531 -0.375000 -0.011412 59 65 58
-0.140625 -0.375000 -0.018592 84 81 69
-0.136719 -0.375000 -0.023223 86 73 56
-0.132812 -0.375000 -0.026960 127 97 66
-0.128906 -0.375000 -0.030507 148 108 73
-0.125000 -0.375000 -0.033529 155 115 80
-0.121094 -0.375000 -0.036543 158 121 87
-0.117188 -0.375000 -0.039534 152 118 87
-0.113281 -0.375000 -0.041942 158 128 94
-0.109375 -0.375000 -0.043998 166 135 101
-0.105469 -0.375000 -0.045774 167 134 102
-0.101562 -0.375000 -0.047207 173 142 110
-0.097656 -0.375000 -0.048650 181 153 122
-0.093750 -0.375000 -0.049810 181 155 126
-0.089844 -0.375000 -0.050192 181 158 128
-0.085938 -0.375000 -0.049918 183 162 132
-0.082031 -0.375000 -0.049547 181 159 131
-0.078125 -0.375000 -0.048997 184 161 134
-0.074219 -0.375000 -0.047601 181 157 132
-0.070312 -0.375000 -0.045450 156 137 119
-0.066406 -0.375000 -0.043382 166 158 149
-0.062500 -0.375000 -0.041191 197 196 192
-0.058594 -0.375000 -0.038207 188 185 175
-0.054688 -0.375000 -0.034839 164 147 123
-0.050781 -0.375000 -0.031358 152 124 89
-0.046875 -0.375000 -0.027784 140 108 73
-0.042969 -0.375000 -0.023384 127 96 62
-0.039062 -0.375000 -0.018227 116 86 54
-0.035156 -0.375000 -0.013255 104 76 48
-0.031250 -0.375000 -0.008006 94 68 44
-0.027344 -0.375000 -0.001938 87 64 41
-0.023438 -0.375000 0.006742 85 64 41
-0.019531 -0.375000 0.020767 91 68 44
-0.015625 -0.375000 0.030298 87 65 42
-0.007812 -0.375000 -0.044462 28 26 24
-0.003906 -0.375000 -0.052766 39 40 39
0.000000 -0.375000 -0.061878 64 68 63
0.003906 -0.375000 -0.066718 30 34 34
0.007812 -0.375000 -0.071237 25 26 25
0.011719 -0.375000 -0.074986 39 36 31
0.015625 -0.375000 -0.078604 43 36 28
0.019531 -0.375000 -0.081551 63 48 36
0.023438 -0.375000 -0.083930 78 57 41
0.027344 -0.375000 -0.086007 86 60 42
0.031250 -0.375000 -0.088007 102 71 49
0.035156 -0.375000 -0.089517 112 78 53
0.039062 -0.375000 -0.090494 123 85 57
0.042969 -0.375000 -0.091487 134 93 62
0.046875 -0.375000 -0.092264 144 100 66
0.050781 -0.375000 -0.092690 151 105 70
0.054688 -0.375000 -0.092901 156 110 73
0.058594 -0.375000 -0.092833 162 115 76
0.062500 -0.375000 -0.092607 163 116 77
0.066406 -0.375000 -0.091827 162 117 77
0.070312 -0.375000 -0.090492 158 114 75
0.074219 -0.375000 -0.089109 148 108 72
0.078125 -0.375000 -0.087565 161 126 87
0.082031 -0.375000 -0.085608 164 132 91
0.085938 -0.375000 -0.083130 141 110 71
0.089844 -0.375000 -0.080818 136 104 65
0.093750 -0.375000 -0.078154 138 106 65
0.097656 -0.375000 -0.074853 139 106 65
0.101562 -0.375000 -0.070897 137 105 65
0.105469 -0.375000 -0.066474 124 93 60
0.109375 -0.375000 -0.060877 112 82 56
0.113281 -0.375000 -0.056108 117 95 64
0.117188 -0.375000 -0.050370 117 103 69
0.121094 -0.375000 -0.041357 123 121 85
-0.152344 -0.378906 0.036180 116 106 84
-0.148438 -0.378906 0.013148 146 172 176
-0.144531 -0.378906 -0.004954 121 121 100
-0.140625 -0.378906 -0.011750 116 106 84
-0.136719 -0.378906 -0.017332 105 87 63
-0.132812 -0.378906 -0.021538 141 110 71
-0.128906 -0.378906 -0.026039 157 119 75
-0.125000 -0.378906 -0.029720 159 122 79
-0.121094 -0.378906 -0.033117 165 131 90
-0.117188 -0.378906 -0.036378 165 133 95
-0.113281 -0.378906 -0.039257 172 143 105
-0.109375 -0.378906 -0.041666 182 156 117
-0.105469 -0.378906 -0.043554 183 157 121
-0.101562 -0.378906 -0.045050 184 159 125
-0.097656 -0.378906 -0.046455 188 165 133
-0.093750 -0.378906 -0.047605 187 164 135
-0.089844 -0.378906 -0.047985 186 164 137
-0.085938 -0.378906 -0.047700 189 168 142
-0.082031 -0.378906 -0.047407 188 168 142
-0.078125 -0.378906 -0.046861 194 173 146
-0.074219 -0.378906 -0.045542 195 174 149
-0.070312 -0.378906 -0.043501 179 161 141
-0.066406 -0.378906 -0.041510 185 176 163
-0.062500 -0.378906 -0.039384 205 202 195
-0.058594 -0.378906 -0.036487 195 188 178
-0.054688 -0.378906 -0.033249 172 153 130
-0.050781 -0.378906 -0.029919 163 136 104
-0.046875 -0.378906 -0.026575 154 124 89
-0.042969 -0.378906 -0.022399 141 112 76
-0.039062 -0.378906 -0.017685 132 102 68
-0.035156 -0.378906 -0.013089 121 92 61
-0.031250 -0.378906 -0.008245 111 84 56
-0.027344 -0.378906 -0.002418 105 79 52
-0.023438 -0.378906 0.005733 99 77 50
-0.019531 -0.378906 0.019407 93 72 48
-0.015625 -0.378906 0.028451 86 67 44
-0.007812 -0.378906 -0.041952 39 34 29
-0.003906 -0.378906 -0.052685 32 31 28
0.000000 -0.378906 -0.063051 52 55 50
0.003906 -0.378906 -0.066615 35 40 39
0.007812 -0.378906 -0.070500 33 35 34
0.011719 -0.378906 -0.074839 48 45 38
0.015625 -0.378906 -0.078465 49 44 35
0.019531 -0.378906 -0.081447 70 57 42
0.023438 -0.378906 -0.084047 83 63 46
0.027344 -0.378906 -0.086325 86 62 44
0.031250 -0.378906 -0.088456 96 68 48
0.035156 -0.378906 -0.090047 107 74 51
0.039062 -0.378906 -0.091106 119 82 56
0.042969 -0.378906 -0.092133 127 88 59
0.046875 -0.378906 -0.092892 133 92 61
0.050781 -0.378906 -0.093223 140 97 64
0.054688 -0.378906 -0.093318 150 106 70
0.058594 -0.378906 -0.093140 155 111 74
0.062500 -0.378906 -0.092834 155 112 74
0.066406 -0.378906 -0.092042 156 113 74
0.070312 -0.378906 -0.090721 155 114 75
0.074219 -0.378906 -0.089346 146 108 72
0.078125 -0.378906 -0.087764 147 113 76
0.082031 -0.378906 -0.085739 154 122 82
0.085938 -0.378906 -0.083160 144 114 75
0.089844 -0.378906 -0.080700 137 108 69
0.093750 -0.378906 -0.077844 135 106 67
0.097656 -0.378906 -0.074366 135 105 66
0.101562 -0.378906 -0.070310 136 105 67
0.105469 -0.378906 -0.065955 121 92 61
0.109375 -0.378906 -0.060270 110 84 58
0.113281 -0.378906 -0.054439 136 110 78
0.117188 -0.378906 -0.049254 123 97 71
0.121094 -0.378906 -0.036453 110 84 58
-0.148438 -0.382812 0.027206 91 108 118
-0.144531 -0.382812 0.001992 85 100 94
-0.140625 -0.382812 -0.005370 104 93 72
-0.136719 -0.382812 -0.012298 110 93 66
-0.132812 -0.382812 -0.017564 145 117 76
-0.128906 -0.382812 -0.022286 158 123 79
-0.125000 -0.382812 -0.026208 156 124 81
-0.121094 -0.382812 -0.029758 160 131 87
-0.117188 -0.382812 -0.033090 163 134 92
-0.113281 -0.382812 -0.036139 168 141 103
-0.109375 -0.382812 -0.038736 175 151 113
-0.105469 -0.382812 -0.040777 179 155 120
-0.101562 -0.382812 -0.042323 181 158 126
-0.097656 -0.382812 -0.043757 187 165 134
-0.093750 -0.382812 -0.044947 189 167 138
-0.089844 -0.382812 -0.045392 189 167 140
-0.085938 -0.382812 -0.045204 192 170 146
-0.082031 -0.382812 -0.045000 191 170 146
-0.078125 -0.382812 -0.044552 193 171 148
-0.074219 -0.382812 -0.043334 195 174 152
-0.070312 -0.382812 -0.041385 189 171 151
-0.066406 -0.382812 -0.039518 196 184 169
-0.062500 -0.382812 -0.037502 210 202 192
-0.058594 -0.382812 -0.034715 202 191 179
-0.054688 -0.382812 -0.031615 187 169 147
-0.050781 -0.382812 -0.028451 182 158 129
-0.046875 -0.382812 -0.025287 171 144 112
-0.042969 -0.382812 -0.021330 153 125 93
-0.039062 -0.382812 -0.016938 139 110 79
-0.035156 -0.382812 -0.012619 127 98 69
-0.031250 -0.382812 -0.007698 116 89 62
-0.027344 -0.382812 -0.002252 106 82 56
-0.023438 -0.382812 0.004917 98 78 53
-0.019531 -0.382812 0.018300 82 65 44
-0.015625 -0.382812 0.027465 64 52 36
-0.007812 -0.382812 -0.035967 47 39 29
-0.003906 -0.382812 -0.054016 30 27 21
0.000000 -0.382812 -0.063738 45 45 40
0.003906 -0.382812 -0.067419 43 45 44
0.007812 -0.382812 -0.071386 39 41 40
0.011719 -0.382812 -0.075558 45 44 39
0.015625 -0.382812 -0.078954 45 42 35
0.019531 -0.382812 -0.081998 64 54 43
0.023438 -0.382812 -0.084636 79 61 46
0.027344 -0.382812 -0.086962 82 60 44
0.031250 -0.382812 -0.089108 92 66 47
0.035156 -0.382812 -0.090665 106 74 52
0.039062 -0.382812 -0.091691 119 82 57
0.042969 -0.382812 -0.092657 129 89 61
0.046875 -0.382812 -0.093349 136 95 64
0.050781 -0.382812 -0.093576 142 100 67
0.054688 -0.382812 -0.093552 151 108 72
0.058594 -0.382812 -0.093270 154 112 75
0.062500 -0.382812 -0.092859 155 113 75
0.066406 -0.382812 -0.091978 156 115 77
0.070312 -0.382812 -0.090563 158 118 78
0.074219 -0.382812 -0.089113 153 116 76
0.078125 -0.382812 -0.087458 149 114 74
0.082031 -0.382812 -0.085379 148 115 75
0.085938 -0.382812 -0.082751 143 113 74
0.089844 -0.382812 -0.080219 142 114 74
0.093750 -0.382812 -0.077276 141 112 72
0.097656 -0.382812 -0.073729 137 107 69
0.101562 -0.382812 -0.069528 137 107 70
0.105469 -0.382812 -0.065007 123 97 66
0.109375 -0.382812 -0.059263 127 104 72
0.113281 -0.382812 -0.053287 156 130 93
0.117188 -0.382812 -0.047889 118 103 73
0.121094 -0.382812 -0.026389 127 104 72
-0.144531 -0.386719 0.012363 59 65 58
-0.140625 -0.386719 -0.003484 84 81 69
-0.136719 -0.386719 -0.009276 114 99 71
-0.132812 -0.386719 -0.014162 140 113 75
-0.128906 -0.386719 -0.018901 152 118 77
-0.125000 -0.386719 -0.022707 154 124 83
-0.121094 -0.386719 -0.026334 158 130 88
-0.117188 -0.386719 -0.029714 163 134 93
-0.113281 -0.386719 -0.032875 170 142 107
-0.109375 -0.386719 -0.035580 177 151 118
-0.105469 -0.386719 -0.037689 180 154 123
-0.101562 -0.386719 -0.039326 180 155 126
-0.097656 -0.386719 -0.040830 182 158 131
-0.093750 -0.386719 -0.042097 185 161 134
-0.089844 -0.386719 -0.042653 186 162 136
-0.085938 -0.386719 -0.042566 190 166 142
-0.082031 -0.386719 -0.042459 192 170 145
-0.078125 -0.386719 -0.042138 194 172 148
-0.074219 -0.386719 -0.041041 196 174 151
-0.070312 -0.386719 -0.039200 189 167 147
-0.066406 -0.386719 -0.037432 181 163 146
-0.062500 -0.386719 -0.035487 185 169 155
-0.058594 -0.386719 -0.032781 189 171 155
-0.054688 -0.386719 -0.029793 192 172 149
-0.050781 -0.386719 -0.026802 194 171 143
-0.046875 -0.386719 -0.023897 187 163 133
-0.042969 -0.386719 -0.020146 172 147 115
-0.039062 -0.386719 -0.015949 156 128 96
-0.035156 -0.386719 -0.011949 140 112 81
-0.031250 -0.386719 -0.006959 126 99 70
-0.027344 -0.386719 -0.001746 115 89 63
-0.023438 -0.386719 0.005229 107 85 59
-0.019531 -0.386719 0.018653 89 72 51
-0.015625 -0.386719 0.027581 69 58 41
-0.007812 -0.386719 -0.030341 58 48 28
-0.003906 -0.386719 -0.056825 31 27 17
0.000000 -0.386719 -0.064558 40 35 28
0.003906 -0.386719 -0.068508 43 41 38
0.007812 -0.386719 -0.072408 40 40 37
0.011719 -0.386719 -0.076325 43 43 39
0.015625 -0.386719 -0.079587 48 46 39
0.019531 -0.386719 -0.082561 69 59 47
0.023438 -0.386719 -0.085037 85 67 51
0.027344 -0.386719 -0.087319 89 66 49
0.031250 -0.386719 -0.089483 99 71 52
0.035156 -0.386719 -0.091076 113 79 57
0.039062 -0.386719 -0.092149 122 84 60
0.042969 -0.386719 -0.093106 134 93 64
0.046875 -0.386719 -0.093761 145 101 69
0.050781 -0.386719 -0.093947 150 106 72
0.054688 -0.386719 -0.093829 155 112 75
0.058594 -0.386719 -0.093470 156 113 77
0.062500 -0.386719 -0.092967 156 114 77
0.066406 -0.386719 -0.091975 156 116 77
0.070312 -0.386719 -0.090466 155 117 77
0.074219 -0.386719 -0.088930 155 118 77
0.078125 -0.386719 -0.087191 152 117 75
0.082031 -0.386719 -0.085022 148 115 74
0.085938 -0.386719 -0.082294 144 114 73
0.089844 -0.386719 -0.079681 145 115 74
0.093750 -0.386719 -0.076673 144 115 74
0.097656 -0.386719 -0.073058 141 111 72
0.101562 -0.386719 -0.068565 141 111 73
0.105469 -0.386719 -0.063732 131 105 71
0.109375 -0.386719 -0.057935 144 120 84
0.113281 -0.386719 -0.052236 126 102 73
0.117188 -0.386719 -0.044534 117 103 69
-0.140625 -0.390625 -0.000994 116 106 84
-0.136719 -0.390625 -0.005375 129 115 84
-0.132812 -0.390625 -0.010413 140 115 76
-0.128906 -0.390625 -0.015431 152 120 77
-0.125000 -0.390625 -0.019405 164 133 90
-0.121094 -0.390625 -0.023151 168 140 97
-0.117188 -0.390625 -0.026624 171 142 103
-0.113281 -0.390625 -0.029905 179 150 114
-0.109375 -0.390625 -0.032696 184 156 124
-0.105469 -0.390625 -0.034869 184 157 128
-0.101562 -0.390625 -0.036566 183 157 130
-0.097656 -0.390625 -0.038117 184 159 134
-0.093750 -0.390625 -0.039435 187 162 137
-0.089844 -0.390625 -0.040062 187 162 137
-0.085938 -0.390625 -0.040049 189 165 140
-0.082031 -0.390625 -0.040010 193 170 145
-0.078125 -0.390625 -0.039750 197 175 151
-0.074219 -0.390625 -0.038732 201 179 155
-0.070312 -0.390625 -0.037009 198 176 154
-0.066406 -0.390625 -0.035342 185 163 143
-0.062500 -0.390625 -0.033519 181 159 140
-0.058594 -0.390625 -0.031006 190 168 147
-0.054688 -0.390625 -0.028218 196 174 150
-0.050781 -0.390625 -0.025450 195 173 146
-0.046875 -0.390625 -0.022813 191 169 140
-0.042969 -0.390625 -0.019252 182 159 127
-0.039062 -0.390625 -0.015170 168 142 108
-0.035156 -0.390625 -0.011303 150 123 90
-0.031250 -0.390625 -0.006324 137 110 78
-0.027344 -0.390625 -0.001366 130 103 73
-0.023438 -0.390625 0.005351 122 98 69
-0.019531 -0.390625 0.018361 101 84 60
-0.015625 -0.390625 0.025723 81 71 52
-0.007812 -0.390625 -0.027811 39 34 29
-0.003906 -0.390625 -0.058354 32 31 28
0.000000 -0.390625 -0.065118 52 55 50
0.003906 -0.390625 -0.069290 42 40 33
0.007812 -0.390625 -0.073354 42 42 38
0.011719 -0.390625 -0.077308 47 47 41
0.015625 -0.390625 -0.080482 57 53 44
0.019531 -0.390625 -0.083303 72 61 49
0.023438 -0.390625 -0.085655 83 65 50
0.027344 -0.390625 -0.087909 91 67 50
0.031250 -0.390625 -0.090095 101 72 53
0.035156 -0.390625 -0.091714 115 80 57
0.039062 -0.390625 -0.092812 124 85 60
0.042969 -0.390625 -0.093783 137 94 66
0.046875 -0.390625 -0.094418 148 103 70
0.050781 -0.390625 -0.094559 152 108 73
0.054688 -0.390625 -0.094348 157 113 76
0.058594 -0.390625 -0.093928 158 115 78
0.062500 -0.390625 -0.093368 159 117 79
0.066406 -0.390625 -0.092309 158 118 79
0.070312 -0.390625 -0.090729 156 118 77
0.074219 -0.390625 -0.089135 157 120 77
0.078125 -0.390625 -0.087343 156 120 76
