ply
    format ascii 1.0
    element vertex 90760
    property float x
    property float y
    property float z
    property uchar red
    property uchar green
    property uchar blue
    end_header
0.042969 0.585938 -0.132976 126 128 124
0.046875 0.585938 -0.130656 110 109 112
0.050781 0.585938 -0.128513 111 108 114
0.054688 0.585938 -0.126428 134 129 136
0.058594 0.585938 -0.124322 155 148 156
0.062500 0.585938 -0.122261 142 133 138
0.066406 0.585938 -0.120213 131 124 122
0.070312 0.585938 -0.118238 135 128 122
0.074219 0.585938 -0.116308 139 131 121
0.078125 0.585938 -0.114174 134 126 116
0.082031 0.585938 -0.111818 134 124 116
0.085938 0.585938 -0.109394 136 127 123
0.089844 0.585938 -0.107070 142 130 130
0.093750 0.585938 -0.104834 138 128 132
0.097656 0.585938 -0.102517 142 133 141
0.101562 0.585938 -0.100150 147 140 148
0.105469 0.585938 -0.097802 138 133 140
0.109375 0.585938 -0.095382 120 118 123
0.113281 0.585938 -0.092990 119 119 119
0.117188 0.585938 -0.090667 132 132 134
0.121094 0.585938 -0.088421 115 113 124
0.125000 0.585938 -0.086301 125 123 136
0.128906 0.585938 -0.084336 202 200 210
0.132812 0.585938 -0.082432 171 171 171
0.136719 0.585938 -0.080617 163 162 163
0.140625 0.585938 -0.078834 179 179 179
0.144531 0.585938 -0.077068 192 192 191
0.148438 0.585938 -0.075273 202 202 199
0.152344 0.585938 -0.073519 204 204 200
0.156250 0.585938 -0.071749 203 203 200
0.160156 0.585938 -0.069989 202 202 200
0.164062 0.585938 -0.068271 200 200 198
0.167969 0.585938 -0.066545 198 198 198
0.171875 0.585938 -0.064790 196 196 196
0.175781 0.585938 -0.062969 196 194 195
0.179688 0.585938 -0.061148 195 194 194
0.183594 0.585938 -0.059180 193 192 192
0.187500 0.585938 -0.057291 190 190 190
0.191406 0.585938 -0.055446 185 184 184
0.195312 0.585938 -0.053819 178 178 178
0.199219 0.585938 -0.052317 173 173 173
0.203125 0.585938 -0.050745 170 170 170
0.207031 0.585938 -0.049483 169 169 169
0.210938 0.585938 -0.048050 170 170 170
0.214844 0.585938 -0.046674 175 174 174
0.218750 0.585938 -0.045363 182 180 181
0.222656 0.585938 -0.043912 188 186 186
0.226562 0.585938 -0.042344 194 191 191
0.230469 0.585938 -0.040463 204 199 200
0.234375 0.585938 -0.037428 220 212 214
0.238281 0.585938 -0.034998 226 219 219
0.242188 0.585938 -0.031901 228 226 226
-0.316406 0.582031 0.006658 206 206 204
-0.312500 0.582031 0.002677 208 208 204
-0.308594 0.582031 -0.000250 206 208 205
-0.304688 0.582031 -0.002995 206 207 205
-0.300781 0.582031 -0.006025 205 205 203
-0.296875 0.582031 -0.009033 199 199 196
-0.292969 0.582031 -0.011915 190 190 185
-0.289062 0.582031 -0.014659 176 181 171
-0.285156 0.582031 -0.017398 171 182 166
-0.281250 0.582031 -0.020433 207 217 202
-0.277344 0.582031 -0.023534 195 197 192
-0.273438 0.582031 -0.026686 126 126 124
-0.269531 0.582031 -0.029824 117 117 117
-0.265625 0.582031 -0.033003 121 121 123
-0.261719 0.582031 -0.036205 125 124 129
-0.257812 0.582031 -0.039425 139 138 143
-0.253906 0.582031 -0.042527 146 144 149
-0.250000 0.582031 -0.045480 138 133 139
-0.246094 0.582031 -0.048362 136 131 137
-0.242188 0.582031 -0.051162 128 126 131
-0.238281 0.582031 -0.053814 125 124 130
-0.234375 0.582031 -0.056382 139 138 144
-0.230469 0.582031 -0.058721 135 136 140
-0.226562 0.582031 -0.060938 143 145 150
-0.222656 0.582031 -0.063180 134 139 143
-0.218750 0.582031 -0.065433 117 121 127
-0.214844 0.582031 -0.067615 100 106 112
-0.210938 0.582031 -0.069730 112 121 127
-0.207031 0.582031 -0.071826 103 112 119
-0.203125 0.582031 -0.073913 98 108 114
-0.199219 0.582031 -0.076160 121 131 140
-0.195312 0.582031 -0.078559 110 120 130
-0.191406 0.582031 -0.080938 140 146 160
-0.187500 0.582031 -0.083449 136 142 155
-0.183594 0.582031 -0.086076 131 137 151
-0.179688 0.582031 -0.088856 130 136 148
-0.175781 0.582031 -0.091747 136 140 152
-0.171875 0.582031 -0.094804 142 144 155
-0.167969 0.582031 -0.097903 146 146 156
-0.164062 0.582031 -0.100908 148 148 156
-0.160156 0.582031 -0.104088 138 137 143
-0.156250 0.582031 -0.107169 133 132 137
-0.152344 0.582031 -0.110081 136 134 139
-0.148438 0.582031 -0.112857 135 133 136
-0.144531 0.582031 -0.115581 140 136 137
-0.140625 0.582031 -0.118137 137 133 134
-0.136719 0.582031 -0.120668 129 125 126
-0.132812 0.582031 -0.123214 145 141 142
-0.128906 0.582031 -0.125653 163 158 162
-0.125000 0.582031 -0.127958 134 132 134
-0.121094 0.582031 -0.130276 126 125 126
-0.117188 0.582031 -0.132541 107 111 106
-0.113281 0.582031 -0.134792 88 106 82
-0.109375 0.582031 -0.137122 92 123 74
-0.105469 0.582031 -0.139627 118 143 87
-0.101562 0.582031 -0.142009 154 167 112
-0.097656 0.582031 -0.144558 165 169 119
-0.093750 0.582031 -0.146978 171 167 123
-0.089844 0.582031 -0.148904 176 167 128
-0.085938 0.582031 -0.150838 180 164 131
-0.082031 0.582031 -0.152286 189 166 139
-0.078125 0.582031 -0.153669 193 166 141
-0.074219 0.582031 -0.154750 192 160 134
-0.070312 0.582031 -0.155390 193 158 131
-0.066406 0.582031 -0.156492 196 158 130
-0.062500 0.582031 -0.157166 200 160 131
-0.058594 0.582031 -0.157573 207 167 137
-0.054688 0.582031 -0.158338 211 171 139
-0.050781 0.582031 -0.158387 209 168 134
-0.046875 0.582031 -0.158218 203 161 127
-0.042969 0.582031 -0.158103 196 152 120
-0.039062 0.582031 -0.157571 188 144 115
-0.035156 0.582031 -0.157319 182 140 112
-0.031250 0.582031 -0.157113 178 136 109
-0.027344 0.582031 -0.157008 172 132 104
-0.023438 0.582031 -0.157399 168 129 103
-0.019531 0.582031 -0.158309 166 128 101
-0.015625 0.582031 -0.159034 164 127 101
-0.011719 0.582031 -0.159387 164 127 101
-0.007812 0.582031 -0.159604 167 129 104
-0.003906 0.582031 -0.159048 168 129 105
0.000000 0.582031 -0.158226 169 130 106
0.003906 0.582031 -0.156997 168 128 105
0.007812 0.582031 -0.154979 166 125 103
0.011719 0.582031 -0.152940 169 133 110
0.015625 0.582031 -0.150648 172 143 117
0.019531 0.582031 -0.148298 166 148 113
0.023438 0.582031 -0.146067 147 143 100
0.027344 0.582031 -0.143488 127 135 89
0.031250 0.582031 -0.140978 115 128 93
0.035156 0.582031 -0.138563 118 125 112
0.039062 0.582031 -0.136181 124 124 120
0.042969 0.582031 -0.134006 123 121 123
0.046875 0.582031 -0.131758 126 124 129
0.050781 0.582031 -0.129491 130 127 134
0.054688 0.582031 -0.127294 131 128 135
0.058594 0.582031 -0.125111 161 156 163
0.062500 0.582031 -0.122959 143 138 141
0.066406 0.582031 -0.120881 131 126 123
0.070312 0.582031 -0.118882 137 130 124
0.074219 0.582031 -0.116847 143 136 127
0.078125 0.582031 -0.114835 140 134 123
0.082031 0.582031 -0.112538 134 125 117
0.085938 0.582031 -0.110223 130 123 117
0.089844 0.582031 -0.107963 137 128 129
0.093750 0.582031 -0.105763 130 122 127
0.097656 0.582031 -0.103501 132 124 134
0.101562 0.582031 -0.101173 143 137 147
0.105469 0.582031 -0.098867 145 142 151
0.109375 0.582031 -0.096468 136 135 141
0.113281 0.582031 -0.094098 133 132 137
0.117188 0.582031 -0.091784 138 139 144
0.121094 0.582031 -0.089540 121 119 132
0.125000 0.582031 -0.087424 110 108 122
0.128906 0.582031 -0.085473 156 154 165
0.132812 0.582031 -0.083597 177 176 182
0.136719 0.582031 -0.081791 157 156 157
0.140625 0.582031 -0.080035 180 180 180
0.144531 0.582031 -0.078313 196 196 195
0.148438 0.582031 -0.076569 201 202 198
0.152344 0.582031 -0.074865 205 205 201
0.156250 0.582031 -0.073111 206 206 202
0.160156 0.582031 -0.071345 204 204 201
0.164062 0.582031 -0.069601 202 202 200
0.167969 0.582031 -0.067823 200 199 199
0.171875 0.582031 -0.066001 197 197 197
0.175781 0.582031 -0.064109 196 195 195
0.179688 0.582031 -0.062196 196 195 195
0.183594 0.582031 -0.060166 194 194 194
0.187500 0.582031 -0.058238 192 192 192
0.191406 0.582031 -0.056352 188 188 188
0.195312 0.582031 -0.054715 184 183 184
0.199219 0.582031 -0.053258 179 179 179
0.203125 0.582031 -0.051905 175 175 175
0.207031 0.582031 -0.050889 173 173 173
0.210938 0.582031 -0.049880 172 171 171
0.214844 0.582031 -0.049092 173 173 173
0.218750 0.582031 -0.048305 177 177 177
0.222656 0.582031 -0.047325 183 183 183
0.226562 0.582031 -0.045873 192 190 190
0.230469 0.582031 -0.044240 203 200 200
0.234375 0.582031 -0.042039 217 212 213
0.238281 0.582031 -0.039386 229 224 224
0.242188 0.582031 -0.035936 237 232 233
0.246094 0.582031 -0.032063 227 226 226
-0.324219 0.578125 0.010186 212 212 211
-0.320312 0.578125 0.005458 209 209 207
-0.316406 0.578125 0.002045 209 209 205
-0.312500 0.578125 -0.000973 197 198 196
-0.308594 0.578125 -0.003483 200 200 199
-0.304688 0.578125 -0.006332 201 201 200
-0.300781 0.578125 -0.009161 201 200 198
-0.296875 0.578125 -0.011946 198 197 193
-0.292969 0.578125 -0.014724 192 193 187
-0.289062 0.578125 -0.017522 182 187 177
-0.285156 0.578125 -0.020386 178 187 173
-0.281250 0.578125 -0.023245 204 213 200
-0.277344 0.578125 -0.026185 202 204 200
-0.273438 0.578125 -0.029234 132 132 131
-0.269531 0.578125 -0.032236 126 126 128
-0.265625 0.578125 -0.035256 131 130 135
-0.261719 0.578125 -0.038308 125 124 129
-0.257812 0.578125 -0.041346 125 122 129
-0.253906 0.578125 -0.044303 139 133 143
-0.250000 0.578125 -0.047147 141 135 145
-0.246094 0.578125 -0.049945 145 139 149
-0.242188 0.578125 -0.052683 150 144 154
-0.238281 0.578125 -0.055303 125 122 132
-0.234375 0.578125 -0.057859 127 125 136
-0.230469 0.578125 -0.060204 127 127 137
-0.226562 0.578125 -0.062429 141 144 152
-0.222656 0.578125 -0.064695 141 143 152
-0.218750 0.578125 -0.066986 124 130 138
-0.214844 0.578125 -0.069222 126 132 140
-0.210938 0.578125 -0.071402 113 121 128
-0.207031 0.578125 -0.073588 93 104 110
-0.203125 0.578125 -0.075777 92 104 110
-0.199219 0.578125 -0.078121 103 116 124
-0.195312 0.578125 -0.080621 119 129 139
-0.191406 0.578125 -0.083100 140 146 162
-0.187500 0.578125 -0.085674 132 138 154
-0.183594 0.578125 -0.088331 129 135 151
-0.179688 0.578125 -0.091096 132 138 152
-0.175781 0.578125 -0.093934 135 138 152
-0.171875 0.578125 -0.096923 135 138 150
-0.167969 0.578125 -0.099941 142 144 156
-0.164062 0.578125 -0.102864 155 155 165
-0.160156 0.578125 -0.105955 148 147 155
-0.156250 0.578125 -0.108949 135 134 140
-0.152344 0.578125 -0.111787 136 133 140
-0.148438 0.578125 -0.114464 125 123 128
-0.144531 0.578125 -0.117106 136 131 135
-0.140625 0.578125 -0.119605 138 134 137
-0.136719 0.578125 -0.121960 127 122 126
-0.132812 0.578125 -0.124400 164 159 163
-0.128906 0.578125 -0.126698 154 152 154
-0.125000 0.578125 -0.128894 126 124 127
-0.121094 0.578125 -0.131105 138 136 139
-0.117188 0.578125 -0.133265 140 139 141
-0.113281 0.578125 -0.135448 124 124 122
-0.109375 0.578125 -0.137653 111 115 109
-0.105469 0.578125 -0.140007 86 100 81
-0.101562 0.578125 -0.142230 78 106 64
-0.097656 0.578125 -0.144636 91 122 64
-0.093750 0.578125 -0.146927 108 136 72
-0.089844 0.578125 -0.148808 124 147 80
-0.085938 0.578125 -0.150780 136 148 87
-0.082031 0.578125 -0.152313 150 151 97
-0.078125 0.578125 -0.153800 161 154 105
-0.074219 0.578125 -0.154940 165 148 106
-0.070312 0.578125 -0.155711 172 148 111
-0.066406 0.578125 -0.156885 183 151 118
-0.062500 0.578125 -0.157522 192 155 125
-0.058594 0.578125 -0.157895 203 164 136
-0.054688 0.578125 -0.158616 210 170 142
-0.050781 0.578125 -0.158609 210 168 139
-0.046875 0.578125 -0.158304 205 162 132
-0.042969 0.578125 -0.158036 198 153 126
-0.039062 0.578125 -0.157495 189 144 119
-0.035156 0.578125 -0.157513 183 141 116
-0.031250 0.578125 -0.157487 177 137 112
-0.027344 0.578125 -0.157320 171 132 107
-0.023438 0.578125 -0.157667 169 131 107
-0.019531 0.578125 -0.158449 167 127 105
-0.015625 0.578125 -0.159002 165 124 104
-0.011719 0.578125 -0.159271 165 123 103
-0.007812 0.578125 -0.159382 164 122 102
-0.003906 0.578125 -0.158698 163 121 100
0.000000 0.578125 -0.157869 160 122 94
0.003906 0.578125 -0.156832 151 116 83
0.007812 0.578125 -0.155123 140 112 74
0.011719 0.578125 -0.153419 129 113 72
0.015625 0.578125 -0.151308 114 111 71
0.019531 0.578125 -0.149058 104 110 78
0.023438 0.578125 -0.146881 104 111 97
0.027344 0.578125 -0.144223 110 113 109
0.031250 0.578125 -0.141686 112 112 111
0.035156 0.578125 -0.139318 123 122 122
0.039062 0.578125 -0.136979 140 139 137
0.042969 0.578125 -0.134936 139 137 140
0.046875 0.578125 -0.132821 127 125 130
0.050781 0.578125 -0.130530 136 133 140
0.054688 0.578125 -0.128290 158 155 164
0.058594 0.578125 -0.126096 142 139 146
0.062500 0.578125 -0.123873 135 130 134
0.066406 0.578125 -0.121715 130 126 125
0.070312 0.578125 -0.119680 135 130 124
0.074219 0.578125 -0.117544 136 133 124
0.078125 0.578125 -0.115558 132 128 118
0.082031 0.578125 -0.113317 128 121 114
0.085938 0.578125 -0.111078 125 120 116
0.089844 0.578125 -0.108877 119 110 113
0.093750 0.578125 -0.106735 128 121 129
0.097656 0.578125 -0.104544 128 122 133
0.101562 0.578125 -0.102282 119 116 127
0.105469 0.578125 -0.100037 122 120 131
0.109375 0.578125 -0.097680 131 131 139
0.113281 0.578125 -0.095347 126 127 132
0.117188 0.578125 -0.093038 110 110 118
0.121094 0.578125 -0.090797 122 120 134
0.125000 0.578125 -0.088672 106 104 118
0.128906 0.578125 -0.086704 102 100 113
0.132812 0.578125 -0.084832 190 189 196
0.136719 0.578125 -0.083020 148 147 150
0.140625 0.578125 -0.081273 175 175 175
0.144531 0.578125 -0.079568 192 192 191
0.148438 0.578125 -0.077845 200 201 196
0.152344 0.578125 -0.076165 204 204 200
0.156250 0.578125 -0.074422 206 206 202
0.160156 0.578125 -0.072657 206 206 203
0.164062 0.578125 -0.070891 204 204 201
0.167969 0.578125 -0.069073 202 201 200
0.171875 0.578125 -0.067200 198 197 197
0.175781 0.578125 -0.065252 196 194 195
0.179688 0.578125 -0.063282 195 195 195
0.183594 0.578125 -0.061216 194 193 193
0.187500 0.578125 -0.059252 192 192 192
0.191406 0.578125 -0.057383 190 189 189
0.195312 0.578125 -0.055792 186 186 186
0.199219 0.578125 -0.054361 184 183 183
0.203125 0.578125 -0.053116 182 181 181
0.207031 0.578125 -0.052205 180 180 180
0.210938 0.578125 -0.051423 178 178 178
0.214844 0.578125 -0.050928 178 178 178
0.218750 0.578125 -0.050392 178 178 178
0.222656 0.578125 -0.049725 180 179 179
0.226562 0.578125 -0.048581 184 184 184
0.230469 0.578125 -0.047256 192 191 191
0.234375 0.578125 -0.045335 204 202 202
0.238281 0.578125 -0.042904 217 215 215
0.242188 0.578125 -0.039777 228 225 226
0.246094 0.578125 -0.036388 233 229 230
0.250000 0.578125 -0.032198 238 232 232
-0.328125 0.574219 0.009421 217 217 216
-0.324219 0.574219 0.005311 213 213 213
-0.320312 0.574219 0.001942 203 203 202
-0.316406 0.574219 -0.001100 203 203 201
-0.312500 0.574219 -0.004273 205 205 203
-0.308594 0.574219 -0.006839 205 205 203
-0.304688 0.574219 -0.009548 205 205 203
-0.300781 0.574219 -0.011992 204 204 201
-0.296875 0.574219 -0.014513 203 202 198
-0.292969 0.574219 -0.017047 199 199 194
-0.289062 0.574219 -0.019696 192 195 186
-0.285156 0.574219 -0.022453 189 197 184
-0.281250 0.574219 -0.025236 206 214 203
-0.277344 0.574219 -0.028158 218 220 217
-0.273438 0.574219 -0.031141 135 135 137
-0.269531 0.574219 -0.034126 124 123 128
-0.265625 0.574219 -0.037101 130 129 135
-0.261719 0.574219 -0.040058 131 130 138
-0.257812 0.574219 -0.042998 130 127 138
-0.253906 0.574219 -0.045834 133 127 141
-0.250000 0.574219 -0.048592 138 129 146
-0.246094 0.574219 -0.051324 145 138 154
-0.242188 0.574219 -0.054025 175 168 184
-0.238281 0.574219 -0.056637 144 140 154
-0.234375 0.574219 -0.059192 138 136 150
-0.230469 0.574219 -0.061573 128 127 141
-0.226562 0.574219 -0.063848 128 129 142
-0.222656 0.574219 -0.066169 124 126 138
-0.218750 0.574219 -0.068510 116 123 133
-0.214844 0.574219 -0.070809 135 142 151
-0.210938 0.574219 -0.073067 99 107 116
-0.207031 0.574219 -0.075345 86 96 104
-0.203125 0.574219 -0.077638 99 112 119
-0.199219 0.574219 -0.080082 86 98 104
-0.195312 0.574219 -0.082693 120 133 141
-0.191406 0.574219 -0.085262 141 148 164
-0.187500 0.574219 -0.087881 137 142 160
-0.183594 0.574219 -0.090552 138 143 162
-0.179688 0.574219 -0.093288 145 150 169
-0.175781 0.574219 -0.096084 147 150 169
-0.171875 0.574219 -0.099009 137 140 157
-0.167969 0.574219 -0.101931 135 137 152
-0.164062 0.574219 -0.104777 140 142 155
-0.160156 0.574219 -0.107768 158 158 170
-0.156250 0.574219 -0.110678 137 137 147
-0.152344 0.574219 -0.113446 130 129 137
-0.148438 0.574219 -0.116054 112 111 117
-0.144531 0.574219 -0.118600 121 118 124
-0.140625 0.574219 -0.121071 126 124 129
-0.136719 0.574219 -0.123269 120 115 121
-0.132812 0.574219 -0.125561 160 155 159
-0.128906 0.574219 -0.127667 142 140 143
-0.125000 0.574219 -0.129668 116 116 116
-0.121094 0.574219 -0.131720 133 131 132
-0.117188 0.574219 -0.133773 143 141 142
-0.113281 0.574219 -0.135920 135 133 134
-0.109375 0.574219 -0.138055 133 132 132
-0.105469 0.574219 -0.140254 123 123 122
-0.101562 0.574219 -0.142325 115 119 114
-0.097656 0.574219 -0.144619 103 116 99
-0.093750 0.574219 -0.146818 92 119 84
-0.089844 0.574219 -0.148708 87 125 73
-0.085938 0.574219 -0.150715 88 128 66
-0.082031 0.574219 -0.152279 96 132 65
-0.078125 0.574219 -0.153789 113 140 71
-0.074219 0.574219 -0.154930 127 141 80
-0.070312 0.574219 -0.155835 147 146 95
-0.066406 0.574219 -0.157014 170 156 114
-0.062500 0.574219 -0.157480 186 161 128
-0.058594 0.574219 -0.157759 197 167 138
-0.054688 0.574219 -0.158371 204 172 145
-0.050781 0.574219 -0.158420 205 170 145
-0.046875 0.574219 -0.158009 203 166 140
-0.042969 0.574219 -0.157647 198 161 135
-0.039062 0.574219 -0.157272 191 154 131
-0.035156 0.574219 -0.157393 187 153 130
-0.031250 0.574219 -0.157429 181 150 126
-0.027344 0.574219 -0.157341 173 141 119
-0.023438 0.574219 -0.157631 168 136 115
-0.019531 0.574219 -0.158163 163 129 110
-0.015625 0.574219 -0.158559 160 123 106
-0.011719 0.574219 -0.158733 157 119 102
-0.007812 0.574219 -0.158728 155 113 96
-0.003906 0.574219 -0.158192 148 106 87
0.000000 0.574219 -0.157550 134 101 75
0.003906 0.574219 -0.156676 113 94 60
0.007812 0.574219 -0.155302 95 92 55
0.011719 0.574219 -0.153976 84 91 65
0.015625 0.574219 -0.152136 88 92 86
0.019531 0.574219 -0.150098 110 111 116
0.023438 0.574219 -0.148067 132 131 139
0.027344 0.574219 -0.145375 139 136 142
0.031250 0.574219 -0.142792 162 160 163
0.035156 0.574219 -0.140341 159 157 158
0.039062 0.574219 -0.137910 129 128 126
0.042969 0.574219 -0.135924 124 122 125
0.046875 0.574219 -0.133902 148 146 151
0.050781 0.574219 -0.131617 152 149 156
0.054688 0.574219 -0.129356 131 129 137
0.058594 0.574219 -0.127125 126 124 132
0.062500 0.574219 -0.124846 127 126 130
0.066406 0.574219 -0.122659 128 126 127
0.070312 0.574219 -0.120584 126 123 119
0.074219 0.574219 -0.118427 121 118 112
0.078125 0.574219 -0.116418 119 117 108
0.082031 0.574219 -0.114238 128 124 118
0.085938 0.574219 -0.112044 138 134 131
0.089844 0.574219 -0.109888 159 154 157
0.093750 0.574219 -0.107800 171 166 175
0.097656 0.574219 -0.105670 166 162 176
0.101562 0.574219 -0.103463 145 143 157
0.105469 0.574219 -0.101284 132 131 145
0.109375 0.574219 -0.098975 131 133 145
0.113281 0.574219 -0.096659 123 126 133
0.117188 0.574219 -0.094328 106 109 118
0.121094 0.574219 -0.092083 91 90 104
0.125000 0.574219 -0.089943 95 92 109
0.128906 0.574219 -0.087952 92 90 104
0.132812 0.574219 -0.086083 200 198 208
0.136719 0.574219 -0.084249 164 163 167
0.140625 0.574219 -0.082491 174 174 174
0.144531 0.574219 -0.080781 185 185 182
0.148438 0.574219 -0.079067 194 194 190
0.152344 0.574219 -0.077400 197 197 193
0.156250 0.574219 -0.075653 202 202 196
0.160156 0.574219 -0.073878 203 203 199
0.164062 0.574219 -0.072078 203 203 200
0.167969 0.574219 -0.070204 201 201 199
0.171875 0.574219 -0.068272 197 196 196
0.175781 0.574219 -0.066271 194 193 194
0.179688 0.574219 -0.064237 194 193 193
0.183594 0.574219 -0.062124 193 192 192
0.187500 0.574219 -0.060116 191 191 191
0.191406 0.574219 -0.058249 190 189 189
0.195312 0.574219 -0.056703 188 187 187
0.199219 0.574219 -0.055329 186 186 186
0.203125 0.574219 -0.054182 185 185 185
0.207031 0.574219 -0.053382 183 183 183
0.210938 0.574219 -0.052765 181 181 181
0.214844 0.574219 -0.052437 180 180 180
0.218750 0.574219 -0.052079 179 179 179
0.222656 0.574219 -0.051620 180 180 180
0.226562 0.574219 -0.050783 185 185 185
0.230469 0.574219 -0.049803 192 191 191
0.234375 0.574219 -0.048367 202 201 201
0.238281 0.574219 -0.046324 215 214 214
0.242188 0.574219 -0.043465 228 226 226
0.246094 0.574219 -0.040168 236 233 234
0.250000 0.574219 -0.036436 242 239 240
0.253906 0.574219 -0.031554 247 243 244
-0.335938 0.570312 0.014779 224 224 224
-0.332031 0.570312 0.009017 221 221 221
-0.328125 0.570312 0.005568 219 219 219
-0.324219 0.570312 0.002453 210 209 209
-0.320312 0.570312 -0.000910 206 206 206
-0.316406 0.570312 -0.003816 206 206 204
-0.312500 0.570312 -0.006759 208 208 204
-0.308594 0.570312 -0.009275 207 207 204
-0.304688 0.570312 -0.011640 207 207 203
-0.300781 0.570312 -0.014007 207 207 204
-0.296875 0.570312 -0.016444 207 207 202
-0.292969 0.570312 -0.018886 205 205 199
-0.289062 0.570312 -0.021435 199 202 192
-0.285156 0.570312 -0.024062 195 203 191
-0.281250 0.570312 -0.026757 207 214 206
-0.277344 0.570312 -0.029608 232 233 233
-0.273438 0.570312 -0.032520 135 134 139
-0.269531 0.570312 -0.035471 114 113 119
-0.265625 0.570312 -0.038390 126 125 133
-0.261719 0.570312 -0.041291 147 145 156
-0.257812 0.570312 -0.044189 160 156 170
-0.253906 0.570312 -0.046990 139 132 150
-0.250000 0.570312 -0.049713 134 125 146
-0.246094 0.570312 -0.052423 132 123 144
-0.242188 0.570312 -0.055132 184 176 197
-0.238281 0.570312 -0.057763 161 156 176
-0.234375 0.570312 -0.060350 159 156 174
-0.230469 0.570312 -0.062773 141 138 157
-0.226562 0.570312 -0.065086 122 124 139
-0.222656 0.570312 -0.067456 129 131 145
-0.218750 0.570312 -0.069852 117 123 135
-0.214844 0.570312 -0.072217 135 143 154
-0.210938 0.570312 -0.074563 95 105 113
-0.207031 0.570312 -0.076932 82 94 101
-0.203125 0.570312 -0.079330 105 117 124
-0.199219 0.570312 -0.081878 90 103 108
-0.195312 0.570312 -0.084598 100 112 121
-0.191406 0.570312 -0.087257 123 129 147
-0.187500 0.570312 -0.089933 123 128 147
-0.183594 0.570312 -0.092630 130 135 155
-0.179688 0.570312 -0.095353 145 150 170
-0.175781 0.570312 -0.098117 154 156 177
-0.171875 0.570312 -0.100986 145 148 167
-0.167969 0.570312 -0.103823 135 136 153
-0.164062 0.570312 -0.106604 129 131 146
-0.160156 0.570312 -0.109491 144 143 157
-0.156250 0.570312 -0.112309 138 138 149
-0.152344 0.570312 -0.115000 140 138 149
-0.148438 0.570312 -0.117557 138 137 145
-0.144531 0.570312 -0.120036 140 138 146
-0.140625 0.570312 -0.122389 133 130 137
-0.136719 0.570312 -0.124569 118 114 120
-0.132812 0.570312 -0.126660 126 124 129
-0.128906 0.570312 -0.128645 162 160 163
-0.125000 0.570312 -0.130524 136 136 136
-0.121094 0.570312 -0.132435 136 134 135
-0.117188 0.570312 -0.134372 129 127 128
-0.113281 0.570312 -0.136427 126 124 125
-0.109375 0.570312 -0.138466 136 134 135
-0.105469 0.570312 -0.140577 139 138 138
-0.101562 0.570312 -0.142544 150 148 149
-0.097656 0.570312 -0.144724 133 133 132
-0.093750 0.570312 -0.146805 134 135 132
-0.089844 0.570312 -0.148625 131 135 128
-0.085938 0.570312 -0.150539 121 130 117
-0.082031 0.570312 -0.152053 111 125 106
-0.078125 0.570312 -0.153537 103 123 95
-0.074219 0.570312 -0.154612 93 119 78
-0.070312 0.570312 -0.155587 93 122 69
-0.066406 0.570312 -0.156722 112 136 74
-0.062500 0.570312 -0.157112 131 145 83
-0.058594 0.570312 -0.157408 144 148 88
-0.054688 0.570312 -0.157880 156 151 96
-0.050781 0.570312 -0.157909 161 152 100
-0.046875 0.570312 -0.157445 164 154 100
-0.042969 0.570312 -0.157113 165 155 100
-0.039062 0.570312 -0.156877 160 152 98
-0.035156 0.570312 -0.156819 157 150 97
-0.031250 0.570312 -0.156963 151 144 93
-0.027344 0.570312 -0.157054 142 133 86
-0.023438 0.570312 -0.157344 136 125 82
-0.019531 0.570312 -0.157832 133 119 79
-0.015625 0.570312 -0.158105 131 115 75
-0.011719 0.570312 -0.158287 127 111 72
-0.007812 0.570312 -0.158374 121 102 64
-0.003906 0.570312 -0.157973 108 92 55
0.000000 0.570312 -0.157522 88 81 50
0.003906 0.570312 -0.156847 73 74 54
0.007812 0.570312 -0.155712 77 79 72
0.011719 0.570312 -0.154671 92 90 95
0.015625 0.570312 -0.153099 106 101 114
0.019531 0.570312 -0.151310 119 116 128
0.023438 0.570312 -0.149462 129 126 136
0.027344 0.570312 -0.146784 152 149 156
0.031250 0.570312 -0.144247 117 115 118
0.035156 0.570312 -0.141731 106 104 105
0.039062 0.570312 -0.139117 124 123 121
0.042969 0.570312 -0.137077 121 119 122
0.046875 0.570312 -0.135062 96 94 99
0.050781 0.570312 -0.132741 99 96 103
0.054688 0.570312 -0.130453 128 127 134
0.058594 0.570312 -0.128205 125 124 132
0.062500 0.570312 -0.125887 137 136 141
0.066406 0.570312 -0.123684 147 147 149
0.070312 0.570312 -0.121615 147 146 142
0.074219 0.570312 -0.119442 139 139 132
0.078125 0.570312 -0.117413 137 135 128
0.082031 0.570312 -0.115294 143 140 135
0.085938 0.570312 -0.113141 153 149 148
0.089844 0.570312 -0.111017 154 149 155
0.093750 0.570312 -0.108974 153 150 161
0.097656 0.570312 -0.106898 152 150 164
0.101562 0.570312 -0.104757 144 143 159
0.105469 0.570312 -0.102650 127 129 144
0.109375 0.570312 -0.100392 112 116 128
0.113281 0.570312 -0.098116 110 114 123
0.117188 0.570312 -0.095798 115 119 130
0.121094 0.570312 -0.093578 115 114 130
0.125000 0.570312 -0.091452 103 100 117
0.128906 0.570312 -0.089454 101 99 113
0.132812 0.570312 -0.087569 154 152 162
0.136719 0.570312 -0.085701 188 188 192
0.140625 0.570312 -0.083914 161 161 161
0.144531 0.570312 -0.082167 166 166 164
0.148438 0.570312 -0.080421 171 172 168
0.152344 0.570312 -0.078722 180 180 175
0.156250 0.570312 -0.076934 190 189 184
0.160156 0.570312 -0.075105 196 196 192
0.164062 0.570312 -0.073228 200 199 196
0.167969 0.570312 -0.071248 200 199 198
0.171875 0.570312 -0.069215 196 196 196
0.175781 0.570312 -0.067107 194 193 194
0.179688 0.570312 -0.064964 194 194 194
0.183594 0.570312 -0.062755 193 193 193
0.187500 0.570312 -0.060667 191 191 191
0.191406 0.570312 -0.058782 190 190 190
0.195312 0.570312 -0.057260 189 189 189
0.199219 0.570312 -0.055955 189 188 188
0.203125 0.570312 -0.054925 189 189 189
0.207031 0.570312 -0.054284 188 188 188
0.210938 0.570312 -0.053840 187 187 187
0.214844 0.570312 -0.053661 187 186 186
0.218750 0.570312 -0.053445 187 186 186
0.222656 0.570312 -0.053070 189 189 189
0.226562 0.570312 -0.052326 193 192 192
0.230469 0.570312 -0.051450 197 196 196
0.234375 0.570312 -0.050123 201 200 200
0.238281 0.570312 -0.048278 208 207 207
0.242188 0.570312 -0.045826 218 217 217
0.246094 0.570312 -0.042699 227 226 226
0.250000 0.570312 -0.039196 234 232 232
0.253906 0.570312 -0.035376 239 236 237
0.257812 0.570312 -0.030668 243 238 239
0.261719 0.570312 -0.022907 233 232 232
-0.343750 0.566406 0.021340 229 229 229
-0.339844 0.566406 0.013493 228 228 228
-0.335938 0.566406 0.008770 225 225 225
-0.332031 0.566406 0.004857 221 221 221
-0.328125 0.566406 0.001401 216 216 216
-0.324219 0.566406 -0.001489 212 212 211
-0.320312 0.566406 -0.004405 209 209 207
-0.316406 0.566406 -0.006954 209 209 205
-0.312500 0.566406 -0.009462 209 209 205
-0.308594 0.566406 -0.011547 209 209 205
-0.304688 0.566406 -0.013608 209 209 205
-0.300781 0.566406 -0.015763 210 210 205
-0.296875 0.566406 -0.018043 210 210 205
-0.292969 0.566406 -0.020429 210 210 203
-0.289062 0.566406 -0.022902 204 208 197
-0.285156 0.566406 -0.025476 197 204 193
-0.281250 0.566406 -0.028111 204 210 203
-0.277344 0.566406 -0.030889 234 235 235
-0.273438 0.566406 -0.033755 132 131 136
-0.269531 0.566406 -0.036623 111 110 118
-0.265625 0.566406 -0.039434 127 125 136
-0.261719 0.566406 -0.042266 151 149 160
-0.257812 0.566406 -0.045104 161 157 172
-0.253906 0.566406 -0.047878 154 145 166
-0.250000 0.566406 -0.050591 140 130 154
-0.246094 0.566406 -0.053303 125 115 139
-0.242188 0.566406 -0.056031 180 172 195
-0.238281 0.566406 -0.058701 148 143 165
-0.234375 0.566406 -0.061346 150 147 168
-0.230469 0.566406 -0.063834 145 142 162
-0.226562 0.566406 -0.066203 129 130 148
-0.222656 0.566406 -0.068649 136 137 155
-0.218750 0.566406 -0.071119 125 131 144
-0.214844 0.566406 -0.073560 137 145 155
-0.210938 0.566406 -0.076000 119 128 137
-0.207031 0.566406 -0.078465 78 90 97
-0.203125 0.566406 -0.080966 99 108 115
-0.199219 0.566406 -0.083610 119 131 135
-0.195312 0.566406 -0.086418 88 99 106
-0.191406 0.566406 -0.089160 110 118 134
-0.187500 0.566406 -0.091893 108 114 135
-0.183594 0.566406 -0.094612 111 116 137
-0.179688 0.566406 -0.097324 124 129 151
-0.175781 0.566406 -0.100052 144 146 168
-0.171875 0.566406 -0.102860 150 152 172
-0.167969 0.566406 -0.105622 144 145 164
-0.164062 0.566406 -0.108329 135 136 154
-0.160156 0.566406 -0.111130 134 133 150
-0.156250 0.566406 -0.113877 139 138 154
-0.152344 0.566406 -0.116491 147 145 157
-0.148438 0.566406 -0.118988 163 161 172
-0.144531 0.566406 -0.121407 162 159 168
-0.140625 0.566406 -0.123647 149 146 153
-0.136719 0.566406 -0.125808 142 137 144
-0.132812 0.566406 -0.127753 117 115 120
-0.128906 0.566406 -0.129602 147 145 148
-0.125000 0.566406 -0.131345 143 143 143
-0.121094 0.566406 -0.133073 148 148 148
-0.117188 0.566406 -0.134838 139 139 139
-0.113281 0.566406 -0.136725 144 142 143
-0.109375 0.566406 -0.138648 145 143 144
-0.105469 0.566406 -0.140633 130 128 129
-0.101562 0.566406 -0.142483 138 136 137
-0.097656 0.566406 -0.144486 148 146 149
-0.093750 0.566406 -0.146411 159 157 160
-0.089844 0.566406 -0.148146 165 161 164
-0.085938 0.566406 -0.149965 156 152 155
-0.082031 0.566406 -0.151502 142 139 141
-0.078125 0.566406 -0.153016 133 131 132
-0.074219 0.566406 -0.154091 128 129 127
-0.070312 0.566406 -0.155163 123 128 121
-0.066406 0.566406 -0.156251 112 125 106
-0.062500 0.566406 -0.156581 108 131 98
-0.058594 0.566406 -0.156880 93 123 77
-0.054688 0.566406 -0.157266 84 120 62
-0.050781 0.566406 -0.157408 86 125 59
-0.046875 0.566406 -0.156995 89 132 57
-0.042969 0.566406 -0.156718 95 138 58
-0.039062 0.566406 -0.156789 94 138 57
-0.035156 0.566406 -0.156731 91 132 55
-0.031250 0.566406 -0.156785 85 121 50
-0.027344 0.566406 -0.156846 80 109 47
-0.023438 0.566406 -0.156955 79 101 47
-0.019531 0.566406 -0.157273 82 99 49
-0.015625 0.566406 -0.157507 84 98 51
-0.011719 0.566406 -0.157958 86 98 56
-0.007812 0.566406 -0.158312 91 100 66
-0.003906 0.566406 -0.158038 89 95 69
0.000000 0.566406 -0.157640 97 100 84
0.003906 0.566406 -0.157132 114 114 110
0.007812 0.566406 -0.156121 139 136 139
0.011719 0.566406 -0.155169 154 148 159
0.015625 0.566406 -0.153748 149 143 156
0.019531 0.566406 -0.152104 131 125 139
0.023438 0.566406 -0.150484 118 112 123
0.027344 0.566406 -0.147715 145 142 149
0.031250 0.566406 -0.145183 138 136 139
0.035156 0.566406 -0.142826 131 129 130
0.039062 0.566406 -0.140093 127 126 124
0.042969 0.566406 -0.138034 127 126 128
0.046875 0.566406 -0.136088 133 131 136
0.050781 0.566406 -0.133778 139 138 144
0.054688 0.566406 -0.131507 144 143 151
0.058594 0.566406 -0.129291 135 135 145
0.062500 0.566406 -0.127019 147 148 153
0.066406 0.566406 -0.124835 159 160 162
0.070312 0.566406 -0.122768 164 164 162
0.074219 0.566406 -0.120622 160 161 156
0.078125 0.566406 -0.118572 154 154 146
0.082031 0.566406 -0.116477 151 150 145
0.085938 0.566406 -0.114343 149 148 146
0.089844 0.566406 -0.112242 137 134 141
0.093750 0.566406 -0.110232 141 139 152
0.097656 0.566406 -0.108213 146 143 160
0.101562 0.566406 -0.106156 142 141 159
0.105469 0.566406 -0.104133 132 133 151
0.109375 0.566406 -0.101939 127 130 145
0.113281 0.566406 -0.099721 132 139 149
0.117188 0.566406 -0.097428 144 148 160
0.121094 0.566406 -0.095235 146 145 163
0.125000 0.566406 -0.093128 123 120 139
0.128906 0.566406 -0.091106 105 102 119
0.132812 0.566406 -0.089179 102 100 111
0.136719 0.566406 -0.087251 207 206 211
0.140625 0.566406 -0.085405 168 168 168
0.144531 0.566406 -0.083607 154 154 152
0.148438 0.566406 -0.081808 156 157 153
0.152344 0.566406 -0.080038 168 168 163
0.156250 0.566406 -0.078178 181 181 176
0.160156 0.566406 -0.076260 190 190 187
0.164062 0.566406 -0.074260 197 197 194
0.167969 0.566406 -0.072142 199 198 197
0.171875 0.566406 -0.069988 196 196 196
0.175781 0.566406 -0.067748 194 193 194
0.179688 0.566406 -0.065475 194 194 194
0.183594 0.566406 -0.063145 193 193 193
0.187500 0.566406 -0.060958 192 192 192
0.191406 0.566406 -0.059042 192 191 191
0.195312 0.566406 -0.057547 191 191 191
0.199219 0.566406 -0.056332 191 191 191
0.203125 0.566406 -0.055420 192 192 192
0.207031 0.566406 -0.054913 192 191 191
0.210938 0.566406 -0.054602 191 190 190
0.214844 0.566406 -0.054499 190 190 190
0.218750 0.566406 -0.054322 191 190 190
0.222656 0.566406 -0.053966 193 192 192
0.226562 0.566406 -0.053274 196 195 195
0.230469 0.566406 -0.052381 198 197 197
0.234375 0.566406 -0.051164 200 198 199
0.238281 0.566406 -0.049524 204 202 203
0.242188 0.566406 -0.047518 211 210 210
0.246094 0.566406 -0.045120 220 218 218
0.250000 0.566406 -0.042136 228 226 226
0.253906 0.566406 -0.038888 233 231 232
0.257812 0.566406 -0.035051 237 235 235
0.261719 0.566406 -0.031179 239 236 237
0.265625 0.566406 -0.026276 233 232 232
-0.347656 0.562500 0.019438 231 231 231
-0.343750 0.562500 0.013008 232 232 232
-0.339844 0.562500 0.008475 223 223 223
-0.335938 0.562500 0.005225 222 222 222
-0.332031 0.562500 0.001758 220 220 220
-0.328125 0.562500 -0.001812 217 217 216
-0.324219 0.562500 -0.004495 213 213 213
-0.320312 0.562500 -0.006916 212 212 210
-0.316406 0.562500 -0.009193 211 211 208
-0.312500 0.562500 -0.011420 211 211 208
-0.308594 0.562500 -0.013359 210 210 207
-0.304688 0.562500 -0.015270 210 211 207
-0.300781 0.562500 -0.017327 212 212 208
-0.296875 0.562500 -0.019542 212 212 208
-0.292969 0.562500 -0.021863 211 211 205
-0.289062 0.562500 -0.024298 205 208 199
-0.285156 0.562500 -0.026826 199 206 196
-0.281250 0.562500 -0.029389 201 206 200
-0.277344 0.562500 -0.032088 230 231 232
-0.273438 0.562500 -0.034880 131 130 135
-0.269531 0.562500 -0.037647 116 115 121
-0.265625 0.562500 -0.040358 128 127 135
-0.261719 0.562500 -0.043117 135 134 142
-0.257812 0.562500 -0.045911 127 123 137
-0.253906 0.562500 -0.048657 164 155 176
-0.250000 0.562500 -0.051363 152 142 166
-0.246094 0.562500 -0.054079 131 121 145
-0.242188 0.562500 -0.056813 174 166 189
-0.238281 0.562500 -0.059517 121 116 138
-0.234375 0.562500 -0.062205 123 118 138
-0.230469 0.562500 -0.064752 137 134 153
-0.226562 0.562500 -0.067187 142 141 157
-0.222656 0.562500 -0.069711 123 125 138
-0.218750 0.562500 -0.072271 121 125 137
-0.214844 0.562500 -0.074804 136 143 153
-0.210938 0.562500 -0.077342 145 153 162
-0.207031 0.562500 -0.079908 76 84 92
-0.203125 0.562500 -0.082523 82 89 93
-0.199219 0.562500 -0.085270 124 130 134
-0.195312 0.562500 -0.088160 88 95 102
-0.191406 0.562500 -0.090976 121 128 144
-0.187500 0.562500 -0.093757 114 120 141
-0.183594 0.562500 -0.096491 102 107 129
-0.179688 0.562500 -0.099190 106 111 133
-0.175781 0.562500 -0.101889 127 132 154
-0.171875 0.562500 -0.104653 148 150 171
-0.167969 0.562500 -0.107348 150 153 172
-0.164062 0.562500 -0.109981 144 145 163
-0.160156 0.562500 -0.112704 144 145 163
-0.156250 0.562500 -0.115385 145 144 160
-0.152344 0.562500 -0.117916 135 133 146
-0.148438 0.562500 -0.120332 152 150 161
-0.144531 0.562500 -0.122696 152 149 158
-0.140625 0.562500 -0.124841 155 151 157
-0.136719 0.562500 -0.126900 174 169 175
-0.132812 0.562500 -0.128800 145 140 144
-0.128906 0.562500 -0.130456 134 133 129
-0.125000 0.562500 -0.132084 139 140 134
-0.121094 0.562500 -0.133664 135 136 131
-0.117188 0.562500 -0.135271 117 117 115
-0.113281 0.562500 -0.136986 129 127 128
-0.109375 0.562500 -0.138754 139 137 140
-0.105469 0.562500 -0.140580 130 128 131
-0.101562 0.562500 -0.142279 148 146 151
-0.097656 0.562500 -0.144119 137 134 141
-0.093750 0.562500 -0.145903 151 149 154
-0.089844 0.562500 -0.147537 157 155 160
-0.085938 0.562500 -0.149258 140 138 141
-0.082031 0.562500 -0.150805 118 116 117
-0.078125 0.562500 -0.152272 114 113 111
-0.074219 0.562500 -0.153306 127 127 124
-0.070312 0.562500 -0.154421 141 142 137
-0.066406 0.562500 -0.155472 132 131 127
-0.062500 0.562500 -0.155813 133 133 126
-0.058594 0.562500 -0.156222 118 121 109
-0.054688 0.562500 -0.156581 110 115 99
-0.050781 0.562500 -0.156791 108 120 97
-0.046875 0.562500 -0.156584 91 108 80
-0.042969 0.562500 -0.156443 75 101 65
-0.039062 0.562500 -0.156635 73 105 64
-0.035156 0.562500 -0.156542 70 102 63
-0.031250 0.562500 -0.156616 75 101 69
-0.027344 0.562500 -0.156625 78 99 73
-0.023438 0.562500 -0.156482 91 108 86
-0.019531 0.562500 -0.156725 108 123 104
-0.015625 0.562500 -0.156798 108 118 104
-0.011719 0.562500 -0.157104 101 108 98
-0.007812 0.562500 -0.157759 115 118 110
-0.003906 0.562500 -0.157933 123 122 114
0.000000 0.562500 -0.157852 124 121 115
0.003906 0.562500 -0.157685 129 124 123
0.007812 0.562500 -0.156785 138 133 137
0.011719 0.562500 -0.155846 146 141 147
0.015625 0.562500 -0.154638 148 142 152
0.019531 0.562500 -0.153115 151 145 155
0.023438 0.562500 -0.151559 155 149 159
0.027344 0.562500 -0.148777 141 136 143
0.031250 0.562500 -0.146264 138 136 141
0.035156 0.562500 -0.143974 132 130 133
0.039062 0.562500 -0.141152 125 123 126
0.042969 0.562500 -0.139033 121 119 124
0.046875 0.562500 -0.137143 126 123 130
0.050781 0.562500 -0.134864 132 131 139
0.054688 0.562500 -0.132618 137 136 143
0.058594 0.562500 -0.130447 150 150 158
0.062500 0.562500 -0.128183 149 150 155
0.066406 0.562500 -0.126024 146 147 149
0.070312 0.562500 -0.123984 143 143 141
0.074219 0.562500 -0.121874 144 145 139
0.078125 0.562500 -0.119865 146 146 138
0.082031 0.562500 -0.117785 146 145 140
0.085938 0.562500 -0.115646 143 142 138
0.089844 0.562500 -0.113562 124 122 125
0.093750 0.562500 -0.111572 144 143 149
0.097656 0.562500 -0.109599 147 145 156
0.101562 0.562500 -0.107608 125 125 137
0.105469 0.562500 -0.105656 115 117 129
0.109375 0.562500 -0.103526 129 133 144
0.113281 0.562500 -0.101370 133 140 148
0.117188 0.562500 -0.099116 126 133 143
0.121094 0.562500 -0.096964 113 116 131
0.125000 0.562500 -0.094889 124 126 141
0.128906 0.562500 -0.092859 109 111 124
0.132812 0.562500 -0.090899 92 94 106
0.136719 0.562500 -0.088923 203 203 210
0.140625 0.562500 -0.087016 172 173 175
0.144531 0.562500 -0.085143 138 138 138
0.148438 0.562500 -0.083277 142 141 139
0.152344 0.562500 -0.081430 155 154 151
0.156250 0.562500 -0.079481 171 171 166
0.160156 0.562500 -0.077444 184 184 179
0.164062 0.562500 -0.075291 193 193 189
0.167969 0.562500 -0.073014 196 196 194
0.171875 0.562500 -0.070700 195 194 194
0.175781 0.562500 -0.068274 194 193 194
0.179688 0.562500 -0.065824 194 193 194
0.183594 0.562500 -0.063322 194 193 193
0.187500 0.562500 -0.060972 193 193 193
0.191406 0.562500 -0.058994 193 193 193
0.195312 0.562500 -0.057503 193 193 193
0.199219 0.562500 -0.056367 194 193 193
0.203125 0.562500 -0.055578 195 194 194
0.207031 0.562500 -0.055209 194 194 194
0.210938 0.562500 -0.055031 194 193 193
0.214844 0.562500 -0.055023 194 193 193
0.218750 0.562500 -0.054913 194 194 194
0.222656 0.562500 -0.054590 197 196 196
0.226562 0.562500 -0.053965 200 198 199
0.230469 0.562500 -0.053098 201 200 200
0.234375 0.562500 -0.052004 202 201 201
0.238281 0.562500 -0.050488 204 202 203
0.242188 0.562500 -0.048544 208 206 206
0.246094 0.562500 -0.046515 213 212 212
0.250000 0.562500 -0.044158 220 219 219
0.253906 0.562500 -0.041387 226 225 225
0.257812 0.562500 -0.038023 230 229 229
0.261719 0.562500 -0.034367 233 231 232
0.265625 0.562500 -0.030405 237 234 234
0.269531 0.562500 -0.025946 227 227 227
0.273438 0.562500 -0.017595 227 226 226
-0.351562 0.558594 0.018623 233 233 233
-0.347656 0.558594 0.012049 232 230 230
-0.343750 0.558594 0.008311 229 229 229
-0.339844 0.558594 0.004829 226 226 226
-0.335938 0.558594 0.001447 224 224 224
-0.332031 0.558594 -0.001521 221 221 221
-0.328125 0.558594 -0.004504 219 219 219
-0.324219 0.558594 -0.006621 216 216 216
-0.320312 0.558594 -0.008652 215 215 215
-0.316406 0.558594 -0.010662 214 214 212
-0.312500 0.558594 -0.012616 213 213 212
-0.308594 0.558594 -0.014543 213 213 211
-0.304688 0.558594 -0.016434 213 213 211
-0.300781 0.558594 -0.018519 214 214 212
-0.296875 0.558594 -0.020757 214 214 211
-0.292969 0.558594 -0.023063 211 212 208
-0.289062 0.558594 -0.025499 205 208 201
-0.285156 0.558594 -0.027940 199 204 197
-0.281250 0.558594 -0.030403 197 201 196
-0.277344 0.558594 -0.032991 225 225 224
-0.273438 0.558594 -0.035672 158 158 160
-0.269531 0.558594 -0.038341 104 104 106
-0.265625 0.558594 -0.040957 121 121 123
-0.261719 0.558594 -0.043657 121 121 123
-0.257812 0.558594 -0.046436 134 131 140
-0.253906 0.558594 -0.049166 130 123 141
-0.250000 0.558594 -0.051872 168 160 183
-0.246094 0.558594 -0.054613 151 143 166
-0.242188 0.558594 -0.057379 132 124 145
-0.238281 0.558594 -0.060138 154 150 165
-0.234375 0.558594 -0.062884 146 142 156
-0.230469 0.558594 -0.065519 122 119 130
-0.226562 0.558594 -0.068047 139 138 146
-0.222656 0.558594 -0.070677 133 132 138
-0.218750 0.558594 -0.073349 122 123 128
-0.214844 0.558594 -0.075990 123 124 129
-0.210938 0.558594 -0.078648 120 123 130
-0.207031 0.558594 -0.081313 101 103 109
-0.203125 0.558594 -0.084016 71 73 78
-0.199219 0.558594 -0.086844 97 98 101
-0.195312 0.558594 -0.089810 78 80 87
-0.191406 0.558594 -0.092671 123 128 144
-0.187500 0.558594 -0.095469 123 128 149
-0.183594 0.558594 -0.098223 111 116 135
-0.179688 0.558594 -0.100921 112 117 137
-0.175781 0.558594 -0.103602 125 130 149
-0.171875 0.558594 -0.106317 136 141 159
-0.167969 0.558594 -0.108950 142 147 166
-0.164062 0.558594 -0.111520 146 149 166
-0.160156 0.558594 -0.114166 138 141 156
-0.156250 0.558594 -0.116809 140 142 154
-0.152344 0.558594 -0.119263 136 136 146
-0.148438 0.558594 -0.121612 138 135 144
-0.144531 0.558594 -0.123929 147 143 148
-0.140625 0.558594 -0.125993 146 140 144
-0.136719 0.558594 -0.127958 148 139 144
-0.132812 0.558594 -0.129820 159 152 150
-0.128906 0.558594 -0.131357 147 145 132
-0.125000 0.558594 -0.132881 149 150 134
-0.121094 0.558594 -0.134316 146 146 134
-0.117188 0.558594 -0.135744 146 145 140
-0.113281 0.558594 -0.137268 134 132 133
-0.109375 0.558594 -0.138846 157 155 160
-0.105469 0.558594 -0.140464 137 136 144
-0.101562 0.558594 -0.142013 142 140 151
-0.097656 0.558594 -0.143711 134 132 145
-0.093750 0.558594 -0.145395 138 136 147
-0.089844 0.558594 -0.146916 152 151 157
-0.085938 0.558594 -0.148485 154 154 156
-0.082031 0.558594 -0.149991 133 133 131
-0.078125 0.558594 -0.151382 123 124 116
-0.074219 0.558594 -0.152365 133 137 124
-0.070312 0.558594 -0.153444 144 148 134
-0.066406 0.558594 -0.154433 133 134 128
-0.062500 0.558594 -0.154939 143 144 139
-0.058594 0.558594 -0.155542 143 144 139
-0.054688 0.558594 -0.155736 135 137 131
-0.050781 0.558594 -0.155967 141 142 139
-0.046875 0.558594 -0.156041 153 154 148
-0.042969 0.558594 -0.156003 143 145 138
-0.039062 0.558594 -0.156286 121 125 112
-0.035156 0.558594 -0.156288 116 119 106
-0.031250 0.558594 -0.156421 122 124 109
-0.027344 0.558594 -0.156274 126 128 113
-0.023438 0.558594 -0.155920 128 128 116
-0.019531 0.558594 -0.156303 131 130 123
-0.015625 0.558594 -0.156448 132 130 126
-0.011719 0.558594 -0.156702 129 123 123
-0.007812 0.558594 -0.157354 123 117 117
-0.003906 0.558594 -0.157575 133 126 123
0.000000 0.558594 -0.157804 136 129 125
0.003906 0.558594 -0.157980 136 128 126
0.007812 0.558594 -0.157129 130 125 125
0.011719 0.558594 -0.156205 128 123 125
0.015625 0.558594 -0.155171 134 128 132
0.019531 0.558594 -0.153663 146 140 144
0.023438 0.558594 -0.152118 156 151 157
0.027344 0.558594 -0.149323 126 121 127
0.031250 0.558594 -0.146759 137 132 138
0.035156 0.558594 -0.144678 135 130 137
0.039062 0.558594 -0.142053 133 128 135
0.042969 0.558594 -0.140049 146 143 152
0.046875 0.558594 -0.138286 157 154 163
0.050781 0.558594 -0.136033 156 153 164
0.054688 0.558594 -0.133793 155 153 164
0.058594 0.558594 -0.131636 145 144 150
0.062500 0.558594 -0.129381 152 151 156
0.066406 0.558594 -0.127268 157 157 159
0.070312 0.558594 -0.125250 152 151 149
0.074219 0.558594 -0.123161 137 136 131
0.078125 0.558594 -0.121189 127 124 117
0.082031 0.558594 -0.119128 125 122 113
0.085938 0.558594 -0.117000 128 125 116
0.089844 0.558594 -0.114901 137 134 127
0.093750 0.558594 -0.112922 133 130 125
0.097656 0.558594 -0.110994 135 134 132
0.101562 0.558594 -0.109069 129 129 129
0.105469 0.558594 -0.107188 125 125 127
0.109375 0.558594 -0.105121 146 147 151
0.113281 0.558594 -0.103029 151 155 158
0.117188 0.558594 -0.100833 120 128 131
0.121094 0.558594 -0.098738 111 122 128
0.125000 0.558594 -0.096708 95 105 114
0.128906 0.558594 -0.094674 104 114 124
0.132812 0.558594 -0.092673 108 116 127
0.136719 0.558594 -0.090673 121 125 137
0.140625 0.558594 -0.088725 191 193 194
0.144531 0.558594 -0.086759 135 134 138
0.148438 0.558594 -0.084791 128 127 130
0.152344 0.558594 -0.082841 144 143 142
0.156250 0.558594 -0.080776 163 162 159
0.160156 0.558594 -0.078565 179 179 174
0.164062 0.558594 -0.076211 191 191 185
0.167969 0.558594 -0.073726 194 194 191
0.171875 0.558594 -0.071168 193 193 193
0.175781 0.558594 -0.068481 192 193 193
0.179688 0.558594 -0.065800 192 192 192
0.183594 0.558594 -0.063037 193 192 192
0.187500 0.558594 -0.060472 193 192 192
0.191406 0.558594 -0.058405 193 193 193
0.195312 0.558594 -0.056923 193 193 193
0.199219 0.558594 -0.055928 194 194 194
0.203125 0.558594 -0.055338 195 195 195
0.207031 0.558594 -0.055163 195 195 195
0.210938 0.558594 -0.055147 194 194 194
0.214844 0.558594 -0.055270 194 194 194
0.218750 0.558594 -0.055255 195 194 194
0.222656 0.558594 -0.055017 197 196 196
0.226562 0.558594 -0.054487 200 199 199
0.230469 0.558594 -0.053690 202 200 200
0.234375 0.558594 -0.052692 202 201 201
0.238281 0.558594 -0.051262 204 202 202
0.242188 0.558594 -0.049480 206 204 205
0.246094 0.558594 -0.047636 210 208 209
0.250000 0.558594 -0.045657 216 214 215
0.253906 0.558594 -0.043493 222 221 221
0.257812 0.558594 -0.040681 228 227 227
0.261719 0.558594 -0.037562 233 232 232
0.265625 0.558594 -0.033955 239 238 238
0.269531 0.558594 -0.029787 245 244 244
0.273438 0.558594 -0.026298 209 209 209
0.277344 0.558594 -0.020753 204 202 202
-0.355469 0.554688 0.020906 236 236 236
-0.351562 0.554688 0.012696 229 229 229
-0.347656 0.554688 0.008757 228 228 228
-0.343750 0.554688 0.005285 229 229 229
-0.339844 0.554688 0.001868 228 228 228
-0.335938 0.554688 -0.001357 225 225 225
-0.332031 0.554688 -0.004017 223 223 223
-0.328125 0.554688 -0.006506 221 221 221
-0.324219 0.554688 -0.008279 219 219 219
-0.320312 0.554688 -0.009969 218 218 218
-0.316406 0.554688 -0.011715 217 217 217
-0.312500 0.554688 -0.013494 217 217 217
-0.308594 0.554688 -0.015388 216 216 216
-0.304688 0.554688 -0.017288 216 216 216
-0.300781 0.554688 -0.019421 217 217 216
-0.296875 0.554688 -0.021726 216 216 215
-0.292969 0.554688 -0.024057 214 214 212
-0.289062 0.554688 -0.026485 208 210 206
-0.285156 0.554688 -0.028860 202 206 200
-0.281250 0.554688 -0.031223 198 201 197
-0.277344 0.554688 -0.033691 223 224 223
-0.273438 0.554688 -0.036266 167 167 167
-0.269531 0.554688 -0.038837 117 117 117
-0.265625 0.554688 -0.041371 138 138 138
-0.261719 0.554688 -0.044018 134 134 134
-0.257812 0.554688 -0.046776 134 133 138
-0.253906 0.554688 -0.049499 132 125 141
-0.250000 0.554688 -0.052219 164 156 177
-0.246094 0.554688 -0.054987 155 148 166
-0.242188 0.554688 -0.057797 137 130 146
-0.238281 0.554688 -0.060617 147 144 155
-0.234375 0.554688 -0.063432 138 135 142
-0.230469 0.554688 -0.066171 123 120 127
-0.226562 0.554688 -0.068806 137 135 140
-0.222656 0.554688 -0.071560 129 129 131
-0.218750 0.554688 -0.074369 126 126 126
-0.214844 0.554688 -0.077137 122 122 124
-0.210938 0.554688 -0.079911 115 114 119
-0.207031 0.554688 -0.082680 101 102 106
-0.203125 0.554688 -0.085471 74 74 77
-0.199219 0.554688 -0.088370 86 85 88
-0.195312 0.554688 -0.091381 82 83 89
-0.191406 0.554688 -0.094262 116 118 134
-0.187500 0.554688 -0.097073 129 134 155
-0.183594 0.554688 -0.099847 122 127 147
-0.179688 0.554688 -0.102558 120 127 146
-0.175781 0.554688 -0.105236 132 139 156
-0.171875 0.554688 -0.107922 133 140 158
-0.167969 0.554688 -0.110514 128 134 150
-0.164062 0.554688 -0.113043 129 135 149
-0.160156 0.554688 -0.115599 143 146 161
-0.156250 0.554688 -0.118168 127 131 142
-0.152344 0.554688 -0.120554 123 123 133
-0.148438 0.554688 -0.122808 142 141 147
-0.144531 0.554688 -0.125059 152 147 153
-0.140625 0.554688 -0.127040 138 132 136
