ply
    format ascii 1.0
    element vertex 69828
    property float x
    property float y
    property float z
    property uchar red
    property uchar green
    property uchar blue
    end_header
-0.148438 -0.835938 0.044950 177 119 104
-0.144531 -0.835938 0.036869 174 129 112
-0.140625 -0.835938 0.019243 133 103 91
-0.250000 -0.839844 0.010465 72 32 36
-0.246094 -0.839844 0.019951 184 112 102
-0.242188 -0.839844 0.026018 225 189 155
-0.238281 -0.839844 0.029131 211 168 129
-0.234375 -0.839844 0.032606 189 132 93
-0.230469 -0.839844 0.036764 184 128 91
-0.226562 -0.839844 0.040547 183 126 100
-0.222656 -0.839844 0.044273 180 122 102
-0.218750 -0.839844 0.047627 181 124 103
-0.214844 -0.839844 0.050051 179 121 100
-0.210938 -0.839844 0.051748 181 121 98
-0.207031 -0.839844 0.052965 179 117 92
-0.203125 -0.839844 0.054168 175 111 87
-0.199219 -0.839844 0.055603 170 106 84
-0.195312 -0.839844 0.057457 159 95 77
-0.191406 -0.839844 0.059368 161 95 78
-0.187500 -0.839844 0.061191 171 103 85
-0.183594 -0.839844 0.062173 180 111 93
-0.179688 -0.839844 0.062005 187 119 99
-0.175781 -0.839844 0.061332 182 115 94
-0.171875 -0.839844 0.060432 178 112 93
-0.167969 -0.839844 0.059135 183 119 100
-0.164062 -0.839844 0.057039 188 125 105
-0.160156 -0.839844 0.054623 188 126 105
-0.156250 -0.839844 0.051679 181 119 98
-0.152344 -0.839844 0.047989 180 116 101
-0.148438 -0.839844 0.041613 173 121 107
-0.144531 -0.839844 0.030908 131 106 88
-0.140625 -0.839844 0.006013 103 98 87
-0.257812 -0.843750 0.011818 44 26 26
-0.253906 -0.843750 0.018196 72 35 32
-0.250000 -0.843750 0.022522 158 88 72
-0.246094 -0.843750 0.026554 206 141 111
-0.242188 -0.843750 0.029920 211 156 125
-0.238281 -0.843750 0.033538 195 140 112
-0.234375 -0.843750 0.036366 179 121 94
-0.230469 -0.843750 0.039363 185 130 101
-0.226562 -0.843750 0.042742 184 128 106
-0.222656 -0.843750 0.045827 176 120 102
-0.218750 -0.843750 0.048837 179 124 103
-0.214844 -0.843750 0.051147 181 123 102
-0.210938 -0.843750 0.052686 181 119 97
-0.207031 -0.843750 0.053935 175 112 89
-0.203125 -0.843750 0.055212 169 104 82
-0.199219 -0.843750 0.056750 164 100 80
-0.195312 -0.843750 0.058575 158 93 76
-0.191406 -0.843750 0.060318 167 100 83
-0.187500 -0.843750 0.061908 179 110 91
-0.183594 -0.843750 0.062598 183 113 95
-0.179688 -0.843750 0.062131 184 116 97
-0.175781 -0.843750 0.061339 180 113 96
-0.171875 -0.843750 0.060271 182 118 99
-0.167969 -0.843750 0.058993 186 124 105
-0.164062 -0.843750 0.056894 188 126 106
-0.160156 -0.843750 0.053840 181 120 99
-0.156250 -0.843750 0.050595 175 116 97
-0.152344 -0.843750 0.045481 182 125 108
-0.148438 -0.843750 0.035999 159 113 98
-0.144531 -0.843750 0.016609 162 136 116
-0.261719 -0.847656 0.012054 210 187 175
-0.257812 -0.847656 0.022862 182 138 114
-0.253906 -0.847656 0.027648 158 94 81
-0.250000 -0.847656 0.029847 198 138 110
-0.246094 -0.847656 0.032148 195 138 102
-0.242188 -0.847656 0.034646 192 135 101
-0.238281 -0.847656 0.037219 197 142 114
-0.234375 -0.847656 0.039447 188 130 108
-0.230469 -0.847656 0.041908 186 130 108
-0.226562 -0.847656 0.044704 178 122 104
-0.222656 -0.847656 0.047379 172 118 100
-0.218750 -0.847656 0.049985 184 129 108
-0.214844 -0.847656 0.052054 187 130 108
-0.210938 -0.847656 0.053591 182 120 98
-0.207031 -0.847656 0.054958 174 111 89
-0.203125 -0.847656 0.056413 170 107 86
-0.199219 -0.847656 0.058022 173 109 89
-0.195312 -0.847656 0.059749 175 110 91
-0.191406 -0.847656 0.061293 182 115 95
-0.187500 -0.847656 0.062593 186 117 97
-0.183594 -0.847656 0.063014 185 116 98
-0.179688 -0.847656 0.062325 185 119 101
-0.175781 -0.847656 0.061409 187 122 106
-0.171875 -0.847656 0.060268 190 129 112
-0.167969 -0.847656 0.058846 186 126 110
-0.164062 -0.847656 0.055934 181 120 103
-0.160156 -0.847656 0.052758 178 115 101
-0.156250 -0.847656 0.048455 188 130 116
-0.152344 -0.847656 0.040934 185 135 116
-0.148438 -0.847656 0.023886 116 84 73
-0.261719 -0.851562 0.023595 241 230 212
-0.257812 -0.851562 0.029437 228 199 176
-0.253906 -0.851562 0.032311 209 165 144
-0.250000 -0.851562 0.034476 212 167 146
-0.246094 -0.851562 0.036666 188 134 114
-0.242188 -0.851562 0.038367 183 127 106
-0.238281 -0.851562 0.039908 192 138 118
-0.234375 -0.851562 0.041924 185 129 110
-0.230469 -0.851562 0.044037 179 124 105
-0.226562 -0.851562 0.046406 172 118 100
-0.222656 -0.851562 0.048854 175 121 103
-0.218750 -0.851562 0.051131 188 134 113
-0.214844 -0.851562 0.053048 189 132 110
-0.210938 -0.851562 0.054563 180 119 97
-0.207031 -0.851562 0.056001 174 112 90
-0.203125 -0.851562 0.057613 177 115 93
-0.199219 -0.851562 0.059244 186 123 102
-0.195312 -0.851562 0.060820 190 125 105
-0.191406 -0.851562 0.062128 188 121 102
-0.187500 -0.851562 0.063156 186 117 98
-0.183594 -0.851562 0.063407 187 119 102
-0.179688 -0.851562 0.062598 186 122 106
-0.175781 -0.851562 0.061534 189 128 114
-0.171875 -0.851562 0.060317 190 131 116
-0.167969 -0.851562 0.058400 178 118 105
-0.164062 -0.851562 0.055102 176 117 100
-0.160156 -0.851562 0.050999 184 119 107
-0.156250 -0.851562 0.044484 182 116 114
-0.152344 -0.851562 0.031575 139 90 87
-0.265625 -0.855469 0.025176 224 216 188
-0.261719 -0.855469 0.032382 213 195 165
-0.257812 -0.855469 0.034495 193 155 132
-0.253906 -0.855469 0.036882 199 156 131
-0.250000 -0.855469 0.038733 201 154 129
-0.246094 -0.855469 0.040291 181 127 108
-0.242188 -0.855469 0.041664 182 128 111
-0.238281 -0.855469 0.042920 186 134 116
-0.234375 -0.855469 0.044340 177 123 105
-0.230469 -0.855469 0.045956 172 118 100
-0.226562 -0.855469 0.047996 173 120 102
-0.222656 -0.855469 0.050234 180 127 108
-0.218750 -0.855469 0.052324 189 136 114
-0.214844 -0.855469 0.054122 189 133 111
-0.210938 -0.855469 0.055606 179 118 97
-0.207031 -0.855469 0.057033 173 110 90
-0.203125 -0.855469 0.058661 176 114 94
-0.199219 -0.855469 0.060251 186 123 103
-0.195312 -0.855469 0.061649 189 125 106
-0.191406 -0.855469 0.062736 183 115 98
-0.187500 -0.855469 0.063576 180 110 94
-0.183594 -0.855469 0.063739 187 121 105
-0.179688 -0.855469 0.062868 188 126 111
-0.175781 -0.855469 0.061700 193 137 122
-0.171875 -0.855469 0.060261 189 133 118
-0.167969 -0.855469 0.057828 176 117 107
-0.164062 -0.855469 0.054488 186 128 115
-0.160156 -0.855469 0.049416 174 110 102
-0.156250 -0.855469 0.039371 133 79 82
-0.152344 -0.855469 0.011040 86 58 61
-0.269531 -0.859375 0.023752 232 227 202
-0.265625 -0.859375 0.032628 184 166 135
-0.261719 -0.859375 0.036263 165 129 112
-0.257812 -0.859375 0.038814 191 144 131
-0.253906 -0.859375 0.041314 200 153 134
-0.250000 -0.859375 0.042628 191 141 122
-0.246094 -0.859375 0.043497 181 129 114
-0.242188 -0.859375 0.044642 184 133 117
-0.238281 -0.859375 0.045664 181 128 112
-0.234375 -0.859375 0.046698 169 114 97
-0.230469 -0.859375 0.048049 167 112 94
-0.226562 -0.859375 0.049794 176 122 103
-0.222656 -0.859375 0.051776 183 130 109
-0.218750 -0.859375 0.053662 189 136 113
-0.214844 -0.859375 0.055300 192 136 113
-0.210938 -0.859375 0.056715 185 124 102
-0.207031 -0.859375 0.058085 177 114 93
-0.203125 -0.859375 0.059646 178 115 94
-0.199219 -0.859375 0.061100 184 120 101
-0.195312 -0.859375 0.062284 188 121 104
-0.191406 -0.859375 0.063181 182 113 98
-0.187500 -0.859375 0.063896 179 111 97
-0.183594 -0.859375 0.063999 187 123 108
-0.179688 -0.859375 0.063088 189 129 116
-0.175781 -0.859375 0.061899 201 147 133
-0.171875 -0.859375 0.060399 191 135 123
-0.167969 -0.859375 0.058303 185 131 121
-0.164062 -0.859375 0.053571 202 154 143
-0.160156 -0.859375 0.045385 141 93 89
-0.156250 -0.859375 0.029059 113 84 77
-0.269531 -0.863281 0.029407 142 138 114
-0.265625 -0.863281 0.037143 99 70 58
-0.261719 -0.863281 0.040686 177 117 102
-0.257812 -0.863281 0.043318 204 152 135
-0.253906 -0.863281 0.044916 193 141 125
-0.250000 -0.863281 0.045843 187 135 121
-0.246094 -0.863281 0.046551 186 135 120
-0.242188 -0.863281 0.047265 183 132 115
-0.238281 -0.863281 0.047929 179 126 107
-0.234375 -0.863281 0.048770 171 115 96
-0.230469 -0.863281 0.049934 170 113 93
-0.226562 -0.863281 0.051510 177 121 101
-0.222656 -0.863281 0.053274 181 125 104
-0.218750 -0.863281 0.054992 186 129 107
-0.214844 -0.863281 0.056520 189 130 108
-0.210938 -0.863281 0.057866 179 118 96
-0.207031 -0.863281 0.059174 174 111 90
-0.203125 -0.863281 0.060625 177 112 93
-0.199219 -0.863281 0.061883 177 111 95
-0.195312 -0.863281 0.062802 177 109 94
-0.191406 -0.863281 0.063468 176 106 92
-0.187500 -0.863281 0.064006 179 110 96
-0.183594 -0.863281 0.064001 183 119 106
-0.179688 -0.863281 0.063083 185 126 114
-0.175781 -0.863281 0.062003 204 151 138
-0.171875 -0.863281 0.060189 196 143 130
-0.167969 -0.863281 0.058796 202 153 136
-0.164062 -0.863281 0.052281 212 167 152
-0.160156 -0.863281 0.038259 104 63 65
-0.273438 -0.867188 0.026693 146 111 108
-0.269531 -0.867188 0.037281 139 101 98
-0.265625 -0.867188 0.042391 152 97 90
-0.261719 -0.867188 0.045643 197 133 121
-0.257812 -0.867188 0.047098 194 135 121
-0.253906 -0.867188 0.047720 184 130 116
-0.250000 -0.867188 0.048673 187 136 121
-0.246094 -0.867188 0.049346 183 132 116
-0.242188 -0.867188 0.049747 180 128 111
-0.238281 -0.867188 0.050243 182 128 108
-0.234375 -0.867188 0.050922 175 117 96
-0.230469 -0.867188 0.051933 171 111 92
-0.226562 -0.867188 0.053334 174 115 95
-0.222656 -0.867188 0.054885 174 115 96
-0.218750 -0.867188 0.056497 176 117 97
-0.214844 -0.867188 0.057919 178 117 97
-0.210938 -0.867188 0.059149 171 110 90
-0.207031 -0.867188 0.060337 172 110 91
-0.203125 -0.867188 0.061598 178 114 96
-0.199219 -0.867188 0.062616 175 109 94
-0.195312 -0.867188 0.063293 171 104 90
-0.191406 -0.867188 0.063747 172 102 90
-0.187500 -0.867188 0.064072 178 110 95
-0.183594 -0.867188 0.063923 182 118 104
-0.179688 -0.867188 0.062927 183 124 110
-0.175781 -0.867188 0.061821 196 142 129
-0.171875 -0.867188 0.059733 197 147 132
-0.167969 -0.867188 0.057647 202 149 133
-0.164062 -0.867188 0.049352 163 96 94
-0.160156 -0.867188 0.032086 54 26 33
-0.273438 -0.871094 0.034381 88 53 53
-0.269531 -0.871094 0.042264 166 119 106
-0.265625 -0.871094 0.046896 182 133 120
-0.261719 -0.871094 0.049297 175 118 107
-0.257812 -0.871094 0.049883 177 117 104
-0.253906 -0.871094 0.050596 188 132 117
-0.250000 -0.871094 0.051419 189 137 120
-0.246094 -0.871094 0.051783 178 126 109
-0.242188 -0.871094 0.052045 183 129 111
-0.238281 -0.871094 0.052436 185 130 109
-0.234375 -0.871094 0.053069 176 119 98
-0.230469 -0.871094 0.054052 177 118 98
-0.226562 -0.871094 0.055309 181 122 100
-0.222656 -0.871094 0.056727 178 120 99
-0.218750 -0.871094 0.058270 177 120 100
-0.214844 -0.871094 0.059521 179 121 100
-0.210938 -0.871094 0.060542 179 119 99
-0.207031 -0.871094 0.061532 180 118 99
-0.203125 -0.871094 0.062538 180 117 99
-0.199219 -0.871094 0.063281 178 114 98
-0.195312 -0.871094 0.063731 177 109 96
-0.191406 -0.871094 0.063965 175 105 93
-0.187500 -0.871094 0.063961 176 107 94
-0.183594 -0.871094 0.063568 181 114 102
-0.179688 -0.871094 0.062376 181 119 106
-0.175781 -0.871094 0.060945 181 121 112
-0.171875 -0.871094 0.059094 191 136 126
-0.167969 -0.871094 0.055963 191 138 126
-0.164062 -0.871094 0.046350 109 69 69
-0.160156 -0.871094 0.029640 61 40 42
-0.273438 -0.875000 0.039603 55 34 36
-0.269531 -0.875000 0.046324 155 110 100
-0.265625 -0.875000 0.050875 173 121 107
-0.261719 -0.875000 0.052447 151 92 82
-0.257812 -0.875000 0.052870 161 100 88
-0.253906 -0.875000 0.053663 179 120 105
-0.250000 -0.875000 0.054182 183 128 112
-0.246094 -0.875000 0.054323 179 124 108
-0.242188 -0.875000 0.054503 183 127 109
-0.238281 -0.875000 0.054828 181 123 103
-0.234375 -0.875000 0.055437 179 122 100
-0.230469 -0.875000 0.056409 185 129 106
-0.226562 -0.875000 0.057585 184 127 105
-0.222656 -0.875000 0.058864 183 127 107
-0.218750 -0.875000 0.060238 185 130 110
-0.214844 -0.875000 0.061274 184 127 108
-0.210938 -0.875000 0.062036 180 120 101
-0.207031 -0.875000 0.062741 177 113 97
-0.203125 -0.875000 0.063487 176 112 97
-0.199219 -0.875000 0.063978 179 114 99
-0.195312 -0.875000 0.064150 182 115 100
-0.191406 -0.875000 0.064076 179 110 95
-0.187500 -0.875000 0.063697 172 101 89
-0.183594 -0.875000 0.063006 177 109 97
-0.179688 -0.875000 0.061662 180 116 102
-0.175781 -0.875000 0.060198 178 120 108
-0.171875 -0.875000 0.057911 195 147 135
-0.167969 -0.875000 0.052973 190 146 137
-0.164062 -0.875000 0.042804 170 140 134
-0.160156 -0.875000 0.023087 158 137 122
-0.277344 -0.878906 0.034316 143 118 110
-0.273438 -0.878906 0.042728 55 34 37
-0.269531 -0.878906 0.050244 163 116 106
-0.265625 -0.878906 0.054994 170 110 98
-0.261719 -0.878906 0.056224 153 86 76
-0.257812 -0.878906 0.056172 171 106 91
-0.253906 -0.878906 0.056460 182 122 104
-0.250000 -0.878906 0.056811 188 131 113
-0.246094 -0.878906 0.056890 190 134 116
-0.242188 -0.878906 0.057003 185 128 108
-0.238281 -0.878906 0.057293 176 117 97
-0.234375 -0.878906 0.057965 183 126 103
-0.230469 -0.878906 0.059048 189 134 111
-0.226562 -0.878906 0.060149 187 131 110
-0.222656 -0.878906 0.061134 185 131 111
-0.218750 -0.878906 0.062201 182 128 109
-0.214844 -0.878906 0.063049 174 119 102
-0.210938 -0.878906 0.063625 168 109 94
-0.207031 -0.878906 0.064040 172 109 94
-0.203125 -0.878906 0.064464 179 115 100
-0.199219 -0.878906 0.064646 183 118 103
-0.195312 -0.878906 0.064484 184 118 102
-0.191406 -0.878906 0.064082 184 115 99
-0.187500 -0.878906 0.063376 172 100 87
-0.183594 -0.878906 0.062344 177 106 93
-0.179688 -0.878906 0.060835 172 106 92
-0.175781 -0.878906 0.059396 173 116 102
-0.171875 -0.878906 0.056070 198 151 140
-0.167969 -0.878906 0.049236 144 93 98
-0.164062 -0.878906 0.039117 144 103 113
-0.277344 -0.882812 0.036625 93 69 75
-0.273438 -0.882812 0.045810 39 24 28
-0.269531 -0.882812 0.053911 152 105 93
-0.265625 -0.882812 0.058706 149 93 83
-0.261719 -0.882812 0.059899 135 75 66
-0.257812 -0.882812 0.059514 162 97 83
-0.253906 -0.882812 0.059280 180 117 99
-0.250000 -0.882812 0.059518 188 129 110
-0.246094 -0.882812 0.059524 190 133 113
-0.242188 -0.882812 0.059631 183 125 104
-0.238281 -0.882812 0.060009 174 114 94
-0.234375 -0.882812 0.060898 184 125 103
-0.230469 -0.882812 0.062110 194 138 117
-0.226562 -0.882812 0.063027 193 139 120
-0.222656 -0.882812 0.063668 183 128 110
-0.218750 -0.882812 0.064457 171 116 100
-0.214844 -0.882812 0.065123 170 113 99
-0.210938 -0.882812 0.065504 176 116 101
-0.207031 -0.882812 0.065587 183 120 104
-0.203125 -0.882812 0.065562 186 121 104
-0.199219 -0.882812 0.065310 183 117 102
-0.195312 -0.882812 0.064804 181 113 99
-0.191406 -0.882812 0.064167 182 113 98
-0.187500 -0.882812 0.063086 171 100 88
-0.183594 -0.882812 0.061825 173 103 90
-0.179688 -0.882812 0.059959 166 99 88
-0.175781 -0.882812 0.057415 185 126 117
-0.171875 -0.882812 0.053132 214 167 152
-0.167969 -0.882812 0.045613 133 75 73
-0.164062 -0.882812 0.035021 112 70 72
-0.277344 -0.886719 0.035560 131 113 101
-0.273438 -0.886719 0.051797 35 23 28
-0.269531 -0.886719 0.056794 140 94 91
-0.265625 -0.886719 0.061615 161 106 101
-0.261719 -0.886719 0.063848 141 85 78
-0.257812 -0.886719 0.063205 149 88 78
-0.253906 -0.886719 0.062500 173 107 93
-0.250000 -0.886719 0.062516 185 122 105
-0.246094 -0.886719 0.062267 184 123 104
-0.242188 -0.886719 0.062374 180 118 99
-0.238281 -0.886719 0.062937 175 112 93
-0.234375 -0.886719 0.063998 185 125 103
-0.230469 -0.886719 0.065120 198 143 121
-0.226562 -0.886719 0.065659 191 135 117
-0.222656 -0.886719 0.065999 165 109 93
-0.218750 -0.886719 0.066706 162 103 91
-0.214844 -0.886719 0.067250 182 120 107
-0.210938 -0.886719 0.067341 191 128 112
-0.207031 -0.886719 0.067045 186 122 105
-0.203125 -0.886719 0.066623 180 113 98
-0.199219 -0.886719 0.066041 178 112 98
-0.195312 -0.886719 0.065244 182 116 103
-0.191406 -0.886719 0.064350 186 120 105
-0.187500 -0.886719 0.063020 180 111 100
-0.183594 -0.886719 0.061283 179 110 97
-0.179688 -0.886719 0.058590 172 105 94
-0.175781 -0.886719 0.055294 178 126 115
-0.171875 -0.886719 0.049721 158 113 99
-0.167969 -0.886719 0.041389 80 44 45
-0.164062 -0.886719 0.028820 103 57 62
-0.273438 -0.890625 0.052710 37 27 33
-0.269531 -0.890625 0.058502 114 75 80
-0.265625 -0.890625 0.064108 187 140 133
-0.261719 -0.890625 0.066968 187 136 120
-0.257812 -0.890625 0.066491 170 108 94
-0.253906 -0.890625 0.065650 179 111 97
-0.250000 -0.890625 0.065518 184 117 101
-0.246094 -0.890625 0.065102 181 116 99
-0.242188 -0.890625 0.065217 180 114 95
-0.238281 -0.890625 0.065924 180 115 96
-0.234375 -0.890625 0.066933 192 133 111
-0.230469 -0.890625 0.067680 197 140 120
-0.226562 -0.890625 0.067745 174 114 101
-0.222656 -0.890625 0.067839 150 91 81
-0.218750 -0.890625 0.068493 166 101 89
-0.214844 -0.890625 0.068817 189 121 107
-0.210938 -0.890625 0.068588 192 125 109
-0.207031 -0.890625 0.068085 184 117 102
-0.203125 -0.890625 0.067476 179 111 98
-0.199219 -0.890625 0.066744 183 117 104
-0.195312 -0.890625 0.065759 190 129 115
-0.191406 -0.890625 0.064753 194 133 118
-0.187500 -0.890625 0.063106 189 126 112
-0.183594 -0.890625 0.060468 185 119 104
-0.179688 -0.890625 0.057038 173 111 98
-0.175781 -0.890625 0.052888 163 120 103
-0.171875 -0.890625 0.046753 111 90 80
-0.167969 -0.890625 0.037310 79 59 72
-0.164062 -0.890625 0.019765 117 74 99
-0.269531 -0.894531 0.055331 76 44 51
-0.265625 -0.894531 0.064961 169 121 115
-0.261719 -0.894531 0.068215 184 133 120
-0.257812 -0.894531 0.069031 154 93 83
-0.253906 -0.894531 0.068407 161 94 83
-0.250000 -0.894531 0.068094 170 103 89
-0.246094 -0.894531 0.067716 175 108 91
-0.242188 -0.894531 0.067976 174 108 89
-0.238281 -0.894531 0.068752 185 120 100
-0.234375 -0.894531 0.069453 194 133 113
-0.230469 -0.894531 0.069626 174 112 97
-0.226562 -0.894531 0.069356 148 86 79
-0.222656 -0.894531 0.069369 157 90 83
-0.218750 -0.894531 0.069874 175 103 92
-0.214844 -0.894531 0.069885 180 107 93
-0.210938 -0.894531 0.069514 182 110 95
-0.207031 -0.894531 0.069091 185 115 101
-0.203125 -0.894531 0.068426 185 116 103
-0.199219 -0.894531 0.067533 189 123 110
-0.195312 -0.894531 0.066458 193 133 119
-0.191406 -0.894531 0.065098 193 136 123
-0.187500 -0.894531 0.062601 183 125 113
-0.183594 -0.894531 0.059697 180 121 108
-0.179688 -0.894531 0.054960 170 117 105
-0.175781 -0.894531 0.047693 169 131 116
-0.171875 -0.894531 0.040048 186 159 145
-0.167969 -0.894531 0.020221 179 161 167
-0.269531 -0.898438 0.061111 24 13 20
-0.265625 -0.898438 0.064739 130 82 87
-0.261719 -0.898438 0.069487 169 116 111
-0.257812 -0.898438 0.071462 141 84 78
-0.253906 -0.898438 0.070931 161 96 85
-0.250000 -0.898438 0.070343 173 106 90
-0.246094 -0.898438 0.069993 179 112 92
-0.242188 -0.898438 0.070307 178 113 93
-0.238281 -0.898438 0.070729 192 127 109
-0.234375 -0.898438 0.070740 183 116 102
-0.230469 -0.898438 0.070470 143 82 75
-0.226562 -0.898438 0.070175 140 80 72
-0.222656 -0.898438 0.070173 173 103 91
-0.218750 -0.898438 0.070524 180 104 92
-0.214844 -0.898438 0.070467 168 91 81
-0.210938 -0.898438 0.070220 171 95 85
-0.207031 -0.898438 0.069958 184 111 101
-0.203125 -0.898438 0.069275 183 113 102
-0.199219 -0.898438 0.068439 181 114 102
-0.195312 -0.898438 0.067278 189 130 115
-0.191406 -0.898438 0.065190 196 143 128
-0.187500 -0.898438 0.062022 186 134 124
-0.183594 -0.898438 0.058415 180 121 113
-0.179688 -0.898438 0.052292 153 96 91
-0.175781 -0.898438 0.041672 101 70 66
-0.171875 -0.898438 0.027230 71 51 57
-0.265625 -0.902344 0.066138 178 134 131
-0.261719 -0.902344 0.071157 209 165 155
-0.257812 -0.902344 0.073417 174 116 105
-0.253906 -0.902344 0.072746 176 112 101
-0.250000 -0.902344 0.072139 170 101 88
-0.246094 -0.902344 0.071912 181 110 94
-0.242188 -0.902344 0.072348 192 123 105
-0.238281 -0.902344 0.072478 188 121 105
-0.234375 -0.902344 0.072128 149 85 77
-0.230469 -0.902344 0.071811 127 70 67
-0.226562 -0.902344 0.071617 138 76 73
-0.222656 -0.902344 0.071442 157 86 81
-0.218750 -0.902344 0.071438 163 85 78
-0.214844 -0.902344 0.071305 157 77 71
-0.210938 -0.902344 0.071030 171 91 84
-0.207031 -0.902344 0.070679 194 120 109
-0.203125 -0.902344 0.070142 191 119 108
-0.199219 -0.902344 0.069294 174 104 94
-0.195312 -0.902344 0.067408 175 112 100
-0.191406 -0.902344 0.064853 190 135 123
-0.187500 -0.902344 0.060938 190 141 130
-0.183594 -0.902344 0.055836 159 105 99
-0.179688 -0.902344 0.048272 110 64 61
-0.175781 -0.902344 0.031886 91 68 59
-0.265625 -0.906250 0.070438 127 90 86
-0.261719 -0.906250 0.071930 194 145 137
-0.257812 -0.906250 0.074721 168 108 103
-0.253906 -0.906250 0.074478 165 103 96
-0.250000 -0.906250 0.073752 140 77 70
-0.246094 -0.906250 0.073231 164 92 81
-0.242188 -0.906250 0.073885 188 115 102
-0.238281 -0.906250 0.074114 164 96 85
-0.234375 -0.906250 0.074194 123 70 65
-0.230469 -0.906250 0.074240 139 85 82
-0.226562 -0.906250 0.073982 142 84 85
-0.222656 -0.906250 0.073528 129 70 72
-0.218750 -0.906250 0.073076 139 71 70
-0.214844 -0.906250 0.072583 143 70 67
-0.210938 -0.906250 0.071877 156 78 74
-0.207031 -0.906250 0.071337 184 104 96
-0.203125 -0.906250 0.070969 186 109 101
-0.199219 -0.906250 0.069782 168 96 88
-0.195312 -0.906250 0.067063 171 109 97
-0.191406 -0.906250 0.063991 192 137 127
-0.187500 -0.906250 0.058966 180 128 123
-0.183594 -0.906250 0.051509 105 73 72
-0.179688 -0.906250 0.038816 63 46 45
-0.265625 -0.910156 0.071836 88 58 63
-0.261719 -0.910156 0.072334 146 99 98
-0.257812 -0.910156 0.075324 147 90 90
-0.253906 -0.910156 0.076652 174 114 112
-0.250000 -0.910156 0.076063 148 88 86
-0.246094 -0.910156 0.074888 152 86 80
-0.242188 -0.910156 0.075174 160 90 82
-0.238281 -0.910156 0.075420 142 80 75
-0.234375 -0.910156 0.076144 148 95 94
-0.230469 -0.910156 0.076659 189 143 139
-0.226562 -0.910156 0.076314 189 145 141
-0.222656 -0.910156 0.075720 169 122 120
-0.218750 -0.910156 0.075053 167 112 111
-0.214844 -0.910156 0.074149 159 95 93
-0.210938 -0.910156 0.072883 143 73 73
-0.207031 -0.910156 0.071895 152 76 74
-0.203125 -0.910156 0.070800 165 88 84
-0.199219 -0.910156 0.068906 169 95 90
-0.195312 -0.910156 0.066624 187 127 113
-0.191406 -0.910156 0.063658 189 139 127
-0.187500 -0.910156 0.055479 133 94 93
-0.183594 -0.910156 0.043086 92 72 72
-0.265625 -0.914062 0.071867 236 219 215
-0.261719 -0.914062 0.073880 186 147 146
-0.257812 -0.914062 0.076771 161 104 105
-0.253906 -0.914062 0.077752 194 135 133
-0.250000 -0.914062 0.077291 192 133 130
-0.246094 -0.914062 0.076501 170 106 101
-0.242188 -0.914062 0.076284 142 77 74
-0.238281 -0.914062 0.076435 144 83 82
-0.234375 -0.914062 0.077724 180 127 126
-0.230469 -0.914062 0.078253 205 164 162
-0.226562 -0.914062 0.077936 204 168 164
-0.222656 -0.914062 0.077490 199 163 160
-0.218750 -0.914062 0.076804 200 160 157
-0.214844 -0.914062 0.075820 188 136 132
-0.210938 -0.914062 0.074215 158 91 89
-0.207031 -0.914062 0.072644 146 73 72
-0.203125 -0.914062 0.070546 157 81 80
-0.199219 -0.914062 0.068717 175 99 99
-0.195312 -0.914062 0.066439 186 122 113
-0.191406 -0.914062 0.060130 139 96 89
-0.187500 -0.914062 0.047309 59 48 53
-0.265625 -0.917969 0.069299 99 52 71
-0.261719 -0.917969 0.074062 119 79 82
-0.257812 -0.917969 0.077551 134 80 80
-0.253906 -0.917969 0.078872 156 92 90
-0.250000 -0.917969 0.078503 185 121 118
-0.246094 -0.917969 0.076888 167 103 100
-0.242188 -0.917969 0.076763 130 70 70
-0.238281 -0.917969 0.077560 158 95 93
-0.234375 -0.917969 0.079002 190 134 129
-0.230469 -0.917969 0.079061 191 139 136
-0.226562 -0.917969 0.078507 188 140 138
-0.222656 -0.917969 0.078085 193 151 148
-0.218750 -0.917969 0.077583 203 165 160
-0.214844 -0.917969 0.076840 196 151 145
-0.210938 -0.917969 0.074885 168 108 105
-0.207031 -0.917969 0.072298 149 80 82
-0.203125 -0.917969 0.070841 163 92 92
-0.199219 -0.917969 0.070303 191 126 122
-0.195312 -0.917969 0.063736 182 125 112
-0.191406 -0.917969 0.052506 157 116 102
-0.187500 -0.917969 0.039096 115 92 96
-0.261719 -0.921875 0.069961 189 154 142
-0.257812 -0.921875 0.075889 209 168 152
-0.253906 -0.921875 0.076165 166 100 97
-0.250000 -0.921875 0.076100 167 98 100
-0.246094 -0.921875 0.075606 137 79 79
-0.242188 -0.921875 0.076894 96 53 54
-0.238281 -0.921875 0.078013 141 82 81
-0.234375 -0.921875 0.078910 177 111 108
-0.230469 -0.921875 0.078977 178 110 108
-0.226562 -0.921875 0.078282 180 119 115
-0.222656 -0.921875 0.078063 186 133 129
-0.218750 -0.921875 0.077960 191 142 139
-0.214844 -0.921875 0.077032 184 132 131
-0.210938 -0.921875 0.074960 169 109 109
-0.207031 -0.921875 0.072756 158 92 95
-0.203125 -0.921875 0.071046 179 116 110
-0.199219 -0.921875 0.066969 186 135 117
-0.195312 -0.921875 0.056860 124 85 77
-0.191406 -0.921875 0.044073 156 114 115
-0.257812 -0.925781 0.070402 212 163 146
-0.253906 -0.925781 0.070989 160 87 82
-0.250000 -0.925781 0.069242 143 73 77
-0.246094 -0.925781 0.071331 131 79 77
-0.242188 -0.925781 0.073778 107 71 69
-0.238281 -0.925781 0.076331 137 87 84
-0.234375 -0.925781 0.078150 156 89 86
-0.230469 -0.925781 0.079272 165 89 86
-0.226562 -0.925781 0.078792 176 100 96
-0.222656 -0.925781 0.078603 183 114 110
-0.218750 -0.925781 0.077644 182 120 118
-0.214844 -0.925781 0.076182 171 109 109
-0.210938 -0.925781 0.075242 172 110 108
-0.207031 -0.925781 0.074712 177 114 114
-0.203125 -0.925781 0.067625 173 115 107
-0.199219 -0.925781 0.058026 135 93 75
-0.195312 -0.925781 0.046204 81 59 55
-0.253906 -0.929688 0.037707 28 12 19
-0.250000 -0.929688 0.065095 31 14 21
-0.246094 -0.929688 0.067401 60 33 37
-0.242188 -0.929688 0.069807 110 75 73
-0.238281 -0.929688 0.073743 154 105 97
-0.234375 -0.929688 0.077688 143 81 77
-0.230469 -0.929688 0.079408 151 78 76
-0.226562 -0.929688 0.078425 166 87 83
-0.222656 -0.929688 0.077837 171 95 92
-0.218750 -0.929688 0.077454 174 105 105
-0.214844 -0.929688 0.076382 175 110 112
-0.210938 -0.929688 0.073909 192 134 127
-0.207031 -0.929688 0.070548 177 126 118
-0.203125 -0.929688 0.060734 114 78 77
-0.199219 -0.929688 0.049819 93 59 62
-0.242188 -0.933594 0.065432 66 45 46
-0.238281 -0.933594 0.071408 144 97 93
-0.234375 -0.933594 0.073386 158 98 96
-0.230469 -0.933594 0.076661 171 100 100
-0.226562 -0.933594 0.077915 168 94 92
-0.222656 -0.933594 0.078094 161 89 90
-0.218750 -0.933594 0.075823 170 103 106
-0.214844 -0.933594 0.073178 179 116 117
-0.210938 -0.933594 0.066615 172 115 106
-0.207031 -0.933594 0.062451 116 84 77
-0.203125 -0.933594 0.051061 82 66 72
-0.238281 -0.937500 0.067826 53 36 41
-0.234375 -0.937500 0.070832 84 51 52
-0.230469 -0.937500 0.071751 126 69 69
-0.226562 -0.937500 0.073845 160 91 95
-0.222656 -0.937500 0.073120 171 99 109
-0.218750 -0.937500 0.069625 143 76 85
-0.214844 -0.937500 0.070607 94 49 53
-0.210938 -0.937500 0.061979 56 33 35
-0.234375 -0.941406 0.065724 18 13 16
-0.230469 -0.941406 0.069777 25 11 15
-0.226562 -0.941406 0.068489 80 27 40
-0.222656 -0.941406 0.067063 143 62 87
-0.218750 -0.941406 0.062554 68 29 41
0.000000 0.957031 -0.059923 106 87 75
0.003906 0.957031 -0.060618 84 68 58
0.007812 0.957031 -0.063445 73 59 51
0.011719 0.957031 -0.058115 96 76 63
0.015625 0.957031 -0.047733 115 91 74
0.019531 0.957031 -0.040604 120 94 78
0.023438 0.957031 -0.036418 120 93 82
0.027344 0.957031 -0.034691 110 94 87
0.031250 0.957031 -0.033517 102 96 90
0.035156 0.957031 -0.032730 102 93 87
0.039062 0.957031 -0.031102 105 92 83
0.042969 0.957031 -0.027445 104 89 78
0.046875 0.957031 -0.021975 107 94 81
0.050781 0.957031 -0.012242 98 85 79
-0.019531 0.953125 -0.052436 101 85 78
-0.015625 0.953125 -0.056891 104 89 82
-0.011719 0.953125 -0.061022 123 106 97
-0.007812 0.953125 -0.064036 123 104 96
-0.003906 0.953125 -0.065943 100 83 77
0.000000 0.953125 -0.067529 91 75 67
0.003906 0.953125 -0.067965 74 63 47
0.007812 0.953125 -0.068166 70 57 43
0.011719 0.953125 -0.067123 42 33 26
0.015625 0.953125 -0.065100 30 19 16
0.019531 0.953125 -0.062108 35 15 13
0.023438 0.953125 -0.057667 93 44 35
0.027344 0.953125 -0.053336 99 69 55
0.031250 0.953125 -0.048841 31 27 27
0.035156 0.953125 -0.044962 27 22 24
0.039062 0.953125 -0.041447 33 24 23
0.042969 0.953125 -0.037657 37 26 22
0.046875 0.953125 -0.033789 41 33 28
0.050781 0.953125 -0.030677 85 79 74
0.054688 0.953125 -0.026084 106 92 84
-0.027344 0.949219 -0.051080 101 81 67
-0.023438 0.949219 -0.055263 95 83 75
-0.019531 0.949219 -0.061635 79 69 66
-0.015625 0.949219 -0.065403 23 18 21
-0.011719 0.949219 -0.067980 27 22 22
-0.007812 0.949219 -0.070518 28 23 21
-0.003906 0.949219 -0.072625 32 25 23
0.000000 0.949219 -0.074381 62 48 42
0.003906 0.949219 -0.075566 87 72 58
0.007812 0.949219 -0.075767 69 59 45
0.011719 0.949219 -0.074928 68 58 43
0.015625 0.949219 -0.073493 74 57 43
0.019531 0.949219 -0.070859 66 41 35
0.023438 0.949219 -0.067388 73 43 41
0.027344 0.949219 -0.063474 66 50 51
0.031250 0.949219 -0.058661 61 57 59
0.035156 0.949219 -0.054182 100 91 86
0.039062 0.949219 -0.049947 107 95 83
0.042969 0.949219 -0.045818 97 84 69
0.046875 0.949219 -0.041875 105 90 73
0.050781 0.949219 -0.038357 68 59 53
0.054688 0.949219 -0.035130 46 41 42
0.058594 0.949219 -0.031084 115 102 94
0.062500 0.949219 -0.023258 137 121 110
-0.031250 0.945312 -0.053405 102 87 77
-0.027344 0.945312 -0.058203 117 105 93
-0.023438 0.945312 -0.062454 102 71 57
-0.019531 0.945312 -0.066819 106 83 74
-0.015625 0.945312 -0.070213 112 90 81
-0.011719 0.945312 -0.073350 115 97 84
-0.007812 0.945312 -0.076096 114 97 85
-0.003906 0.945312 -0.078257 109 92 81
0.000000 0.945312 -0.079865 106 87 75
0.003906 0.945312 -0.080752 84 68 58
0.007812 0.945312 -0.081070 73 59 51
0.011719 0.945312 -0.080737 96 76 63
0.015625 0.945312 -0.079618 115 91 74
0.019531 0.945312 -0.077535 120 94 78
0.023438 0.945312 -0.074571 120 93 82
0.027344 0.945312 -0.070775 110 94 87
0.031250 0.945312 -0.066305 102 96 90
0.035156 0.945312 -0.061899 102 93 87
0.039062 0.945312 -0.057640 105 92 83
0.042969 0.945312 -0.053599 104 89 78
0.046875 0.945312 -0.049650 107 94 81
0.050781 0.945312 -0.046217 98 85 79
0.054688 0.945312 -0.042909 103 83 81
0.058594 0.945312 -0.039056 112 99 94
0.062500 0.945312 -0.035054 76 76 77
0.066406 0.945312 -0.031725 148 134 118
0.070312 0.945312 -0.023978 141 129 115
-0.035156 0.941406 -0.051856 100 85 79
-0.031250 0.941406 -0.059323 112 95 90
-0.027344 0.941406 -0.063591 102 67 53
-0.023438 0.941406 -0.067660 92 73 64
-0.019531 0.941406 -0.071296 101 85 78
-0.015625 0.941406 -0.074900 104 89 82
-0.011719 0.941406 -0.078148 123 106 97
-0.007812 0.941406 -0.080822 123 104 96
-0.003906 0.941406 -0.083168 100 83 77
0.000000 0.941406 -0.085002 91 75 67
0.003906 0.941406 -0.086008 89 74 64
0.007812 0.941406 -0.086589 106 90 77
0.011719 0.941406 -0.086479 110 93 80
0.015625 0.941406 -0.085544 83 68 60
0.019531 0.941406 -0.083768 85 70 62
0.023438 0.941406 -0.081051 102 87 75
0.027344 0.941406 -0.077455 113 104 87
0.031250 0.941406 -0.073346 93 90 79
0.035156 0.941406 -0.069146 63 58 56
0.039062 0.941406 -0.064878 83 73 68
0.042969 0.941406 -0.060923 90 79 72
0.046875 0.941406 -0.057044 71 67 61
0.050781 0.941406 -0.053354 85 79 74
0.054688 0.941406 -0.050028 106 92 84
0.058594 0.941406 -0.046713 130 114 102
0.062500 0.941406 -0.043209 102 91 88
0.066406 0.941406 -0.040395 73 64 63
0.070312 0.941406 -0.037930 105 87 82
0.074219 0.941406 -0.033454 147 127 113
-0.039062 0.937500 -0.045564 75 67 64
-0.035156 0.937500 -0.056174 72 64 62
-0.031250 0.937500 -0.062345 97 70 55
-0.027344 0.937500 -0.066869 101 81 67
-0.023438 0.937500 -0.071509 95 83 75
-0.019531 0.937500 -0.075558 79 69 66
-0.015625 0.937500 -0.079308 76 64 63
-0.011719 0.937500 -0.082407 91 77 73
-0.007812 0.937500 -0.084956 71 59 57
-0.003906 0.937500 -0.087331 56 46 44
0.000000 0.937500 -0.089286 64 54 49
0.003906 0.937500 -0.090462 81 69 60
0.007812 0.937500 -0.091077 121 106 89
0.011719 0.937500 -0.090944 93 83 72
0.015625 0.937500 -0.090055 47 41 38
0.019531 0.937500 -0.088357 59 50 47
0.023438 0.937500 -0.085902 68 60 56
0.027344 0.937500 -0.082693 83 80 69
0.031250 0.937500 -0.079016 101 97 84
0.035156 0.937500 -0.075119 78 71 64
0.039062 0.937500 -0.070936 97 85 74
0.042969 0.937500 -0.066987 96 84 75
0.046875 0.937500 -0.063268 80 73 68
0.050781 0.937500 -0.059682 117 107 99
0.054688 0.937500 -0.056365 111 100 95
0.058594 0.937500 -0.053236 115 102 94
0.062500 0.937500 -0.049939 137 121 110
0.066406 0.937500 -0.046674 117 104 93
0.070312 0.937500 -0.042833 115 103 93
0.074219 0.937500 -0.039568 92 75 72
0.078125 0.937500 -0.035938 93 80 70
0.082031 0.937500 -0.028176 111 95 73
-0.042969 0.933594 -0.023553 95 85 75
-0.039062 0.933594 -0.051609 89 80 75
-0.035156 0.933594 -0.059771 94 80 73
-0.031250 0.933594 -0.065095 102 87 77
-0.027344 0.933594 -0.070038 117 105 93
-0.023438 0.933594 -0.074720 110 101 91
-0.019531 0.933594 -0.078994 75 67 64
-0.015625 0.933594 -0.083065 73 63 59
-0.011719 0.933594 -0.086362 89 76 70
-0.007812 0.933594 -0.089098 59 50 48
-0.003906 0.933594 -0.091435 49 42 39
0.000000 0.933594 -0.093305 47 39 36
0.003906 0.933594 -0.094540 47 36 34
0.007812 0.933594 -0.095201 96 77 69
0.011719 0.933594 -0.095083 91 76 70
0.015625 0.933594 -0.094288 65 56 50
0.019531 0.933594 -0.092698 103 88 76
0.023438 0.933594 -0.090275 97 86 77
0.027344 0.933594 -0.087302 102 99 85
0.031250 0.933594 -0.084016 119 113 97
0.035156 0.933594 -0.080400 61 55 50
0.039062 0.933594 -0.076424 45 38 35
0.042969 0.933594 -0.072544 48 41 39
0.046875 0.933594 -0.068945 61 54 52
0.050781 0.933594 -0.065560 118 104 96
0.054688 0.933594 -0.062250 117 104 98
0.058594 0.933594 -0.059064 117 107 97
0.062500 0.933594 -0.055795 156 142 126
0.066406 0.933594 -0.052370 148 134 118
0.070312 0.933594 -0.048670 141 129 115
0.074219 0.933594 -0.045342 114 98 91
0.078125 0.933594 -0.041257 79 61 54
0.082031 0.933594 -0.037294 114 98 78
0.085938 0.933594 -0.033311 105 86 63
-0.042969 0.929688 -0.047913 103 96 80
-0.039062 0.929688 -0.056574 96 84 76
-0.035156 0.929688 -0.062897 100 85 79
-0.031250 0.929688 -0.068250 112 95 90
-0.027344 0.929688 -0.072769 127 110 101
-0.023438 0.929688 -0.077348 119 102 95
-0.019531 0.929688 -0.081719 66 55 55
-0.015625 0.929688 -0.085825 57 48 47
-0.011719 0.929688 -0.089333 72 60 56
-0.007812 0.929688 -0.092267 58 49 45
-0.003906 0.929688 -0.094669 64 57 48
0.000000 0.929688 -0.096513 51 44 37
0.003906 0.929688 -0.097811 33 27 23
0.007812 0.929688 -0.098577 61 50 41
0.011719 0.929688 -0.098522 61 52 46
0.015625 0.929688 -0.097789 46 41 37
0.019531 0.929688 -0.096303 56 50 43
0.023438 0.929688 -0.094048 49 43 38
0.027344 0.929688 -0.091299 83 73 59
0.031250 0.929688 -0.088250 104 91 72
0.035156 0.929688 -0.084802 41 34 31
0.039062 0.929688 -0.080956 32 28 25
0.042969 0.929688 -0.077240 52 46 40
0.046875 0.929688 -0.073793 65 59 54
0.050781 0.929688 -0.070435 92 82 73
0.054688 0.929688 -0.067039 91 80 72
0.058594 0.929688 -0.063740 90 81 71
0.062500 0.929688 -0.060372 108 96 82
0.066406 0.929688 -0.056903 104 91 79
0.070312 0.929688 -0.053288 135 118 103
0.074219 0.929688 -0.049853 147 127 113
0.078125 0.929688 -0.045798 105 86 77
0.082031 0.929688 -0.041632 126 101 80
0.085938 0.929688 -0.038241 148 119 95
0.089844 0.929688 -0.033536 118 94 83
-0.046875 0.925781 -0.037735 114 97 86
-0.042969 0.925781 -0.052685 102 91 88
-0.039062 0.925781 -0.060253 75 67 64
-0.035156 0.925781 -0.066546 72 64 62
-0.031250 0.925781 -0.071554 68 57 58
-0.027344 0.925781 -0.075932 82 65 62
-0.023438 0.925781 -0.080595 91 70 66
-0.019531 0.925781 -0.085012 54 41 42
-0.015625 0.925781 -0.089164 48 37 38
-0.011719 0.925781 -0.092647 51 38 38
-0.007812 0.925781 -0.095550 43 33 31
-0.003906 0.925781 -0.098008 78 66 54
0.000000 0.925781 -0.099936 90 81 63
0.003906 0.925781 -0.101173 55 51 38
0.007812 0.925781 -0.101835 49 44 33
0.011719 0.925781 -0.101859 43 36 32
0.015625 0.925781 -0.101157 48 42 38
0.019531 0.925781 -0.099776 48 44 40
0.023438 0.925781 -0.097786 30 25 23
0.027344 0.925781 -0.095216 42 32 26
0.031250 0.925781 -0.092371 43 31 24
0.035156 0.925781 -0.089101 23 17 14
0.039062 0.925781 -0.085312 40 33 27
0.042969 0.925781 -0.081684 81 73 61
0.046875 0.925781 -0.078277 79 71 63
0.050781 0.925781 -0.074852 70 60 55
0.054688 0.925781 -0.071345 84 71 63
0.058594 0.925781 -0.067947 106 93 77
0.062500 0.925781 -0.064515 115 103 85
0.066406 0.925781 -0.061081 106 94 80
0.070312 0.925781 -0.057525 121 106 91
0.074219 0.925781 -0.053958 130 111 98
0.078125 0.925781 -0.049954 93 80 70
0.082031 0.925781 -0.046502 111 95 73
0.085938 0.925781 -0.041764 94 74 51
0.089844 0.925781 -0.037936 98 74 73
-0.050781 0.921875 -0.037549 106 90 81
-0.046875 0.921875 -0.049461 60 49 45
-0.042969 0.921875 -0.058341 95 85 75
-0.039062 0.921875 -0.065210 89 80 75
-0.035156 0.921875 -0.070094 76 68 65
-0.031250 0.921875 -0.074506 46 39 39
-0.027344 0.921875 -0.078804 41 31 29
-0.023438 0.921875 -0.083366 47 33 30
-0.019531 0.921875 -0.087841 37 27 26
-0.015625 0.921875 -0.092009 50 39 36
-0.011719 0.921875 -0.095501 37 28 27
-0.007812 0.921875 -0.098397 20 15 15
-0.003906 0.921875 -0.100854 50 40 34
0.000000 0.921875 -0.102776 83 72 60
0.003906 0.921875 -0.104001 41 38 32
0.007812 0.921875 -0.104629 18 16 14
0.011719 0.921875 -0.104639 18 15 15
0.015625 0.921875 -0.104037 47 42 38
0.019531 0.921875 -0.102868 66 66 54
0.023438 0.921875 -0.101109 33 30 26
0.027344 0.921875 -0.098784 17 13 11
0.031250 0.921875 -0.096202 8 5 4
0.035156 0.921875 -0.093147 7 4 3
0.039062 0.921875 -0.089536 20 15 11
0.042969 0.921875 -0.086044 64 58 46
0.046875 0.921875 -0.082615 82 77 64
0.050781 0.921875 -0.079024 56 51 44
0.054688 0.921875 -0.075290 58 50 43
0.058594 0.921875 -0.071703 77 66 54
0.062500 0.921875 -0.068191 90 78 62
0.066406 0.921875 -0.064625 91 79 65
0.070312 0.921875 -0.060855 84 72 61
0.074219 0.921875 -0.057256 90 75 66
0.078125 0.921875 -0.053365 87 73 65
0.082031 0.921875 -0.049537 114 98 78
0.085938 0.921875 -0.044396 105 86 63
0.089844 0.921875 -0.040323 77 59 51
0.093750 0.921875 -0.028417 86 62 65
-0.054688 0.917969 -0.039676 105 88 80
-0.050781 0.917969 -0.048538 66 55 48
-0.046875 0.917969 -0.057127 69 62 51
-0.042969 0.917969 -0.064304 103 96 80
-0.039062 0.917969 -0.069223 98 87 77
-0.035156 0.917969 -0.073466 66 55 49
-0.031250 0.917969 -0.077665 37 30 26
-0.027344 0.917969 -0.081742 33 24 18
-0.023438 0.917969 -0.086064 33 23 18
-0.019531 0.917969 -0.090521 34 25 22
-0.015625 0.917969 -0.094773 68 55 45
-0.011719 0.917969 -0.098243 49 40 35
-0.007812 0.917969 -0.101077 19 15 14
-0.003906 0.917969 -0.103461 36 30 27
0.000000 0.917969 -0.105239 55 50 43
0.003906 0.917969 -0.106396 26 25 23
0.007812 0.917969 -0.107075 13 12 11
0.011719 0.917969 -0.107120 14 14 13
0.015625 0.917969 -0.106632 35 35 30
0.019531 0.917969 -0.105624 55 55 44
0.023438 0.917969 -0.103962 36 34 27
0.027344 0.917969 -0.101816 13 11 10
0.031250 0.917969 -0.099468 6 4 3
0.035156 0.917969 -0.096618 5 3 2
0.039062 0.917969 -0.093265 11 7 5
0.042969 0.917969 -0.089909 40 31 24
0.046875 0.917969 -0.086504 88 79 59
0.050781 0.917969 -0.082803 73 67 53
0.054688 0.917969 -0.078798 57 48 41
0.058594 0.917969 -0.075027 49 38 34
0.062500 0.917969 -0.071366 52 39 34
0.066406 0.917969 -0.067650 67 52 44
0.070312 0.917969 -0.063803 65 52 44
0.074219 0.917969 -0.060121 79 65 54
0.078125 0.917969 -0.056292 93 78 67
0.082031 0.917969 -0.052551 121 100 84
0.085938 0.917969 -0.048051 148 119 95
0.089844 0.917969 -0.043592 118 94 83
0.093750 0.917969 -0.035813 121 95 83
-0.058594 0.914062 -0.035465 104 88 78
-0.054688 0.914062 -0.046720 86 67 56
-0.050781 0.914062 -0.055107 107 89 75
-0.046875 0.914062 -0.062446 114 97 86
-0.042969 0.914062 -0.067904 117 103 91
-0.039062 0.914062 -0.072543 70 60 55
-0.035156 0.914062 -0.076751 29 23 22
-0.031250 0.914062 -0.080554 19 15 12
-0.027344 0.914062 -0.084323 24 18 13
-0.023438 0.914062 -0.088427 26 20 14
-0.019531 0.914062 -0.092738 28 22 17
-0.015625 0.914062 -0.096921 53 45 34
-0.011719 0.914062 -0.100365 43 37 31
-0.007812 0.914062 -0.103051 19 16 15
-0.003906 0.914062 -0.105271 22 19 16
0.000000 0.914062 -0.106974 23 20 17
0.003906 0.914062 -0.108112 15 12 11
0.007812 0.914062 -0.108807 13 11 10
0.011719 0.914062 -0.108984 15 14 13
0.015625 0.914062 -0.108615 19 18 17
0.019531 0.914062 -0.107696 27 26 24
0.023438 0.914062 -0.106227 33 32 26
0.027344 0.914062 -0.104388 19 18 15
0.031250 0.914062 -0.102270 11 10 8
0.035156 0.914062 -0.099626 8 6 5
0.039062 0.914062 -0.096522 6 4 3
0.042969 0.914062 -0.093292 13 9 8
0.046875 0.914062 -0.089967 43 35 27
0.050781 0.914062 -0.086234 56 51 39
0.054688 0.914062 -0.082055 50 43 34
0.058594 0.914062 -0.078065 34 26 22
0.062500 0.914062 -0.074202 35 26 23
0.066406 0.914062 -0.070323 56 42 35
0.070312 0.914062 -0.066355 57 44 37
0.074219 0.914062 -0.062516 73 58 47
0.078125 0.914062 -0.058461 96 78 65
0.082031 0.914062 -0.054693 113 90 75
0.085938 0.914062 -0.050395 139 108 90
0.089844 0.914062 -0.045646 98 74 73
0.093750 0.914062 -0.039228 71 58 69
0.097656 0.914062 -0.014549 93 74 61
-0.058594 0.910156 -0.040638 120 100 87
-0.054688 0.910156 -0.051587 82 67 60
-0.050781 0.910156 -0.059845 106 90 81
-0.046875 0.910156 -0.066474 107 90 85
-0.042969 0.910156 -0.071638 93 81 74
-0.039062 0.910156 -0.076011 63 55 49
-0.035156 0.910156 -0.079686 31 26 23
-0.031250 0.910156 -0.083137 21 17 14
-0.027344 0.910156 -0.086684 26 21 15
-0.023438 0.910156 -0.090574 26 23 16
-0.019531 0.910156 -0.094709 21 20 14
-0.015625 0.910156 -0.098610 22 22 16
-0.011719 0.910156 -0.101953 20 19 16
-0.007812 0.910156 -0.104570 18 17 14
-0.003906 0.910156 -0.106612 20 17 13
0.000000 0.910156 -0.108251 11 9 7
0.003906 0.910156 -0.109440 6 5 4
0.007812 0.910156 -0.110258 7 6 5
0.011719 0.910156 -0.110591 10 10 9
0.015625 0.910156 -0.110354 11 11 11
0.019531 0.910156 -0.109578 15 15 15
0.023438 0.910156 -0.108325 23 25 22
0.027344 0.910156 -0.106730 19 20 16
0.031250 0.910156 -0.104705 16 16 12
0.035156 0.910156 -0.102198 13 12 9
0.039062 0.910156 -0.099369 7 6 4
0.042969 0.910156 -0.096308 8 7 7
0.046875 0.910156 -0.093139 19 17 15
0.050781 0.910156 -0.089429 27 25 20
0.054688 0.910156 -0.085156 29 26 20
0.058594 0.910156 -0.080993 24 21 15
0.062500 0.910156 -0.076920 29 24 18
0.066406 0.910156 -0.072888 47 38 31
0.070312 0.910156 -0.068688 51 41 34
0.074219 0.910156 -0.064726 64 53 44
0.078125 0.910156 -0.060630 83 68 58
0.082031 0.910156 -0.056646 81 63 54
0.085938 0.910156 -0.052218 101 79 64
0.089844 0.910156 -0.048042 104 79 71
0.093750 0.910156 -0.041739 86 62 65
0.097656 0.910156 -0.035687 73 60 53
-0.058594 0.906250 -0.046221 123 105 90
-0.054688 0.906250 -0.056445 105 88 80
-0.050781 0.906250 -0.063655 117 100 93
-0.046875 0.906250 -0.069918 102 87 84
-0.042969 0.906250 -0.074629 75 67 62
-0.039062 0.906250 -0.078638 65 57 51
-0.035156 0.906250 -0.082169 43 38 33
-0.031250 0.906250 -0.085554 32 27 22
-0.027344 0.906250 -0.088997 36 29 22
-0.023438 0.906250 -0.092713 31 26 19
-0.019531 0.906250 -0.096648 22 20 15
-0.015625 0.906250 -0.100325 17 15 12
-0.011719 0.906250 -0.103458 18 15 12
-0.007812 0.906250 -0.106009 37 28 21
-0.003906 0.906250 -0.108020 53 39 29
0.000000 0.906250 -0.109622 30 21 17
0.003906 0.906250 -0.110822 18 12 11
0.007812 0.906250 -0.111727 23 17 15
0.011719 0.906250 -0.112159 35 29 25
0.015625 0.906250 -0.112017 45 38 34
0.019531 0.906250 -0.111411 50 47 43
0.023438 0.906250 -0.110367 43 42 39
0.027344 0.906250 -0.108928 19 17 16
0.031250 0.906250 -0.107052 12 10 9
0.035156 0.906250 -0.104763 12 9 8
0.039062 0.906250 -0.102100 10 8 7
0.042969 0.906250 -0.099131 10 8 8
0.046875 0.906250 -0.096052 10 9 9
0.050781 0.906250 -0.092325 12 11 10
0.054688 0.906250 -0.088026 15 13 10
0.058594 0.906250 -0.083773 17 14 10
0.062500 0.906250 -0.079540 21 16 14
0.066406 0.906250 -0.075269 33 26 24
0.070312 0.906250 -0.070817 54 46 40
0.074219 0.906250 -0.066701 78 71 58
0.078125 0.906250 -0.062577 78 66 56
0.082031 0.906250 -0.058609 57 46 41
0.085938 0.906250 -0.054274 84 69 58
0.089844 0.906250 -0.050354 124 100 84
0.093750 0.906250 -0.044694 121 95 83
0.097656 0.906250 -0.040066 123 95 85
-0.062500 0.902344 -0.040848 67 58 56
-0.058594 0.902344 -0.051223 104 88 78
-0.054688 0.902344 -0.059846 110 94 85
-0.050781 0.902344 -0.066881 127 110 101
-0.046875 0.902344 -0.072887 114 98 94
-0.042969 0.902344 -0.077113 68 59 58
-0.039062 0.902344 -0.080801 58 52 50
-0.035156 0.902344 -0.084256 50 44 43
-0.031250 0.902344 -0.087621 39 33 31
-0.027344 0.902344 -0.091034 37 28 25
-0.023438 0.902344 -0.094592 25 17 15
-0.019531 0.902344 -0.098289 17 11 10
-0.015625 0.902344 -0.101740 13 8 7
-0.011719 0.902344 -0.104670 13 8 6
-0.007812 0.902344 -0.107194 28 16 11
-0.003906 0.902344 -0.109193 42 23 17
0.000000 0.902344 -0.110774 32 18 15
0.003906 0.902344 -0.112006 30 18 16
0.007812 0.902344 -0.112974 39 25 23
0.011719 0.902344 -0.113557 43 31 28
0.015625 0.902344 -0.113533 51 39 34
0.019531 0.902344 -0.113056 70 55 48
0.023438 0.902344 -0.112202 59 45 41
0.027344 0.902344 -0.110938 21 14 14
0.031250 0.902344 -0.109205 9 5 5
0.035156 0.902344 -0.107070 8 4 4
0.039062 0.902344 -0.104520 8 5 4
0.042969 0.902344 -0.101650 9 8 7
0.046875 0.902344 -0.098653 11 11 9
0.050781 0.902344 -0.094990 11 12 8
0.054688 0.902344 -0.090784 11 10 7
0.058594 0.902344 -0.086528 10 8 7
0.062500 0.902344 -0.082214 10 8 8
0.066406 0.902344 -0.077709 18 13 15
0.070312 0.902344 -0.073007 49 39 37
0.074219 0.902344 -0.068726 86 72 61
0.078125 0.902344 -0.064458 78 66 56
0.082031 0.902344 -0.060399 67 56 49
0.085938 0.902344 -0.056218 105 88 77
0.089844 0.902344 -0.052237 126 105 91
0.093750 0.902344 -0.047596 111 91 78
0.097656 0.902344 -0.042444 93 74 61
0.101562 0.902344 -0.032843 117 97 76
-0.066406 0.898438 -0.034331 132 110 95
-0.062500 0.898438 -0.046409 111 100 93
-0.058594 0.898438 -0.055428 112 97 87
-0.054688 0.898438 -0.063075 113 96 89
-0.050781 0.898438 -0.069240 121 104 96
-0.046875 0.898438 -0.074837 112 96 89
-0.042969 0.898438 -0.078992 60 52 50
-0.039062 0.898438 -0.082528 55 49 47
-0.035156 0.898438 -0.086061 66 59 54
-0.031250 0.898438 -0.089605 50 41 37
-0.027344 0.898438 -0.093090 31 21 20
-0.023438 0.898438 -0.096603 15 9 9
-0.019531 0.898438 -0.100106 10 5 6
-0.015625 0.898438 -0.103343 7 4 4
-0.011719 0.898438 -0.106127 6 4 3
-0.007812 0.898438 -0.108526 12 7 5
-0.003906 0.898438 -0.110387 20 11 8
0.000000 0.898438 -0.111994 24 13 10
0.003906 0.898438 -0.113352 35 19 16
0.007812 0.898438 -0.114449 47 26 22
0.011719 0.898438 -0.115215 41 25 21
0.015625 0.898438 -0.115316 39 25 22
0.019531 0.898438 -0.114987 54 36 31
0.023438 0.898438 -0.114200 52 32 30
0.027344 0.898438 -0.112994 27 14 14
0.031250 0.898438 -0.111373 16 7 7
0.035156 0.898438 -0.109279 13 6 5
0.039062 0.898438 -0.106832 14 7 7
0.042969 0.898438 -0.104095 24 17 15
0.046875 0.898438 -0.101117 35 33 25
0.050781 0.898438 -0.097504 25 28 20
0.054688 0.898438 -0.093364 15 17 13
0.058594 0.898438 -0.089107 10 10 9
0.062500 0.898438 -0.084801 7 7 7
0.066406 0.898438 -0.080189 12 10 12
0.070312 0.898438 -0.075266 28 23 23
0.074219 0.898438 -0.070740 49 41 36
0.078125 0.898438 -0.066386 60 52 45
0.082031 0.898438 -0.062261 74 63 55
0.085938 0.898438 -0.057985 105 90 77
0.089844 0.898438 -0.054111 110 94 82
0.093750 0.898438 -0.049676 104 87 76
0.097656 0.898438 -0.044334 73 60 53
0.101562 0.898438 -0.037897 42 33 29
-0.070312 0.894531 -0.020815 95 78 74
-0.066406 0.894531 -0.041577 69 53 62
-0.062500 0.894531 -0.051323 100 88 81
-0.058594 0.894531 -0.059543 121 110 96
-0.054688 0.894531 -0.065738 109 96 88
-0.050781 0.894531 -0.071364 90 77 73
-0.046875 0.894531 -0.076554 88 75 70
-0.042969 0.894531 -0.080695 55 48 46
-0.039062 0.894531 -0.084174 45 39 37
-0.035156 0.894531 -0.087763 58 46 42
-0.031250 0.894531 -0.091491 52 40 34
-0.027344 0.894531 -0.094986 33 23 21
-0.023438 0.894531 -0.098429 20 13 12
-0.019531 0.894531 -0.101794 21 13 12
-0.015625 0.894531 -0.104855 18 12 11
-0.011719 0.894531 -0.107570 14 9 8
-0.007812 0.894531 -0.109917 23 14 10
-0.003906 0.894531 -0.111705 46 26 17
0.000000 0.894531 -0.113350 82 46 30
0.003906 0.894531 -0.114767 127 74 52
0.007812 0.894531 -0.115920 68 39 29
0.011719 0.894531 -0.116729 50 30 25
0.015625 0.894531 -0.116855 65 41 34
0.019531 0.894531 -0.116647 128 81 63
0.023438 0.894531 -0.115954 104 63 51
0.027344 0.894531 -0.114835 58 32 27
0.031250 0.894531 -0.113390 34 18 15
0.035156 0.894531 -0.111433 29 14 12
0.039062 0.894531 -0.109072 32 16 14
