ply
    format ascii 1.0
    element vertex 103674
    property float x
    property float y
    property float z
    property uchar red
    property uchar green
    property uchar blue
    end_header
0.085938 -0.308594 0.103060 23 23 24
0.089844 -0.308594 0.103504 20 20 21
0.093750 -0.308594 0.102222 18 17 18
0.097656 -0.308594 0.099706 18 17 18
0.101562 -0.308594 0.095994 20 17 18
0.105469 -0.308594 0.091613 19 16 17
0.109375 -0.308594 0.087093 18 15 16
0.113281 -0.308594 0.082845 18 15 16
0.117188 -0.308594 0.080523 19 15 16
0.121094 -0.308594 0.076785 20 15 17
0.125000 -0.308594 0.074720 21 15 17
0.128906 -0.308594 0.065659 20 15 17
-0.484375 -0.312500 0.016459 29 31 28
-0.480469 -0.312500 0.022041 43 45 41
-0.476562 -0.312500 0.027722 64 60 55
-0.472656 -0.312500 0.031153 59 57 53
-0.468750 -0.312500 0.031360 51 51 47
-0.464844 -0.312500 0.030519 57 56 50
-0.460938 -0.312500 0.030205 44 41 38
-0.457031 -0.312500 0.028042 34 31 29
-0.453125 -0.312500 0.025070 38 35 33
-0.449219 -0.312500 0.023370 44 40 38
-0.445312 -0.312500 0.022152 41 37 36
-0.441406 -0.312500 0.021429 35 32 32
-0.437500 -0.312500 0.021314 35 32 32
-0.433594 -0.312500 0.021577 38 35 34
-0.429688 -0.312500 0.021870 40 36 36
-0.425781 -0.312500 0.022389 41 37 38
-0.421875 -0.312500 0.023199 40 37 38
-0.417969 -0.312500 0.024063 40 37 38
-0.414062 -0.312500 0.024931 39 36 37
-0.410156 -0.312500 0.025658 38 35 36
-0.406250 -0.312500 0.026196 38 35 35
-0.402344 -0.312500 0.026456 39 35 35
-0.398438 -0.312500 0.026219 39 36 36
-0.394531 -0.312500 0.025765 38 36 34
-0.390625 -0.312500 0.024976 35 33 31
-0.386719 -0.312500 0.023786 31 30 27
-0.382812 -0.312500 0.022018 29 28 25
-0.378906 -0.312500 0.019778 25 24 22
-0.375000 -0.312500 0.017125 24 23 21
-0.371094 -0.312500 0.013780 24 23 20
-0.367188 -0.312500 0.009306 23 22 19
-0.363281 -0.312500 0.004547 23 23 19
-0.359375 -0.312500 0.000363 23 22 19
-0.355469 -0.312500 -0.002793 23 21 19
-0.351562 -0.312500 -0.005539 21 20 18
-0.347656 -0.312500 -0.008156 21 20 18
-0.343750 -0.312500 -0.010572 21 21 18
-0.339844 -0.312500 -0.013504 21 21 19
-0.335938 -0.312500 -0.016432 22 22 20
-0.332031 -0.312500 -0.019195 22 22 20
-0.328125 -0.312500 -0.020794 24 23 21
-0.324219 -0.312500 -0.020372 25 24 22
-0.320312 -0.312500 -0.018528 24 23 20
-0.316406 -0.312500 -0.015646 22 21 18
-0.312500 -0.312500 -0.011980 22 20 18
-0.308594 -0.312500 -0.008061 21 20 17
-0.304688 -0.312500 -0.004667 21 20 17
-0.300781 -0.312500 -0.001703 24 22 18
-0.296875 -0.312500 0.000509 22 21 16
-0.292969 -0.312500 0.002239 22 20 16
-0.289062 -0.312500 0.003517 21 18 15
-0.285156 -0.312500 0.004480 21 16 14
-0.281250 -0.312500 0.004951 23 18 16
-0.277344 -0.312500 0.002259 20 16 14
-0.273438 -0.312500 -0.002232 31 26 22
-0.105469 -0.312500 0.045486 61 54 44
-0.101562 -0.312500 0.061854 64 58 48
-0.097656 -0.312500 0.069988 47 45 41
-0.093750 -0.312500 0.074092 48 47 44
-0.089844 -0.312500 0.076737 59 58 55
-0.085938 -0.312500 0.079392 64 63 60
-0.082031 -0.312500 0.081162 58 58 55
-0.078125 -0.312500 0.082560 52 51 49
-0.074219 -0.312500 0.083528 46 45 43
-0.070312 -0.312500 0.083673 43 41 39
-0.066406 -0.312500 0.083729 40 36 35
-0.062500 -0.312500 0.084187 37 34 32
-0.058594 -0.312500 0.084819 37 34 32
-0.054688 -0.312500 0.085682 35 32 31
-0.050781 -0.312500 0.086461 34 31 31
-0.046875 -0.312500 0.086917 35 32 32
-0.042969 -0.312500 0.087480 34 31 31
-0.039062 -0.312500 0.088237 32 30 31
-0.035156 -0.312500 0.089463 33 31 33
-0.031250 -0.312500 0.091159 35 34 35
-0.027344 -0.312500 0.093183 36 36 38
-0.023438 -0.312500 0.095505 43 44 45
-0.019531 -0.312500 0.097965 53 53 54
-0.015625 -0.312500 0.099748 54 54 55
-0.011719 -0.312500 0.101019 42 43 45
-0.007812 -0.312500 0.101877 33 34 35
-0.003906 -0.312500 0.102611 35 34 34
0.000000 -0.312500 0.103670 42 41 40
0.003906 -0.312500 0.105013 49 48 46
0.007812 -0.312500 0.106669 51 52 49
0.011719 -0.312500 0.108365 52 55 51
0.015625 -0.312500 0.109777 52 55 52
0.019531 -0.312500 0.110652 52 55 52
0.023438 -0.312500 0.110905 54 58 54
0.027344 -0.312500 0.110959 54 58 54
0.031250 -0.312500 0.110855 52 57 53
0.035156 -0.312500 0.110142 55 59 55
0.039062 -0.312500 0.108842 57 61 57
0.042969 -0.312500 0.107077 55 59 56
0.046875 -0.312500 0.105282 56 60 56
0.050781 -0.312500 0.104004 55 59 56
0.054688 -0.312500 0.103631 53 57 54
0.058594 -0.312500 0.103776 54 58 54
0.062500 -0.312500 0.103842 52 56 53
0.066406 -0.312500 0.103676 52 56 52
0.070312 -0.312500 0.102807 51 55 52
0.074219 -0.312500 0.101660 49 54 51
0.078125 -0.312500 0.100777 49 53 50
0.082031 -0.312500 0.101773 44 48 46
0.085938 -0.312500 0.103165 39 43 42
0.089844 -0.312500 0.103405 37 40 39
0.093750 -0.312500 0.102053 34 35 34
0.097656 -0.312500 0.099584 34 34 32
0.101562 -0.312500 0.095379 31 29 29
0.105469 -0.312500 0.089688 24 21 22
0.109375 -0.312500 0.083965 23 19 21
0.113281 -0.312500 0.078785 25 21 22
0.117188 -0.312500 0.075114 25 20 21
0.121094 -0.312500 0.074391 25 19 21
0.125000 -0.312500 0.070560 24 18 21
-0.484375 -0.316406 0.017575 30 30 30
-0.480469 -0.316406 0.025099 55 55 54
-0.476562 -0.316406 0.029864 65 63 57
-0.472656 -0.316406 0.031205 59 59 55
-0.468750 -0.316406 0.030791 53 53 49
-0.464844 -0.316406 0.030096 60 59 53
-0.460938 -0.316406 0.029766 44 41 38
-0.457031 -0.316406 0.028279 34 32 29
-0.453125 -0.316406 0.026246 39 36 33
-0.449219 -0.316406 0.024657 39 36 34
-0.445312 -0.316406 0.023112 37 34 33
-0.441406 -0.316406 0.021874 36 33 33
-0.437500 -0.316406 0.021316 39 35 33
-0.433594 -0.316406 0.021156 40 36 34
-0.429688 -0.316406 0.021105 38 34 33
-0.425781 -0.316406 0.021347 37 33 33
-0.421875 -0.316406 0.021960 36 33 32
-0.417969 -0.316406 0.022722 35 32 32
-0.414062 -0.316406 0.023559 32 29 30
-0.410156 -0.316406 0.024257 30 28 28
-0.406250 -0.316406 0.024817 29 27 27
-0.402344 -0.316406 0.025172 29 27 27
-0.398438 -0.316406 0.025049 30 27 27
-0.394531 -0.316406 0.024691 28 26 25
-0.390625 -0.316406 0.024010 28 26 25
-0.386719 -0.316406 0.023023 29 27 25
-0.382812 -0.316406 0.021594 31 29 25
-0.378906 -0.316406 0.019758 31 29 24
-0.375000 -0.316406 0.017527 29 27 23
-0.371094 -0.316406 0.014534 28 26 21
-0.367188 -0.316406 0.010447 26 24 20
-0.363281 -0.316406 0.004776 25 24 19
-0.359375 -0.316406 -0.000076 24 22 19
-0.355469 -0.316406 -0.003950 24 22 19
-0.351562 -0.316406 -0.007227 23 22 19
-0.347656 -0.316406 -0.010259 24 23 20
-0.343750 -0.316406 -0.013050 26 25 21
-0.339844 -0.316406 -0.016192 27 26 22
-0.335938 -0.316406 -0.019158 29 28 24
-0.332031 -0.316406 -0.021771 30 29 25
-0.328125 -0.316406 -0.023260 31 30 25
-0.324219 -0.316406 -0.022803 30 29 24
-0.320312 -0.316406 -0.020852 28 26 22
-0.316406 -0.316406 -0.018021 24 23 19
-0.312500 -0.316406 -0.014146 24 22 18
-0.308594 -0.316406 -0.009980 24 22 18
-0.304688 -0.316406 -0.006513 24 22 18
-0.300781 -0.316406 -0.003444 25 23 18
-0.296875 -0.316406 -0.001205 22 20 16
-0.292969 -0.316406 0.000563 21 19 15
-0.289062 -0.316406 0.002174 21 18 15
-0.285156 -0.316406 0.002997 21 16 14
-0.281250 -0.316406 0.003059 22 17 15
-0.277344 -0.316406 0.000670 17 13 12
-0.273438 -0.316406 -0.005113 28 22 20
-0.105469 -0.316406 0.051287 55 49 43
-0.101562 -0.316406 0.064180 68 61 54
-0.097656 -0.316406 0.070215 49 46 43
-0.093750 -0.316406 0.074467 39 38 37
-0.089844 -0.316406 0.076955 44 42 41
-0.085938 -0.316406 0.079221 47 45 44
-0.082031 -0.316406 0.080842 43 42 40
-0.078125 -0.316406 0.082144 40 39 39
-0.074219 -0.316406 0.083030 36 35 35
-0.070312 -0.316406 0.083305 35 32 31
-0.066406 -0.316406 0.083558 34 30 29
-0.062500 -0.316406 0.084177 31 27 27
-0.058594 -0.316406 0.085030 31 27 27
-0.054688 -0.316406 0.086111 31 27 27
-0.050781 -0.316406 0.087100 31 27 28
-0.046875 -0.316406 0.087709 31 28 29
-0.042969 -0.316406 0.088570 32 29 30
-0.039062 -0.316406 0.089808 33 31 33
-0.035156 -0.316406 0.091496 39 37 39
-0.031250 -0.316406 0.093744 48 47 48
-0.027344 -0.316406 0.096156 55 55 55
-0.023438 -0.316406 0.098526 66 66 66
-0.019531 -0.316406 0.100657 74 74 73
-0.015625 -0.316406 0.102031 73 73 72
-0.011719 -0.316406 0.102928 63 64 63
-0.007812 -0.316406 0.103300 47 48 47
-0.003906 -0.316406 0.103323 36 36 36
0.000000 -0.316406 0.103610 33 33 32
0.003906 -0.316406 0.104440 36 35 35
0.007812 -0.316406 0.105960 42 41 40
0.011719 -0.316406 0.107736 46 47 45
0.015625 -0.316406 0.109318 50 51 48
0.019531 -0.316406 0.110385 50 52 50
0.023438 -0.316406 0.110772 52 54 52
0.027344 -0.316406 0.110944 53 56 54
0.031250 -0.316406 0.110935 50 54 52
0.035156 -0.316406 0.110333 52 55 53
0.039062 -0.316406 0.109204 53 56 55
0.042969 -0.316406 0.107665 52 55 54
0.046875 -0.316406 0.106081 53 56 55
0.050781 -0.316406 0.105011 53 56 54
0.054688 -0.316406 0.104725 53 56 54
0.058594 -0.316406 0.104746 54 57 54
0.062500 -0.316406 0.104459 52 55 52
0.066406 -0.316406 0.103902 52 54 51
0.070312 -0.316406 0.102985 51 53 51
0.074219 -0.316406 0.102017 50 53 50
0.078125 -0.316406 0.101520 50 53 50
0.082031 -0.316406 0.102346 49 52 49
0.085938 -0.316406 0.103517 50 54 49
0.089844 -0.316406 0.103425 52 55 49
0.093750 -0.316406 0.102436 49 50 45
0.097656 -0.316406 0.099773 49 49 43
0.101562 -0.316406 0.095028 42 40 37
0.105469 -0.316406 0.088097 29 25 25
0.109375 -0.316406 0.081584 29 25 25
0.113281 -0.316406 0.076350 35 30 30
0.117188 -0.316406 0.071726 32 26 27
0.121094 -0.316406 0.066264 25 20 22
-0.488281 -0.320312 0.014781 16 14 15
-0.484375 -0.320312 0.020381 70 64 61
-0.480469 -0.320312 0.026870 73 71 69
-0.476562 -0.320312 0.029975 60 59 57
-0.472656 -0.320312 0.030353 60 60 57
-0.468750 -0.320312 0.030040 51 52 48
-0.464844 -0.320312 0.029379 62 60 53
-0.460938 -0.320312 0.028948 44 42 38
-0.457031 -0.320312 0.028060 35 33 30
-0.453125 -0.320312 0.026904 39 37 33
-0.449219 -0.320312 0.025614 36 34 32
-0.445312 -0.320312 0.023878 36 34 32
-0.441406 -0.320312 0.022227 36 33 31
-0.437500 -0.320312 0.021254 35 32 30
-0.433594 -0.320312 0.020736 37 33 30
-0.429688 -0.320312 0.020441 36 32 30
-0.425781 -0.320312 0.020494 35 31 30
-0.421875 -0.320312 0.020924 35 32 30
-0.417969 -0.320312 0.021550 36 33 31
-0.414062 -0.320312 0.022313 34 31 29
-0.410156 -0.320312 0.022964 33 30 29
-0.406250 -0.320312 0.023516 32 29 28
-0.402344 -0.320312 0.023896 32 29 28
-0.398438 -0.320312 0.023832 31 28 26
-0.394531 -0.320312 0.023562 29 27 25
-0.390625 -0.320312 0.022992 30 27 25
-0.386719 -0.320312 0.022207 29 27 24
-0.382812 -0.320312 0.021093 31 29 25
-0.378906 -0.320312 0.019602 32 30 25
-0.375000 -0.320312 0.017874 29 26 22
-0.371094 -0.320312 0.015114 27 25 20
-0.367188 -0.320312 0.011404 26 24 20
-0.363281 -0.320312 0.004633 26 24 20
-0.359375 -0.320312 -0.001220 24 22 19
-0.355469 -0.320312 -0.005829 23 22 18
-0.351562 -0.320312 -0.009593 23 21 18
-0.347656 -0.320312 -0.012908 24 22 19
-0.343750 -0.320312 -0.015875 26 24 20
-0.339844 -0.320312 -0.018999 26 24 20
-0.335938 -0.320312 -0.021742 28 26 22
-0.332031 -0.320312 -0.024074 28 26 22
-0.328125 -0.320312 -0.025634 28 26 21
-0.324219 -0.320312 -0.025289 27 25 20
-0.320312 -0.320312 -0.023262 26 23 19
-0.316406 -0.320312 -0.020574 24 21 18
-0.312500 -0.320312 -0.016549 25 22 18
-0.308594 -0.320312 -0.012048 25 22 18
-0.304688 -0.320312 -0.008496 23 20 16
-0.300781 -0.320312 -0.005301 23 20 16
-0.296875 -0.320312 -0.002899 21 18 14
-0.292969 -0.320312 -0.000927 21 18 15
-0.289062 -0.320312 0.000969 22 18 15
-0.285156 -0.320312 0.001465 20 15 14
-0.281250 -0.320312 0.001086 20 15 13
-0.277344 -0.320312 -0.001008 16 12 12
-0.273438 -0.320312 -0.009192 30 24 24
-0.109375 -0.320312 0.041704 41 35 32
-0.105469 -0.320312 0.056920 58 53 48
-0.101562 -0.320312 0.065182 76 69 63
-0.097656 -0.320312 0.070564 55 52 49
-0.093750 -0.320312 0.074388 38 37 35
-0.089844 -0.320312 0.076562 39 37 35
-0.085938 -0.320312 0.078702 38 36 34
-0.082031 -0.320312 0.080336 33 31 31
-0.078125 -0.320312 0.081664 33 31 31
-0.074219 -0.320312 0.082616 30 28 28
-0.070312 -0.320312 0.083015 29 27 26
-0.066406 -0.320312 0.083368 30 27 26
-0.062500 -0.320312 0.084043 29 25 25
-0.058594 -0.320312 0.084995 31 26 26
-0.054688 -0.320312 0.086228 32 27 28
-0.050781 -0.320312 0.087448 33 29 29
-0.046875 -0.320312 0.088521 34 31 33
-0.042969 -0.320312 0.089864 37 36 38
-0.039062 -0.320312 0.091691 45 44 46
-0.035156 -0.320312 0.093838 54 53 54
-0.031250 -0.320312 0.096325 64 63 63
-0.027344 -0.320312 0.098833 70 70 69
-0.023438 -0.320312 0.101137 76 75 74
-0.019531 -0.320312 0.103024 75 75 73
-0.015625 -0.320312 0.104061 72 73 71
-0.011719 -0.320312 0.104677 76 76 72
-0.007812 -0.320312 0.104897 74 74 70
-0.003906 -0.320312 0.104721 58 58 55
0.000000 -0.320312 0.104586 40 40 38
0.003906 -0.320312 0.104962 33 32 32
0.007812 -0.320312 0.106196 33 32 32
0.011719 -0.320312 0.107773 35 34 34
0.015625 -0.320312 0.109242 38 37 37
0.019531 -0.320312 0.110218 40 40 40
0.023438 -0.320312 0.110472 44 45 44
0.027344 -0.320312 0.110519 49 50 49
0.031250 -0.320312 0.110388 52 53 52
0.035156 -0.320312 0.109746 55 57 55
0.039062 -0.320312 0.108683 58 60 58
0.042969 -0.320312 0.107293 56 59 57
0.046875 -0.320312 0.105905 57 59 57
0.050781 -0.320312 0.105035 55 57 55
0.054688 -0.320312 0.104758 53 54 53
0.058594 -0.320312 0.104616 54 54 53
0.062500 -0.320312 0.103994 53 53 52
0.066406 -0.320312 0.103188 52 53 51
0.070312 -0.320312 0.102326 50 51 49
0.074219 -0.320312 0.101247 48 49 46
0.078125 -0.320312 0.101254 47 48 45
0.082031 -0.320312 0.102135 44 45 42
0.085938 -0.320312 0.102956 45 46 42
0.089844 -0.320312 0.103107 46 47 43
0.093750 -0.320312 0.102997 43 43 40
0.097656 -0.320312 0.100252 44 43 39
0.101562 -0.320312 0.094802 39 36 34
0.105469 -0.320312 0.086332 27 23 23
0.109375 -0.320312 0.076746 28 23 24
0.113281 -0.320312 0.070055 33 27 28
0.117188 -0.320312 0.061762 28 22 25
-0.488281 -0.324219 0.017120 27 24 23
-0.484375 -0.324219 0.022842 95 87 77
-0.480469 -0.324219 0.027114 70 70 67
-0.476562 -0.324219 0.028847 55 55 55
-0.472656 -0.324219 0.029030 63 62 60
-0.468750 -0.324219 0.028966 51 50 47
-0.464844 -0.324219 0.028353 57 54 48
-0.460938 -0.324219 0.027849 40 38 34
-0.457031 -0.324219 0.027392 35 33 29
-0.453125 -0.324219 0.026903 40 38 34
-0.449219 -0.324219 0.025968 37 35 33
-0.445312 -0.324219 0.024127 37 35 32
-0.441406 -0.324219 0.022214 36 33 30
-0.437500 -0.324219 0.020999 32 29 27
-0.433594 -0.324219 0.020299 33 30 27
-0.429688 -0.324219 0.019897 34 31 28
-0.425781 -0.324219 0.019846 32 30 28
-0.421875 -0.324219 0.020136 32 30 28
-0.417969 -0.324219 0.020631 33 30 28
-0.414062 -0.324219 0.021286 33 30 28
-0.410156 -0.324219 0.021841 33 31 29
-0.406250 -0.324219 0.022301 33 31 28
-0.402344 -0.324219 0.022626 34 32 29
-0.398438 -0.324219 0.022561 32 30 27
-0.394531 -0.324219 0.022322 29 27 24
-0.390625 -0.324219 0.021828 29 26 24
-0.386719 -0.324219 0.021190 25 23 21
-0.382812 -0.324219 0.020329 27 24 22
-0.378906 -0.324219 0.019070 28 26 22
-0.375000 -0.324219 0.017755 25 23 20
-0.371094 -0.324219 0.015156 25 23 19
-0.367188 -0.324219 0.011336 24 22 19
-0.363281 -0.324219 0.003143 24 22 19
-0.359375 -0.324219 -0.004007 23 21 18
-0.355469 -0.324219 -0.009171 22 20 17
-0.351562 -0.324219 -0.013038 22 20 17
-0.347656 -0.324219 -0.016250 24 22 18
-0.343750 -0.324219 -0.018937 25 23 19
-0.339844 -0.324219 -0.021606 25 23 19
-0.335938 -0.324219 -0.023788 27 24 20
-0.332031 -0.324219 -0.025915 27 25 20
-0.328125 -0.324219 -0.028189 27 24 20
-0.324219 -0.324219 -0.028389 26 24 19
-0.320312 -0.324219 -0.025933 26 23 19
-0.316406 -0.324219 -0.022714 25 22 18
-0.312500 -0.324219 -0.018722 26 23 18
-0.308594 -0.324219 -0.014241 26 22 17
-0.304688 -0.324219 -0.010574 22 20 15
-0.300781 -0.324219 -0.007228 22 19 15
-0.296875 -0.324219 -0.004740 21 18 14
-0.292969 -0.324219 -0.002505 22 18 14
-0.289062 -0.324219 -0.000403 22 18 15
-0.285156 -0.324219 -0.000143 19 14 13
-0.281250 -0.324219 -0.000954 22 16 15
-0.277344 -0.324219 -0.003369 25 20 19
-0.113281 -0.324219 0.024874 58 49 48
-0.109375 -0.324219 0.044632 36 31 29
-0.105469 -0.324219 0.057941 61 57 52
-0.101562 -0.324219 0.065169 75 70 65
-0.097656 -0.324219 0.070053 53 50 48
-0.093750 -0.324219 0.073682 40 38 36
-0.089844 -0.324219 0.076043 42 39 35
-0.085938 -0.324219 0.078167 40 37 33
-0.082031 -0.324219 0.079922 36 34 31
-0.078125 -0.324219 0.081364 39 36 34
-0.074219 -0.324219 0.082390 38 35 33
-0.070312 -0.324219 0.082825 37 35 32
-0.066406 -0.324219 0.083202 38 34 32
-0.062500 -0.324219 0.083988 34 31 30
-0.058594 -0.324219 0.085148 32 29 29
-0.054688 -0.324219 0.086632 32 29 30
-0.050781 -0.324219 0.088104 34 32 34
-0.046875 -0.324219 0.089551 42 41 43
-0.042969 -0.324219 0.091112 54 54 55
-0.039062 -0.324219 0.093028 66 67 67
-0.035156 -0.324219 0.095098 69 69 68
-0.031250 -0.324219 0.097437 72 72 70
-0.027344 -0.324219 0.099896 73 71 69
-0.023438 -0.324219 0.102177 67 65 64
-0.019531 -0.324219 0.104035 60 59 58
-0.015625 -0.324219 0.105014 55 55 55
-0.011719 -0.324219 0.105571 58 57 56
-0.007812 -0.324219 0.105951 63 62 59
-0.003906 -0.324219 0.106111 55 56 53
0.000000 -0.324219 0.106284 41 41 39
0.003906 -0.324219 0.106797 34 33 32
0.007812 -0.324219 0.107905 33 31 31
0.011719 -0.324219 0.109151 33 30 30
0.015625 -0.324219 0.110243 34 31 31
0.019531 -0.324219 0.110828 35 33 33
0.023438 -0.324219 0.110698 37 36 35
0.027344 -0.324219 0.110360 40 39 39
0.031250 -0.324219 0.109887 42 42 42
0.035156 -0.324219 0.109027 46 46 45
0.039062 -0.324219 0.107839 50 51 50
0.042969 -0.324219 0.106421 53 53 52
0.046875 -0.324219 0.105052 55 55 54
0.050781 -0.324219 0.104251 54 54 53
0.054688 -0.324219 0.103788 51 51 50
0.058594 -0.324219 0.103291 51 51 50
0.062500 -0.324219 0.102244 51 50 49
0.066406 -0.324219 0.101376 50 50 49
0.070312 -0.324219 0.100643 47 47 46
0.074219 -0.324219 0.099480 43 43 43
0.078125 -0.324219 0.100084 42 41 40
0.082031 -0.324219 0.101244 39 38 37
0.085938 -0.324219 0.101707 38 38 37
0.089844 -0.324219 0.102544 38 38 37
0.093750 -0.324219 0.102788 36 36 35
0.097656 -0.324219 0.100207 37 35 34
0.101562 -0.324219 0.094238 34 30 30
0.105469 -0.324219 0.083760 25 20 22
0.109375 -0.324219 0.066179 24 18 21
0.113281 -0.324219 0.044764 26 19 22
-0.488281 -0.328125 0.017627 46 43 40
-0.484375 -0.328125 0.023329 81 75 68
-0.480469 -0.328125 0.026397 53 54 54
-0.476562 -0.328125 0.027425 50 53 52
-0.472656 -0.328125 0.027516 62 62 59
-0.468750 -0.328125 0.027578 50 48 45
-0.464844 -0.328125 0.027009 49 46 41
-0.460938 -0.328125 0.026587 37 35 32
-0.457031 -0.328125 0.026609 35 33 30
-0.453125 -0.328125 0.026593 40 38 34
-0.449219 -0.328125 0.025911 37 35 32
-0.445312 -0.328125 0.024040 35 33 30
-0.441406 -0.328125 0.022015 35 32 29
-0.437500 -0.328125 0.020708 33 30 28
-0.433594 -0.328125 0.019894 33 30 27
-0.429688 -0.328125 0.019375 33 30 28
-0.425781 -0.328125 0.019208 31 29 27
-0.421875 -0.328125 0.019386 30 28 26
-0.417969 -0.328125 0.019775 31 28 26
-0.414062 -0.328125 0.020310 31 29 26
-0.410156 -0.328125 0.020741 31 29 26
-0.406250 -0.328125 0.021055 30 27 25
-0.402344 -0.328125 0.021275 30 28 26
-0.398438 -0.328125 0.021216 28 26 23
-0.394531 -0.328125 0.021030 26 24 22
-0.390625 -0.328125 0.020634 27 25 22
-0.386719 -0.328125 0.020149 25 23 21
-0.382812 -0.328125 0.019481 27 24 22
-0.378906 -0.328125 0.018356 29 26 23
-0.375000 -0.328125 0.017331 27 24 21
-0.371094 -0.328125 0.014739 26 24 20
-0.367188 -0.328125 0.010364 25 23 19
-0.363281 -0.328125 0.000176 24 22 18
-0.359375 -0.328125 -0.007654 23 21 17
-0.355469 -0.328125 -0.012985 22 20 16
-0.351562 -0.328125 -0.016699 22 20 16
-0.347656 -0.328125 -0.019596 23 21 17
-0.343750 -0.328125 -0.021911 24 22 17
-0.339844 -0.328125 -0.024079 25 23 18
-0.335938 -0.328125 -0.025656 27 25 19
-0.332031 -0.328125 -0.028408 27 25 19
-0.328125 -0.328125 -0.028586 27 24 19
-0.324219 -0.328125 -0.027981 27 24 18
-0.320312 -0.328125 -0.030767 26 23 18
-0.316406 -0.328125 -0.025913 25 22 17
-0.312500 -0.328125 -0.020911 25 22 17
-0.308594 -0.328125 -0.016522 25 22 16
-0.304688 -0.328125 -0.012728 22 19 14
-0.300781 -0.328125 -0.009177 22 18 14
-0.296875 -0.328125 -0.006645 23 18 14
-0.292969 -0.328125 -0.004170 23 18 14
-0.289062 -0.328125 -0.002139 24 18 16
-0.285156 -0.328125 -0.002084 19 14 13
-0.281250 -0.328125 -0.003226 24 17 15
-0.277344 -0.328125 -0.006760 27 20 22
-0.113281 -0.328125 0.037489 37 30 34
-0.109375 -0.328125 0.050504 41 37 38
-0.105469 -0.328125 0.058773 76 73 69
-0.101562 -0.328125 0.065115 71 68 65
-0.097656 -0.328125 0.069102 48 46 46
-0.093750 -0.328125 0.072775 42 39 38
-0.089844 -0.328125 0.075411 39 36 33
-0.085938 -0.328125 0.077554 34 31 28
-0.082031 -0.328125 0.079441 33 29 27
-0.078125 -0.328125 0.080997 35 31 29
-0.074219 -0.328125 0.082160 35 31 30
-0.070312 -0.328125 0.082860 33 30 29
-0.066406 -0.328125 0.083559 34 32 31
-0.062500 -0.328125 0.084737 35 34 34
-0.058594 -0.328125 0.086283 38 38 39
-0.054688 -0.328125 0.088013 45 45 46
-0.050781 -0.328125 0.089634 54 53 55
-0.046875 -0.328125 0.091046 68 66 67
-0.042969 -0.328125 0.092390 80 77 77
-0.039062 -0.328125 0.093871 78 76 75
-0.035156 -0.328125 0.095479 63 61 61
-0.031250 -0.328125 0.097474 55 51 52
-0.027344 -0.328125 0.099832 48 44 46
-0.023438 -0.328125 0.102226 38 35 38
-0.019531 -0.328125 0.104383 34 31 35
-0.015625 -0.328125 0.105777 33 31 34
-0.011719 -0.328125 0.106743 32 31 33
-0.007812 -0.328125 0.107579 32 32 33
-0.003906 -0.328125 0.108301 33 32 33
0.000000 -0.328125 0.109064 31 31 30
0.003906 -0.328125 0.109866 31 29 28
0.007812 -0.328125 0.110841 31 29 28
0.011719 -0.328125 0.111716 31 27 27
0.015625 -0.328125 0.112374 32 29 29
0.019531 -0.328125 0.112492 33 30 30
0.023438 -0.328125 0.111887 32 31 31
0.027344 -0.328125 0.111046 32 32 32
0.031250 -0.328125 0.110067 32 32 33
0.035156 -0.328125 0.108733 33 34 34
0.039062 -0.328125 0.107091 35 36 36
0.042969 -0.328125 0.105218 38 38 38
0.046875 -0.328125 0.103338 41 40 41
0.050781 -0.328125 0.102201 43 43 42
0.054688 -0.328125 0.101175 44 43 42
0.058594 -0.328125 0.099986 44 43 42
0.062500 -0.328125 0.098571 43 42 42
0.066406 -0.328125 0.097697 42 41 41
0.070312 -0.328125 0.096862 40 39 40
0.074219 -0.328125 0.096568 38 37 38
0.078125 -0.328125 0.098085 37 37 37
0.082031 -0.328125 0.099373 36 36 35
0.085938 -0.328125 0.099892 35 36 35
0.089844 -0.328125 0.101240 35 35 34
0.093750 -0.328125 0.101857 33 32 31
0.097656 -0.328125 0.099242 32 29 29
0.101562 -0.328125 0.092049 28 24 25
0.105469 -0.328125 0.080405 20 15 18
0.109375 -0.328125 0.049155 16 11 15
-0.488281 -0.332031 0.015960 62 58 59
-0.484375 -0.332031 0.022562 77 73 70
-0.480469 -0.332031 0.024990 49 51 50
-0.476562 -0.332031 0.025903 54 55 54
-0.472656 -0.332031 0.026305 64 63 60
-0.468750 -0.332031 0.026356 49 46 44
-0.464844 -0.332031 0.025638 41 38 34
-0.460938 -0.332031 0.025415 35 32 30
-0.457031 -0.332031 0.025941 36 33 30
-0.453125 -0.332031 0.026214 37 35 32
-0.449219 -0.332031 0.025605 35 33 30
-0.445312 -0.332031 0.023744 33 31 29
-0.441406 -0.332031 0.021711 34 31 29
-0.437500 -0.332031 0.020359 33 30 28
-0.433594 -0.332031 0.019424 33 30 27
-0.429688 -0.332031 0.018775 32 29 27
-0.425781 -0.332031 0.018506 32 29 26
-0.421875 -0.332031 0.018561 32 29 26
-0.417969 -0.332031 0.018812 33 30 27
-0.414062 -0.332031 0.019199 33 30 27
-0.410156 -0.332031 0.019505 32 29 26
-0.406250 -0.332031 0.019681 30 28 25
-0.402344 -0.332031 0.019791 32 29 26
-0.398438 -0.332031 0.019767 30 28 25
-0.394531 -0.332031 0.019678 30 27 24
-0.390625 -0.332031 0.019439 30 28 24
-0.386719 -0.332031 0.019128 27 25 22
-0.382812 -0.332031 0.018592 27 25 22
-0.378906 -0.332031 0.017558 27 25 22
-0.375000 -0.332031 0.016608 25 23 20
-0.371094 -0.332031 0.013819 25 23 19
-0.367188 -0.332031 0.008284 24 22 18
-0.363281 -0.332031 -0.003626 24 22 18
-0.359375 -0.332031 -0.011518 23 21 17
-0.355469 -0.332031 -0.016757 22 20 16
-0.351562 -0.332031 -0.020115 22 20 16
-0.347656 -0.332031 -0.022585 22 20 16
-0.343750 -0.332031 -0.024568 22 20 16
-0.339844 -0.332031 -0.026197 22 20 15
-0.335938 -0.332031 -0.027335 23 21 16
-0.332031 -0.332031 -0.026072 23 20 16
-0.324219 -0.332031 -0.020250 24 21 16
-0.320312 -0.332031 -0.021597 23 20 15
-0.316406 -0.332031 -0.031396 23 20 15
-0.312500 -0.332031 -0.023664 23 20 15
-0.308594 -0.332031 -0.018706 25 21 16
-0.304688 -0.332031 -0.014851 23 19 14
-0.300781 -0.332031 -0.011236 23 18 14
-0.296875 -0.332031 -0.008475 23 18 14
-0.292969 -0.332031 -0.005963 22 17 14
-0.289062 -0.332031 -0.004192 25 19 16
-0.285156 -0.332031 -0.003708 20 15 14
-0.281250 -0.332031 -0.005322 27 19 18
-0.277344 -0.332031 -0.012009 34 24 28
-0.117188 -0.332031 0.024841 38 33 32
-0.113281 -0.332031 0.043128 37 34 34
-0.109375 -0.332031 0.053374 59 57 57
-0.105469 -0.332031 0.059342 83 81 77
-0.101562 -0.332031 0.065100 64 63 61
-0.097656 -0.332031 0.068705 52 50 49
-0.093750 -0.332031 0.071904 55 51 48
-0.089844 -0.332031 0.074447 48 44 40
-0.085938 -0.332031 0.076685 38 35 33
-0.082031 -0.332031 0.078778 34 31 30
-0.078125 -0.332031 0.080680 31 29 29
-0.074219 -0.332031 0.082297 31 29 30
-0.070312 -0.332031 0.083626 33 32 33
-0.066406 -0.332031 0.084922 42 41 42
-0.062500 -0.332031 0.086444 53 53 53
-0.058594 -0.332031 0.088082 61 61 60
-0.054688 -0.332031 0.089629 68 66 66
-0.050781 -0.332031 0.090993 67 63 66
-0.046875 -0.332031 0.092046 61 56 60
-0.042969 -0.332031 0.092943 53 47 52
-0.039062 -0.332031 0.093885 45 38 43
-0.035156 -0.332031 0.094963 36 30 34
-0.031250 -0.332031 0.096553 32 26 30
-0.027344 -0.332031 0.098769 31 24 29
-0.023438 -0.332031 0.101377 27 21 26
-0.019531 -0.332031 0.104071 27 22 27
-0.015625 -0.332031 0.106139 29 24 28
-0.011719 -0.332031 0.107800 26 23 26
-0.007812 -0.332031 0.109296 25 22 25
-0.003906 -0.332031 0.110663 26 24 25
0.000000 -0.332031 0.111956 26 24 25
0.003906 -0.332031 0.112934 25 23 24
0.007812 -0.332031 0.113711 23 22 23
0.011719 -0.332031 0.114232 22 20 22
0.015625 -0.332031 0.114530 23 21 23
0.019531 -0.332031 0.114259 24 22 24
0.023438 -0.332031 0.113277 24 23 25
0.027344 -0.332031 0.112034 25 25 26
0.031250 -0.332031 0.110620 27 27 28
0.035156 -0.332031 0.108876 29 29 30
0.039062 -0.332031 0.106771 29 29 30
0.042969 -0.332031 0.104257 29 29 30
0.046875 -0.332031 0.101468 30 30 31
0.050781 -0.332031 0.099392 33 33 33
0.054688 -0.332031 0.097169 34 33 34
0.058594 -0.332031 0.094892 35 34 34
0.062500 -0.332031 0.092984 33 33 33
0.066406 -0.332031 0.091779 33 32 33
0.070312 -0.332031 0.091837 32 32 32
0.074219 -0.332031 0.092856 32 32 32
0.078125 -0.332031 0.095421 32 33 33
0.082031 -0.332031 0.096812 32 33 32
0.085938 -0.332031 0.097713 32 33 32
0.089844 -0.332031 0.099259 31 33 31
0.093750 -0.332031 0.100609 29 29 29
0.097656 -0.332031 0.098276 27 24 26
0.101562 -0.332031 0.092259 22 18 21
0.105469 -0.332031 0.072985 12 9 13
-0.488281 -0.335938 0.014711 63 62 63
-0.484375 -0.335938 0.021335 69 65 66
-0.480469 -0.335938 0.023338 49 49 50
-0.476562 -0.335938 0.024281 53 54 53
-0.472656 -0.335938 0.025005 65 63 59
-0.468750 -0.335938 0.025103 48 44 41
-0.464844 -0.335938 0.024481 35 32 30
-0.460938 -0.335938 0.024587 35 32 29
-0.457031 -0.335938 0.025462 38 35 31
-0.453125 -0.335938 0.025912 36 34 31
-0.449219 -0.335938 0.025382 35 33 30
-0.445312 -0.335938 0.023536 34 32 29
-0.441406 -0.335938 0.021481 35 32 29
-0.437500 -0.335938 0.020071 35 32 29
-0.433594 -0.335938 0.018995 33 30 27
-0.429688 -0.335938 0.018214 32 29 26
-0.425781 -0.335938 0.017820 32 29 26
-0.421875 -0.335938 0.017717 32 29 26
-0.417969 -0.335938 0.017793 31 29 25
-0.414062 -0.335938 0.018016 32 29 26
-0.410156 -0.335938 0.018194 31 29 26
-0.406250 -0.335938 0.018269 30 28 25
-0.402344 -0.335938 0.018313 32 29 25
-0.398438 -0.335938 0.018321 30 28 25
-0.394531 -0.335938 0.018328 30 27 24
-0.390625 -0.335938 0.018255 30 27 24
-0.386719 -0.335938 0.018092 27 25 22
-0.382812 -0.335938 0.017595 27 24 21
-0.378906 -0.335938 0.016685 26 24 21
-0.375000 -0.335938 0.015644 24 22 19
-0.371094 -0.335938 0.012608 24 22 19
-0.367188 -0.335938 0.005756 24 22 18
-0.363281 -0.335938 -0.007544 24 22 18
-0.359375 -0.335938 -0.015301 24 22 17
-0.355469 -0.335938 -0.020288 24 22 17
-0.351562 -0.335938 -0.023229 24 22 17
-0.347656 -0.335938 -0.025267 25 23 18
-0.343750 -0.335938 -0.026902 24 22 17
-0.339844 -0.335938 -0.027970 23 20 15
-0.335938 -0.335938 -0.029021 23 21 16
-0.316406 -0.335938 -0.023723 22 19 14
-0.312500 -0.335938 -0.026346 22 19 14
-0.308594 -0.335938 -0.020711 25 21 15
-0.304688 -0.335938 -0.016828 24 19 15
-0.300781 -0.335938 -0.013211 24 18 14
-0.296875 -0.335938 -0.010384 25 19 15
-0.292969 -0.335938 -0.008353 23 17 14
-0.289062 -0.335938 -0.006708 27 21 17
-0.285156 -0.335938 -0.006234 23 18 16
-0.281250 -0.335938 -0.009039 38 29 27
-0.117188 -0.335938 0.030731 31 28 26
-0.113281 -0.335938 0.045639 43 42 41
-0.109375 -0.335938 0.054248 72 70 68
-0.105469 -0.335938 0.059907 68 66 64
-0.101562 -0.335938 0.064802 49 48 48
-0.097656 -0.335938 0.067952 46 45 45
-0.093750 -0.335938 0.070929 50 47 46
-0.089844 -0.335938 0.073589 46 43 41
-0.085938 -0.335938 0.076027 42 40 39
-0.082031 -0.335938 0.078415 41 41 40
-0.078125 -0.335938 0.080806 42 42 42
-0.074219 -0.335938 0.082973 50 49 50
-0.070312 -0.335938 0.084829 63 61 62
-0.066406 -0.335938 0.086500 75 74 72
-0.062500 -0.335938 0.087995 74 73 71
-0.058594 -0.335938 0.089321 60 59 59
-0.054688 -0.335938 0.090393 50 47 49
-0.050781 -0.335938 0.091291 40 35 40
-0.046875 -0.335938 0.091975 32 28 32
-0.042969 -0.335938 0.092637 28 23 27
-0.039062 -0.335938 0.093439 24 19 23
-0.035156 -0.335938 0.094418 20 15 19
-0.031250 -0.335938 0.096009 19 14 18
-0.027344 -0.335938 0.098321 20 15 19
-0.023438 -0.335938 0.101124 19 15 19
-0.019531 -0.335938 0.104201 22 17 21
-0.015625 -0.335938 0.106772 23 19 22
-0.011719 -0.335938 0.108978 21 17 20
-0.007812 -0.335938 0.111004 20 17 19
-0.003906 -0.335938 0.112759 20 18 19
0.000000 -0.335938 0.114238 19 17 18
0.003906 -0.335938 0.115183 18 16 17
0.007812 -0.335938 0.115717 17 16 17
0.011719 -0.335938 0.115946 16 16 17
0.015625 -0.335938 0.115990 17 16 18
0.019531 -0.335938 0.115501 17 17 19
0.023438 -0.335938 0.114337 18 18 19
0.027344 -0.335938 0.112842 19 19 20
0.031250 -0.335938 0.111132 20 20 21
0.035156 -0.335938 0.109084 22 22 22
0.039062 -0.335938 0.106603 23 22 23
0.042969 -0.335938 0.103751 22 22 22
0.046875 -0.335938 0.100314 24 24 24
0.050781 -0.335938 0.097288 28 27 27
0.054688 -0.335938 0.093769 30 28 28
0.058594 -0.335938 0.089923 29 28 28
0.062500 -0.335938 0.086406 27 27 27
0.066406 -0.335938 0.085306 26 26 26
0.070312 -0.335938 0.086724 26 26 25
0.074219 -0.335938 0.089223 26 26 25
0.078125 -0.335938 0.092222 26 27 26
0.082031 -0.335938 0.093763 26 27 26
0.085938 -0.335938 0.095145 28 28 27
0.089844 -0.335938 0.096751 29 30 29
0.093750 -0.335938 0.098201 29 29 28
0.097656 -0.335938 0.095542 25 23 25
0.101562 -0.335938 0.089087 18 15 18
0.105469 -0.335938 0.027067 8 6 11
-0.488281 -0.339844 0.013563 83 81 80
-0.484375 -0.339844 0.019715 60 57 59
-0.480469 -0.339844 0.021726 51 50 52
-0.476562 -0.339844 0.022824 50 50 49
-0.472656 -0.339844 0.023901 59 57 53
-0.468750 -0.339844 0.024113 45 41 38
-0.464844 -0.339844 0.023784 34 30 28
-0.460938 -0.339844 0.024297 36 33 30
-0.457031 -0.339844 0.025320 40 36 33
-0.453125 -0.339844 0.025801 37 34 31
-0.449219 -0.339844 0.025276 35 32 30
-0.445312 -0.339844 0.023477 34 31 29
-0.441406 -0.339844 0.021359 35 33 30
-0.437500 -0.339844 0.019847 36 33 30
-0.433594 -0.339844 0.018598 33 30 28
-0.429688 -0.339844 0.017618 32 29 26
-0.425781 -0.339844 0.017012 31 28 26
-0.421875 -0.339844 0.016718 30 27 24
-0.417969 -0.339844 0.016619 28 25 23
-0.414062 -0.339844 0.016699 29 26 24
-0.410156 -0.339844 0.016762 29 27 24
-0.406250 -0.339844 0.016757 28 26 24
-0.402344 -0.339844 0.016764 29 26 24
-0.398438 -0.339844 0.016829 27 25 23
-0.394531 -0.339844 0.016999 27 24 22
-0.390625 -0.339844 0.017120 27 25 22
-0.386719 -0.339844 0.017049 27 25 22
-0.382812 -0.339844 0.016585 28 25 22
-0.378906 -0.339844 0.015815 28 25 22
-0.375000 -0.339844 0.014591 26 24 20
-0.371094 -0.339844 0.011293 25 23 19
-0.367188 -0.339844 0.003114 25 23 19
-0.363281 -0.339844 -0.011117 25 22 18
-0.359375 -0.339844 -0.018545 24 22 17
-0.355469 -0.339844 -0.023268 25 23 17
-0.351562 -0.339844 -0.025881 25 23 18
-0.347656 -0.339844 -0.027579 27 24 18
-0.343750 -0.339844 -0.028995 25 23 17
-0.339844 -0.339844 -0.029723 24 21 16
-0.335938 -0.339844 -0.030255 25 22 16
-0.316406 -0.339844 -0.020441 22 19 14
-0.312500 -0.339844 -0.028473 21 18 13
-0.308594 -0.339844 -0.022702 24 20 15
-0.304688 -0.339844 -0.018762 24 19 15
-0.300781 -0.339844 -0.015222 23 17 14
-0.296875 -0.339844 -0.012340 26 19 16
-0.292969 -0.339844 -0.010222 22 16 14
-0.289062 -0.339844 -0.009571 22 17 15
-0.285156 -0.339844 -0.010699 16 12 14
-0.281250 -0.339844 -0.015654 27 21 22
-0.121094 -0.339844 0.024796 43 38 36
-0.117188 -0.339844 0.034904 40 37 34
-0.113281 -0.339844 0.047709 66 64 61
-0.109375 -0.339844 0.055435 74 72 69
-0.105469 -0.339844 0.060518 52 50 51
-0.101562 -0.339844 0.064725 45 43 45
-0.097656 -0.339844 0.067830 49 47 48
-0.093750 -0.339844 0.070739 50 47 48
-0.089844 -0.339844 0.073377 48 47 47
-0.085938 -0.339844 0.075973 53 52 52
-0.082031 -0.339844 0.078483 60 61 59
-0.078125 -0.339844 0.081043 66 67 65
-0.074219 -0.339844 0.083395 71 70 69
-0.070312 -0.339844 0.085327 70 67 66
-0.066406 -0.339844 0.087068 62 59 58
-0.062500 -0.339844 0.088487 48 45 47
-0.058594 -0.339844 0.089637 36 33 36
-0.054688 -0.339844 0.090416 30 26 29
-0.050781 -0.339844 0.091031 26 20 25
-0.046875 -0.339844 0.091574 24 18 22
-0.042969 -0.339844 0.092315 21 15 20
-0.039062 -0.339844 0.093410 16 12 15
-0.035156 -0.339844 0.094788 12 9 12
-0.031250 -0.339844 0.096889 11 8 12
-0.027344 -0.339844 0.099581 12 10 14
-0.023438 -0.339844 0.102623 13 11 15
-0.019531 -0.339844 0.105974 16 14 18
-0.015625 -0.339844 0.108687 17 16 19
-0.011719 -0.339844 0.111030 17 16 18
-0.007812 -0.339844 0.113173 18 17 18
-0.003906 -0.339844 0.114901 19 18 18
0.000000 -0.339844 0.116293 19 18 19
0.003906 -0.339844 0.117083 19 19 19
0.007812 -0.339844 0.117416 19 19 19
0.011719 -0.339844 0.117454 19 20 20
0.015625 -0.339844 0.117315 20 21 21
0.019531 -0.339844 0.116700 20 21 21
0.023438 -0.339844 0.115464 21 22 22
0.027344 -0.339844 0.113847 22 23 23
0.031250 -0.339844 0.111970 22 23 23
0.035156 -0.339844 0.109792 23 23 23
0.039062 -0.339844 0.107078 23 24 23
0.042969 -0.339844 0.104107 23 23 23
0.046875 -0.339844 0.100532 26 26 25
0.050781 -0.339844 0.097299 29 29 28
0.054688 -0.339844 0.093093 29 28 27
0.058594 -0.339844 0.087158 28 27 26
0.062500 -0.339844 0.081910 25 25 24
0.066406 -0.339844 0.080982 24 24 22
0.070312 -0.339844 0.082629 23 23 22
0.074219 -0.339844 0.086319 23 23 21
0.078125 -0.339844 0.088891 23 23 21
0.082031 -0.339844 0.090737 22 22 21
0.085938 -0.339844 0.092406 24 25 23
0.089844 -0.339844 0.093943 29 30 28
0.093750 -0.339844 0.095057 31 31 29
0.097656 -0.339844 0.092026 25 22 24
0.101562 -0.339844 0.082641 17 14 17
-0.488281 -0.343750 0.010558 80 76 78
-0.484375 -0.343750 0.017211 53 52 54
-0.480469 -0.343750 0.020204 60 57 59
-0.476562 -0.343750 0.021920 51 49 49
-0.472656 -0.343750 0.023125 54 52 48
-0.468750 -0.343750 0.023333 42 38 35
-0.464844 -0.343750 0.023336 34 31 28
-0.460938 -0.343750 0.024253 36 33 30
-0.457031 -0.343750 0.025277 38 35 32
-0.453125 -0.343750 0.025669 38 34 32
-0.449219 -0.343750 0.025152 35 32 30
-0.445312 -0.343750 0.023441 34 31 29
-0.441406 -0.343750 0.021274 36 33 30
-0.437500 -0.343750 0.019653 36 33 30
-0.433594 -0.343750 0.018267 34 31 28
-0.429688 -0.343750 0.017090 33 30 27
-0.425781 -0.343750 0.016242 31 29 26
-0.421875 -0.343750 0.015724 29 27 24
-0.417969 -0.343750 0.015470 28 25 23
-0.414062 -0.343750 0.015411 28 26 23
-0.410156 -0.343750 0.015349 29 26 24
-0.406250 -0.343750 0.015254 28 26 23
-0.402344 -0.343750 0.015236 29 26 23
-0.398438 -0.343750 0.015391 28 26 23
-0.394531 -0.343750 0.015753 28 26 23
-0.390625 -0.343750 0.016050 28 26 23
-0.386719 -0.343750 0.015989 28 25 22
-0.382812 -0.343750 0.015683 28 25 22
-0.378906 -0.343750 0.014944 27 24 21
-0.375000 -0.343750 0.013358 25 22 19
-0.371094 -0.343750 0.009823 24 22 18
-0.367188 -0.343750 0.000021 25 22 18
-0.363281 -0.343750 -0.014725 25 22 17
-0.359375 -0.343750 -0.021726 25 22 17
-0.355469 -0.343750 -0.025995 25 22 17
-0.351562 -0.343750 -0.028281 24 22 16
-0.347656 -0.343750 -0.029749 24 22 16
-0.343750 -0.343750 -0.031037 23 21 16
-0.339844 -0.343750 -0.031637 23 20 15
-0.335938 -0.343750 -0.031881 24 21 16
-0.316406 -0.343750 -0.020399 21 18 13
-0.312500 -0.343750 -0.026837 21 18 13
-0.308594 -0.343750 -0.024381 24 20 15
-0.304688 -0.343750 -0.021039 23 19 15
-0.300781 -0.343750 -0.017905 22 16 14
-0.296875 -0.343750 -0.015189 25 18 15
-0.292969 -0.343750 -0.013373 21 15 13
-0.289062 -0.343750 -0.013851 24 19 16
-0.285156 -0.343750 -0.017302 20 17 19
-0.121094 -0.343750 0.028123 33 29 33
-0.117188 -0.343750 0.040886 47 45 46
-0.113281 -0.343750 0.050098 81 76 73
-0.109375 -0.343750 0.056961 67 64 63
-0.105469 -0.343750 0.061186 50 48 50
-0.101562 -0.343750 0.065104 63 59 60
-0.097656 -0.343750 0.068259 74 69 68
-0.093750 -0.343750 0.071033 72 69 68
-0.089844 -0.343750 0.073588 73 70 70
-0.085938 -0.343750 0.076084 79 77 75
-0.082031 -0.343750 0.078384 84 82 77
-0.078125 -0.343750 0.080692 78 76 71
-0.074219 -0.343750 0.082876 61 60 58
-0.070312 -0.343750 0.084807 43 41 41
-0.066406 -0.343750 0.086763 32 29 31
-0.062500 -0.343750 0.088434 26 24 27
-0.058594 -0.343750 0.089776 23 21 24
-0.054688 -0.343750 0.090574 21 17 21
-0.050781 -0.343750 0.091242 18 14 18
-0.046875 -0.343750 0.091972 16 12 16
-0.042969 -0.343750 0.093171 14 11 15
-0.039062 -0.343750 0.094938 12 10 13
-0.035156 -0.343750 0.096912 12 9 13
-0.031250 -0.343750 0.099447 14 12 16
-0.027344 -0.343750 0.102464 20 18 22
-0.023438 -0.343750 0.105765 25 25 28
-0.019531 -0.343750 0.109242 31 31 34
-0.015625 -0.343750 0.111752 34 35 37
-0.011719 -0.343750 0.113824 36 36 37
-0.007812 -0.343750 0.115758 38 38 37
-0.003906 -0.343750 0.117188 38 39 36
0.000000 -0.343750 0.118349 38 40 36
0.003906 -0.343750 0.118961 41 43 39
0.007812 -0.343750 0.119115 42 45 41
0.011719 -0.343750 0.119024 42 46 41
0.015625 -0.343750 0.118797 42 46 41
0.019531 -0.343750 0.118156 41 44 39
0.023438 -0.343750 0.117003 41 45 40
0.027344 -0.343750 0.115464 43 47 42
0.031250 -0.343750 0.113564 44 48 42
0.035156 -0.343750 0.111530 44 47 42
0.039062 -0.343750 0.108734 45 47 43
0.042969 -0.343750 0.105609 46 47 43
0.046875 -0.343750 0.101984 46 46 43
0.050781 -0.343750 0.098541 43 43 40
0.054688 -0.343750 0.093511 36 36 33
0.058594 -0.343750 0.086082 30 29 27
0.062500 -0.343750 0.080913 26 26 23
0.066406 -0.343750 0.079137 25 24 22
0.070312 -0.343750 0.080728 23 23 21
0.074219 -0.343750 0.083136 23 23 20
0.078125 -0.343750 0.085479 23 23 20
0.082031 -0.343750 0.087557 21 21 19
0.085938 -0.343750 0.089169 23 23 21
0.089844 -0.343750 0.090371 27 28 25
0.093750 -0.343750 0.091273 32 31 28
0.097656 -0.343750 0.088714 28 26 25
0.101562 -0.343750 0.075068 21 18 19
-0.488281 -0.347656 0.005091 70 68 70
-0.484375 -0.347656 0.013640 54 53 54
-0.480469 -0.347656 0.018851 69 65 66
-0.476562 -0.347656 0.021597 54 52 51
-0.472656 -0.347656 0.022731 51 48 44
-0.468750 -0.347656 0.022888 38 35 33
-0.464844 -0.347656 0.023145 36 32 30
-0.460938 -0.347656 0.024297 38 35 32
-0.457031 -0.347656 0.025185 38 35 32
-0.453125 -0.347656 0.025412 38 35 32
-0.449219 -0.347656 0.024909 36 33 31
-0.445312 -0.347656 0.023322 34 31 29
-0.441406 -0.347656 0.021251 34 32 29
-0.437500 -0.347656 0.019518 34 31 29
-0.433594 -0.347656 0.018053 33 30 28
-0.429688 -0.347656 0.016701 32 30 27
-0.425781 -0.347656 0.015620 31 28 26
-0.421875 -0.347656 0.014882 29 27 24
-0.417969 -0.347656 0.014485 29 27 24
-0.414062 -0.347656 0.014264 29 26 24
-0.410156 -0.347656 0.014046 28 26 23
-0.406250 -0.347656 0.013833 28 25 23
-0.402344 -0.347656 0.013772 28 26 23
-0.398438 -0.347656 0.013992 28 25 22
-0.394531 -0.347656 0.014407 27 25 22
-0.390625 -0.347656 0.014779 27 24 21
-0.386719 -0.347656 0.014711 26 24 21
-0.382812 -0.347656 0.014522 26 24 21
-0.378906 -0.347656 0.013797 25 23 20
-0.375000 -0.347656 0.011834 24 22 18
-0.371094 -0.347656 0.008152 23 21 17
-0.367188 -0.347656 -0.003742 24 21 17
-0.363281 -0.347656 -0.018432 23 21 16
-0.359375 -0.347656 -0.024941 24 21 16
-0.355469 -0.347656 -0.028560 24 21 16
-0.351562 -0.347656 -0.030486 23 21 16
-0.347656 -0.347656 -0.031773 24 21 16
-0.343750 -0.347656 -0.032900 24 21 16
-0.339844 -0.347656 -0.033439 25 22 16
-0.335938 -0.347656 -0.033127 26 23 17
-0.332031 -0.347656 -0.033761 26 23 16
-0.316406 -0.347656 -0.020741 23 19 14
-0.312500 -0.347656 -0.027219 22 19 14
-0.308594 -0.347656 -0.025098 23 19 15
-0.304688 -0.347656 -0.022765 23 19 15
-0.300781 -0.347656 -0.019644 21 16 14
-0.296875 -0.347656 -0.018206 26 19 16
-0.292969 -0.347656 -0.018962 23 17 16
-0.289062 -0.347656 -0.021300 40 32 28
-0.125000 -0.347656 0.022740 37 27 31
-0.121094 -0.347656 0.033494 44 43 41
-0.117188 -0.347656 0.044624 72 71 67
-0.113281 -0.347656 0.051955 85 81 77
-0.109375 -0.347656 0.058376 66 64 63
-0.105469 -0.347656 0.062518 63 61 61
-0.101562 -0.347656 0.065944 81 77 74
-0.097656 -0.347656 0.068715 79 75 73
-0.093750 -0.347656 0.071266 74 72 71
-0.089844 -0.347656 0.073589 76 73 72
-0.085938 -0.347656 0.075751 72 68 67
-0.082031 -0.347656 0.077636 63 59 57
-0.078125 -0.347656 0.079639 50 47 46
-0.074219 -0.347656 0.081842 36 35 35
-0.070312 -0.347656 0.084096 27 25 26
-0.066406 -0.347656 0.086530 22 19 22
-0.062500 -0.347656 0.088713 20 18 22
-0.058594 -0.347656 0.090435 21 19 24
-0.054688 -0.347656 0.091539 21 20 24
-0.050781 -0.347656 0.092545 23 21 25
-0.046875 -0.347656 0.093755 27 25 29
-0.042969 -0.347656 0.095615 33 30 34
-0.039062 -0.347656 0.098050 37 35 38
-0.035156 -0.347656 0.100572 37 35 37
-0.031250 -0.347656 0.103491 39 37 39
-0.027344 -0.347656 0.106816 46 46 45
-0.023438 -0.347656 0.110292 55 56 54
-0.019531 -0.347656 0.113630 59 61 58
-0.015625 -0.347656 0.115630 57 58 55
-0.011719 -0.347656 0.117082 52 54 49
-0.007812 -0.347656 0.118525 49 49 44
-0.003906 -0.347656 0.119464 44 44 39
0.000000 -0.347656 0.120256 39 40 36
0.003906 -0.347656 0.120611 40 42 37
0.007812 -0.347656 0.120554 41 43 37
0.011719 -0.347656 0.120341 40 42 37
0.015625 -0.347656 0.120116 40 42 36
0.019531 -0.347656 0.119565 39 40 35
0.023438 -0.347656 0.118542 39 41 35
0.027344 -0.347656 0.117139 41 42 36
0.031250 -0.347656 0.115181 42 43 37
0.035156 -0.347656 0.113180 42 42 36
0.039062 -0.347656 0.110177 45 45 39
0.042969 -0.347656 0.106708 46 46 40
0.046875 -0.347656 0.103300 46 45 40
0.050781 -0.347656 0.099567 44 43 38
0.054688 -0.347656 0.093869 36 36 31
0.058594 -0.347656 0.087048 30 30 26
0.062500 -0.347656 0.081149 27 26 23
0.066406 -0.347656 0.079605 26 25 22
0.070312 -0.347656 0.079239 24 24 21
0.074219 -0.347656 0.080252 23 23 20
0.078125 -0.347656 0.082446 23 22 19
0.082031 -0.347656 0.084521 22 21 19
0.085938 -0.347656 0.086130 23 23 20
0.089844 -0.347656 0.087052 25 25 22
0.093750 -0.347656 0.087490 33 31 27
0.097656 -0.347656 0.085855 35 31 27
0.101562 -0.347656 0.068665 28 23 22
-0.484375 -0.351562 0.009497 53 52 53
-0.480469 -0.351562 0.017559 64 61 61
-0.476562 -0.351562 0.021373 55 52 51
-0.472656 -0.351562 0.022472 48 45 42
-0.468750 -0.351562 0.022667 35 32 30
-0.464844 -0.351562 0.023110 37 33 31
-0.460938 -0.351562 0.024437 40 37 34
-0.457031 -0.351562 0.025271 37 34 32
-0.453125 -0.351562 0.025353 37 33 31
-0.449219 -0.351562 0.024800 35 32 30
-0.445312 -0.351562 0.023295 33 31 29
-0.441406 -0.351562 0.021383 34 31 29
-0.437500 -0.351562 0.019563 33 31 29
-0.433594 -0.351562 0.018032 33 30 28
-0.429688 -0.351562 0.016519 32 29 27
-0.425781 -0.351562 0.015191 30 27 25
-0.421875 -0.351562 0.014219 29 26 24
-0.417969 -0.351562 0.013616 30 27 24
-0.414062 -0.351562 0.013190 29 26 24
-0.410156 -0.351562 0.012796 28 25 22
-0.406250 -0.351562 0.012426 27 25 22
-0.402344 -0.351562 0.012267 28 25 22
-0.398438 -0.351562 0.012442 27 25 22
-0.394531 -0.351562 0.012821 27 24 22
-0.390625 -0.351562 0.013200 26 24 21
-0.386719 -0.351562 0.013182 26 23 20
-0.382812 -0.351562 0.012937 26 23 20
-0.378906 -0.351562 0.012021 25 23 19
-0.375000 -0.351562 0.009689 24 22 18
-0.371094 -0.351562 0.005769 23 21 17
-0.367188 -0.351562 -0.008438 23 21 16
-0.363281 -0.351562 -0.022086 23 20 16
-0.359375 -0.351562 -0.028134 23 20 16
-0.355469 -0.351562 -0.031077 23 20 16
-0.351562 -0.351562 -0.032609 23 20 15
-0.347656 -0.351562 -0.033654 23 20 15
-0.343750 -0.351562 -0.034515 24 21 15
-0.339844 -0.351562 -0.034940 24 21 16
-0.335938 -0.351562 -0.034406 26 22 16
-0.332031 -0.351562 -0.034305 26 22 16
-0.328125 -0.351562 -0.035331 25 21 16
-0.324219 -0.351562 -0.031652 25 22 16
-0.320312 -0.351562 -0.026950 23 20 14
-0.316406 -0.351562 -0.028113 23 20 14
-0.312500 -0.351562 -0.028563 22 19 14
-0.308594 -0.351562 -0.025225 22 18 14
-0.304688 -0.351562 -0.023969 24 19 16
-0.300781 -0.351562 -0.022413 23 18 15
-0.296875 -0.351562 -0.023115 28 22 17
-0.292969 -0.351562 -0.026033 21 16 16
-0.125000 -0.351562 0.024163 21 18 22
-0.121094 -0.351562 0.035795 42 44 41
-0.117188 -0.351562 0.046348 76 76 69
-0.113281 -0.351562 0.053592 69 67 64
-0.109375 -0.351562 0.059810 65 65 62
-0.105469 -0.351562 0.063896 74 73 70
-0.101562 -0.351562 0.066790 83 80 75
-0.097656 -0.351562 0.069142 74 71 69
-0.093750 -0.351562 0.071312 74 72 70
-0.089844 -0.351562 0.073279 73 70 68
-0.085938 -0.351562 0.075183 54 51 50
-0.082031 -0.351562 0.076946 40 37 37
-0.078125 -0.351562 0.079069 33 31 31
-0.074219 -0.351562 0.081680 28 26 27
-0.070312 -0.351562 0.084587 25 23 25
-0.066406 -0.351562 0.087715 25 23 26
-0.062500 -0.351562 0.090515 28 26 30
-0.058594 -0.351562 0.092670 35 35 40
-0.054688 -0.351562 0.094038 44 44 49
-0.050781 -0.351562 0.095328 54 53 56
-0.046875 -0.351562 0.096854 64 62 65
-0.042969 -0.351562 0.098872 73 71 71
-0.039062 -0.351562 0.101381 75 73 73
-0.035156 -0.351562 0.103984 65 65 65
-0.031250 -0.351562 0.106920 59 60 59
-0.027344 -0.351562 0.110117 63 64 62
-0.023438 -0.351562 0.113393 67 67 64
-0.019531 -0.351562 0.116425 57 58 55
-0.015625 -0.351562 0.117994 42 42 40
-0.011719 -0.351562 0.118989 32 32 31
-0.007812 -0.351562 0.120063 26 26 25
-0.003906 -0.351562 0.120702 23 22 21
0.000000 -0.351562 0.121261 21 20 20
0.003906 -0.351562 0.121385 20 20 19
0.007812 -0.351562 0.121097 20 20 19
0.011719 -0.351562 0.120712 20 20 18
0.015625 -0.351562 0.120395 21 20 19
0.019531 -0.351562 0.119807 21 21 19
0.023438 -0.351562 0.118741 22 21 19
0.027344 -0.351562 0.117339 22 21 19
0.031250 -0.351562 0.115191 22 21 19
0.035156 -0.351562 0.113115 23 21 19
0.039062 -0.351562 0.109862 24 22 21
0.042969 -0.351562 0.105994 24 22 21
0.046875 -0.351562 0.102608 24 22 21
0.050781 -0.351562 0.098348 26 24 22
0.054688 -0.351562 0.093426 25 24 21
0.058594 -0.351562 0.086288 25 23 20
0.062500 -0.351562 0.081722 24 22 19
0.066406 -0.351562 0.079240 24 22 19
0.070312 -0.351562 0.077984 23 21 19
0.074219 -0.351562 0.078362 21 20 17
0.078125 -0.351562 0.079925 20 19 17
0.082031 -0.351562 0.081768 20 19 17
0.085938 -0.351562 0.082865 22 21 19
0.089844 -0.351562 0.083476 24 24 21
0.093750 -0.351562 0.083802 32 30 25
0.097656 -0.351562 0.083000 35 31 27
0.101562 -0.351562 0.062443 36 31 28
-0.484375 -0.355469 0.005257 57 55 55
-0.480469 -0.355469 0.016308 59 57 56
-0.476562 -0.355469 0.021042 58 54 53
-0.472656 -0.355469 0.022136 46 42 40
-0.468750 -0.355469 0.022432 34 31 30
-0.464844 -0.355469 0.023001 38 34 32
-0.460938 -0.355469 0.024493 41 37 35
-0.457031 -0.355469 0.025304 36 34 32
-0.453125 -0.355469 0.025329 36 33 31
-0.449219 -0.355469 0.024776 35 32 30
-0.445312 -0.355469 0.023389 35 32 30
-0.441406 -0.355469 0.021584 36 33 30
-0.437500 -0.355469 0.019787 35 33 30
-0.433594 -0.355469 0.018135 35 32 30
-0.429688 -0.355469 0.016517 33 31 28
-0.425781 -0.355469 0.014988 31 29 26
-0.421875 -0.355469 0.013780 30 27 25
-0.417969 -0.355469 0.012944 30 27 24
-0.414062 -0.355469 0.012297 29 26 23
-0.410156 -0.355469 0.011711 27 25 22
-0.406250 -0.355469 0.011132 27 24 22
-0.402344 -0.355469 0.010790 28 25 22
-0.398438 -0.355469 0.010775 27 25 22
-0.394531 -0.355469 0.010958 27 24 21
-0.390625 -0.355469 0.011224 27 24 21
-0.386719 -0.355469 0.011224 25 23 20
