ply
    format ascii 1.0
    element vertex 35144
    property float x
    property float y
    property float z
    property uchar red
    property uchar green
    property uchar blue
    end_header
-0.089844 -0.343750 -0.019349 49 49 47
-0.085938 -0.343750 -0.027044 49 48 49
-0.082031 -0.343750 -0.032190 51 50 52
-0.078125 -0.343750 -0.035903 52 50 51
-0.074219 -0.343750 -0.038733 57 54 55
-0.070312 -0.343750 -0.041468 61 59 59
-0.066406 -0.343750 -0.043657 62 60 60
-0.062500 -0.343750 -0.045550 63 61 61
-0.058594 -0.343750 -0.046775 61 59 59
-0.054688 -0.343750 -0.047385 61 59 59
-0.050781 -0.343750 -0.047876 61 59 60
-0.046875 -0.343750 -0.048074 58 56 57
-0.042969 -0.343750 -0.047687 55 53 54
-0.039062 -0.343750 -0.046484 51 49 51
-0.035156 -0.343750 -0.045557 47 46 48
-0.031250 -0.343750 -0.044529 44 43 46
-0.027344 -0.343750 -0.042795 42 42 45
-0.023438 -0.343750 -0.040395 40 39 42
-0.019531 -0.343750 -0.038011 37 37 39
-0.015625 -0.343750 -0.035780 35 35 37
-0.011719 -0.343750 -0.032843 34 34 35
-0.007812 -0.343750 -0.029279 31 32 33
-0.003906 -0.343750 -0.024550 31 31 32
0.000000 -0.343750 -0.019790 31 30 31
0.003906 -0.343750 -0.013108 23 22 24
0.007812 -0.343750 0.001957 33 34 33
0.082031 -0.343750 -0.007210 34 33 33
0.085938 -0.343750 -0.020329 30 27 28
0.089844 -0.343750 -0.028170 34 32 35
0.093750 -0.343750 -0.033703 39 37 39
0.097656 -0.343750 -0.038299 37 34 36
0.101562 -0.343750 -0.041755 38 36 37
0.105469 -0.343750 -0.045295 37 34 36
0.109375 -0.343750 -0.048702 38 36 36
0.113281 -0.343750 -0.050857 42 41 40
0.117188 -0.343750 -0.051890 41 40 40
0.121094 -0.343750 -0.053015 40 40 40
0.125000 -0.343750 -0.053829 39 38 39
0.128906 -0.343750 -0.053763 36 35 37
0.132812 -0.343750 -0.052902 36 35 36
0.136719 -0.343750 -0.052138 34 33 34
0.140625 -0.343750 -0.051207 34 32 33
0.144531 -0.343750 -0.049551 34 32 33
0.148438 -0.343750 -0.047143 30 29 31
0.152344 -0.343750 -0.044225 26 25 27
0.156250 -0.343750 -0.041065 25 25 27
0.160156 -0.343750 -0.037289 25 25 27
0.164062 -0.343750 -0.030954 26 25 27
-0.089844 -0.347656 -0.022631 48 48 47
-0.085938 -0.347656 -0.028903 48 46 47
-0.082031 -0.347656 -0.033754 49 48 50
-0.078125 -0.347656 -0.037318 50 49 50
-0.074219 -0.347656 -0.039920 57 55 56
-0.070312 -0.347656 -0.042465 61 59 59
-0.066406 -0.347656 -0.044483 61 58 59
-0.062500 -0.347656 -0.046225 61 58 59
-0.058594 -0.347656 -0.047310 60 57 58
-0.054688 -0.347656 -0.047782 61 58 59
-0.050781 -0.347656 -0.048115 60 58 59
-0.046875 -0.347656 -0.048158 57 55 56
-0.042969 -0.347656 -0.047635 56 54 55
-0.039062 -0.347656 -0.046275 52 51 53
-0.035156 -0.347656 -0.045234 48 47 49
-0.031250 -0.347656 -0.044139 45 44 47
-0.027344 -0.347656 -0.042266 42 41 44
-0.023438 -0.347656 -0.039679 39 39 42
-0.019531 -0.347656 -0.037085 36 36 39
-0.015625 -0.347656 -0.034664 34 34 36
-0.011719 -0.347656 -0.031737 32 33 34
-0.007812 -0.347656 -0.027648 33 33 35
-0.003906 -0.347656 -0.022481 35 36 36
0.000000 -0.347656 -0.017662 34 34 34
0.003906 -0.347656 -0.008605 19 18 22
0.007812 -0.347656 0.005095 33 35 34
0.085938 -0.347656 -0.019451 29 27 29
0.089844 -0.347656 -0.027876 37 35 37
0.093750 -0.347656 -0.033525 40 38 40
0.097656 -0.347656 -0.038228 37 35 38
0.101562 -0.347656 -0.041861 38 35 37
0.105469 -0.347656 -0.045449 35 33 34
0.109375 -0.347656 -0.048912 37 35 35
0.113281 -0.347656 -0.051119 40 38 38
0.117188 -0.347656 -0.052213 39 38 38
0.121094 -0.347656 -0.053399 39 38 39
0.125000 -0.347656 -0.054299 37 37 38
0.128906 -0.347656 -0.054318 36 35 37
0.132812 -0.347656 -0.053536 37 36 37
0.136719 -0.347656 -0.052829 35 34 35
0.140625 -0.347656 -0.051917 34 32 33
0.144531 -0.347656 -0.050318 32 31 32
0.148438 -0.347656 -0.047936 28 28 30
0.152344 -0.347656 -0.045049 23 24 26
0.156250 -0.347656 -0.041940 23 24 26
0.160156 -0.347656 -0.038124 24 24 26
0.164062 -0.347656 -0.031838 23 24 26
-0.089844 -0.351562 -0.025084 48 49 50
-0.085938 -0.351562 -0.030531 46 45 47
-0.082031 -0.351562 -0.035182 49 48 50
-0.078125 -0.351562 -0.038596 51 50 52
-0.074219 -0.351562 -0.041022 60 58 59
-0.070312 -0.351562 -0.043374 61 59 60
-0.066406 -0.351562 -0.045226 61 58 59
-0.062500 -0.351562 -0.046807 60 58 59
-0.058594 -0.351562 -0.047734 60 58 58
-0.054688 -0.351562 -0.048057 61 59 60
-0.050781 -0.351562 -0.048237 60 58 59
-0.046875 -0.351562 -0.048124 56 55 56
-0.042969 -0.351562 -0.047471 57 55 56
-0.039062 -0.351562 -0.045990 53 52 53
-0.035156 -0.351562 -0.044862 49 48 50
-0.031250 -0.351562 -0.043715 45 45 47
-0.027344 -0.351562 -0.041708 41 41 44
-0.023438 -0.351562 -0.038922 38 38 41
-0.019531 -0.351562 -0.036137 35 35 38
-0.015625 -0.351562 -0.033543 33 34 36
-0.011719 -0.351562 -0.030345 32 33 35
-0.007812 -0.351562 -0.025737 34 34 35
-0.003906 -0.351562 -0.020836 36 37 37
0.000000 -0.351562 -0.014154 34 34 36
0.003906 -0.351562 0.003754 29 30 29
0.085938 -0.351562 -0.018518 28 25 29
0.089844 -0.351562 -0.027171 40 39 40
0.093750 -0.351562 -0.033434 41 39 41
0.097656 -0.351562 -0.038203 39 37 40
0.101562 -0.351562 -0.041939 38 36 38
0.105469 -0.351562 -0.045612 37 34 36
0.109375 -0.351562 -0.049135 39 37 37
0.113281 -0.351562 -0.051386 41 39 38
0.117188 -0.351562 -0.052542 39 39 38
0.121094 -0.351562 -0.053793 39 39 39
0.125000 -0.351562 -0.054779 37 37 37
0.128906 -0.351562 -0.054861 36 35 36
0.132812 -0.351562 -0.054150 36 35 36
0.136719 -0.351562 -0.053509 33 32 33
0.140625 -0.351562 -0.052636 31 30 30
0.144531 -0.351562 -0.051091 29 28 30
0.148438 -0.351562 -0.048757 26 27 30
0.152344 -0.351562 -0.045946 23 24 27
0.156250 -0.351562 -0.042841 24 25 27
0.160156 -0.351562 -0.038964 28 28 30
0.164062 -0.351562 -0.032737 23 24 27
-0.093750 -0.355469 -0.017056 58 58 58
-0.089844 -0.355469 -0.026858 51 54 53
-0.085938 -0.355469 -0.032147 44 43 46
-0.082031 -0.355469 -0.036488 47 46 49
-0.078125 -0.355469 -0.039729 51 50 52
-0.074219 -0.355469 -0.042028 62 60 61
-0.070312 -0.355469 -0.044225 63 61 61
-0.066406 -0.355469 -0.045911 63 61 61
-0.062500 -0.355469 -0.047337 64 62 62
-0.058594 -0.355469 -0.048105 62 60 61
-0.054688 -0.355469 -0.048260 63 61 61
-0.050781 -0.355469 -0.048289 60 59 59
-0.046875 -0.355469 -0.048032 55 54 55
-0.042969 -0.355469 -0.047257 55 54 55
-0.039062 -0.355469 -0.045674 51 50 52
-0.035156 -0.355469 -0.044471 47 47 49
-0.031250 -0.355469 -0.043273 46 45 47
-0.027344 -0.355469 -0.041119 42 42 45
-0.023438 -0.355469 -0.038128 37 38 41
-0.019531 -0.355469 -0.035131 35 36 38
-0.015625 -0.355469 -0.032334 34 34 36
-0.011719 -0.355469 -0.028913 32 32 34
-0.007812 -0.355469 -0.024209 30 31 32
-0.003906 -0.355469 -0.018884 30 32 33
0.000000 -0.355469 -0.009103 30 32 33
0.003906 -0.355469 0.005107 23 22 24
0.085938 -0.355469 -0.017171 23 21 26
0.089844 -0.355469 -0.026464 37 37 39
0.093750 -0.355469 -0.033327 38 36 38
0.097656 -0.355469 -0.038213 39 38 40
0.101562 -0.355469 -0.042058 38 36 38
0.105469 -0.355469 -0.045770 40 36 38
0.109375 -0.355469 -0.049319 43 40 40
0.113281 -0.355469 -0.051618 42 40 39
0.117188 -0.355469 -0.052848 39 37 37
0.121094 -0.355469 -0.054176 37 36 37
0.125000 -0.355469 -0.055262 35 35 36
0.128906 -0.355469 -0.055408 34 34 35
0.132812 -0.355469 -0.054738 34 33 34
0.136719 -0.355469 -0.054162 32 31 32
0.140625 -0.355469 -0.053352 29 29 30
0.144531 -0.355469 -0.051852 28 28 30
0.148438 -0.355469 -0.049580 27 28 31
0.152344 -0.355469 -0.046856 22 24 27
0.156250 -0.355469 -0.043726 21 22 25
0.160156 -0.355469 -0.039824 23 23 26
0.164062 -0.355469 -0.033659 22 24 27
-0.093750 -0.359375 -0.020209 48 46 50
-0.089844 -0.359375 -0.028617 41 42 44
-0.085938 -0.359375 -0.033724 42 41 43
-0.082031 -0.359375 -0.037708 46 45 48
-0.078125 -0.359375 -0.040802 50 49 51
-0.074219 -0.359375 -0.043004 62 60 61
-0.070312 -0.359375 -0.045004 63 61 62
-0.066406 -0.359375 -0.046519 65 63 63
-0.062500 -0.359375 -0.047791 67 65 64
-0.058594 -0.359375 -0.048396 64 62 62
-0.054688 -0.359375 -0.048373 64 62 62
-0.050781 -0.359375 -0.048252 61 60 60
-0.046875 -0.359375 -0.047868 56 55 56
-0.042969 -0.359375 -0.046989 54 53 54
-0.039062 -0.359375 -0.045312 50 50 51
-0.035156 -0.359375 -0.044023 46 46 48
-0.031250 -0.359375 -0.042783 44 44 46
-0.027344 -0.359375 -0.040509 40 40 43
-0.023438 -0.359375 -0.037303 37 37 40
-0.019531 -0.359375 -0.034140 35 35 37
-0.015625 -0.359375 -0.031193 32 33 34
-0.011719 -0.359375 -0.027180 31 32 33
-0.007812 -0.359375 -0.022288 33 34 35
-0.003906 -0.359375 -0.016847 33 35 35
0.000000 -0.359375 -0.002031 30 31 32
0.003906 -0.359375 0.000563 19 18 22
0.085938 -0.359375 -0.015557 23 22 28
0.089844 -0.359375 -0.025991 36 35 37
0.093750 -0.359375 -0.033097 35 32 35
0.097656 -0.359375 -0.038094 39 37 40
0.101562 -0.359375 -0.042156 34 33 36
0.105469 -0.359375 -0.045922 35 32 34
0.109375 -0.359375 -0.049518 36 34 35
0.113281 -0.359375 -0.051872 35 33 34
0.117188 -0.359375 -0.053168 35 34 35
0.121094 -0.359375 -0.054571 35 35 37
0.125000 -0.359375 -0.055757 35 35 37
0.128906 -0.359375 -0.055968 35 35 36
0.132812 -0.359375 -0.055331 35 35 35
0.136719 -0.359375 -0.054799 34 33 34
0.140625 -0.359375 -0.054038 31 30 31
0.144531 -0.359375 -0.052603 28 29 31
0.148438 -0.359375 -0.050386 27 28 31
0.152344 -0.359375 -0.047757 21 22 26
0.156250 -0.359375 -0.044680 19 20 23
0.160156 -0.359375 -0.040805 22 22 25
0.164062 -0.359375 -0.034530 21 22 26
-0.093750 -0.363281 -0.021692 50 49 51
-0.089844 -0.363281 -0.030456 48 50 50
-0.085938 -0.363281 -0.035266 46 45 47
-0.082031 -0.363281 -0.038850 50 49 51
-0.078125 -0.363281 -0.041831 53 52 53
-0.074219 -0.363281 -0.043924 61 59 59
-0.070312 -0.363281 -0.045709 61 59 60
-0.066406 -0.363281 -0.047054 63 61 61
-0.062500 -0.363281 -0.048153 64 62 62
-0.058594 -0.363281 -0.048587 62 61 60
-0.054688 -0.363281 -0.048387 61 59 59
-0.050781 -0.363281 -0.048122 59 58 58
-0.046875 -0.363281 -0.047615 56 55 55
-0.042969 -0.363281 -0.046637 54 54 54
-0.039062 -0.363281 -0.044877 51 51 52
-0.035156 -0.363281 -0.043520 46 46 47
-0.031250 -0.363281 -0.042229 42 42 44
-0.027344 -0.363281 -0.039802 39 39 42
-0.023438 -0.363281 -0.036390 37 37 40
-0.019531 -0.363281 -0.033099 34 35 37
-0.015625 -0.363281 -0.030044 30 31 33
-0.011719 -0.363281 -0.025605 29 30 31
-0.007812 -0.363281 -0.020182 31 31 31
-0.003906 -0.363281 -0.013115 23 24 25
0.000000 -0.363281 0.005269 34 34 36
0.085938 -0.363281 -0.015849 28 25 29
0.089844 -0.363281 -0.025926 33 32 34
0.093750 -0.363281 -0.033005 30 28 30
0.097656 -0.363281 -0.038129 39 37 40
0.101562 -0.363281 -0.042293 37 35 39
0.105469 -0.363281 -0.046081 39 36 39
0.109375 -0.363281 -0.049705 40 38 40
0.113281 -0.363281 -0.052127 42 41 43
0.117188 -0.363281 -0.053479 47 47 47
0.121094 -0.363281 -0.054951 46 46 47
0.125000 -0.363281 -0.056237 43 42 43
0.128906 -0.363281 -0.056510 37 36 37
0.132812 -0.363281 -0.055936 34 33 34
0.136719 -0.363281 -0.055455 34 33 34
0.140625 -0.363281 -0.054720 30 29 31
0.144531 -0.363281 -0.053360 27 27 29
0.148438 -0.363281 -0.051191 24 26 29
0.152344 -0.363281 -0.048639 19 20 25
0.156250 -0.363281 -0.045607 20 21 24
0.160156 -0.363281 -0.041800 26 27 30
0.164062 -0.363281 -0.035521 36 35 36
-0.093750 -0.367188 -0.023502 58 58 58
-0.089844 -0.367188 -0.032464 50 53 52
-0.085938 -0.367188 -0.036718 45 44 46
-0.082031 -0.367188 -0.039889 51 50 52
-0.078125 -0.367188 -0.042762 55 54 55
-0.074219 -0.367188 -0.044745 61 59 60
-0.070312 -0.367188 -0.046340 62 61 61
-0.066406 -0.367188 -0.047529 64 63 62
-0.062500 -0.367188 -0.048462 65 63 62
-0.058594 -0.367188 -0.048727 63 61 61
-0.054688 -0.367188 -0.048345 59 58 58
-0.050781 -0.367188 -0.047935 56 55 55
-0.046875 -0.367188 -0.047299 53 52 53
-0.042969 -0.367188 -0.046209 52 51 52
-0.039062 -0.367188 -0.044382 50 49 50
-0.035156 -0.367188 -0.042959 43 43 44
-0.031250 -0.367188 -0.041598 39 39 41
-0.027344 -0.367188 -0.039053 37 37 39
-0.023438 -0.367188 -0.035490 34 34 37
-0.019531 -0.367188 -0.032185 32 32 34
-0.015625 -0.367188 -0.028813 30 31 32
-0.011719 -0.367188 -0.024029 29 30 30
-0.007812 -0.367188 -0.018210 25 26 27
-0.003906 -0.367188 -0.009216 15 15 18
0.000000 -0.367188 0.005965 30 32 33
0.089844 -0.367188 -0.025866 29 29 30
0.093750 -0.367188 -0.032860 25 23 25
0.097656 -0.367188 -0.038148 36 34 37
0.101562 -0.367188 -0.042498 38 36 39
0.105469 -0.367188 -0.046349 41 38 41
0.109375 -0.367188 -0.049960 43 40 43
0.113281 -0.367188 -0.052407 46 44 46
0.117188 -0.367188 -0.053826 47 46 47
0.121094 -0.367188 -0.055376 42 41 42
0.125000 -0.367188 -0.056752 39 37 39
0.128906 -0.367188 -0.057080 33 32 35
0.132812 -0.367188 -0.056547 33 31 33
0.136719 -0.367188 -0.056118 35 33 34
0.140625 -0.367188 -0.055432 31 30 31
0.144531 -0.367188 -0.054145 28 28 30
0.148438 -0.367188 -0.052043 25 26 30
0.152344 -0.367188 -0.049576 20 21 25
0.156250 -0.367188 -0.046540 23 24 27
0.160156 -0.367188 -0.042823 28 28 32
0.164062 -0.367188 -0.036565 39 38 38
-0.093750 -0.371094 -0.025688 48 46 50
-0.089844 -0.371094 -0.034271 49 51 52
-0.085938 -0.371094 -0.037965 45 44 47
-0.082031 -0.371094 -0.040827 52 51 53
-0.078125 -0.371094 -0.043600 58 57 58
-0.074219 -0.371094 -0.045494 64 62 62
-0.070312 -0.371094 -0.046911 66 64 63
-0.066406 -0.371094 -0.047956 67 65 65
-0.062500 -0.371094 -0.048734 68 66 65
-0.058594 -0.371094 -0.048827 66 64 63
-0.054688 -0.371094 -0.048259 61 59 59
-0.050781 -0.371094 -0.047708 57 56 56
-0.046875 -0.371094 -0.046941 53 52 53
-0.042969 -0.371094 -0.045745 50 50 51
-0.039062 -0.371094 -0.043864 47 47 48
-0.035156 -0.371094 -0.042337 40 40 42
-0.031250 -0.371094 -0.040843 37 36 38
-0.027344 -0.371094 -0.038194 35 34 37
-0.023438 -0.371094 -0.034599 31 31 34
-0.019531 -0.371094 -0.031261 31 31 34
-0.015625 -0.371094 -0.027179 31 31 34
-0.011719 -0.371094 -0.022259 33 33 34
-0.007812 -0.371094 -0.017443 33 32 34
-0.003906 -0.371094 -0.003896 20 20 25
0.000000 -0.371094 0.003208 30 31 32
0.089844 -0.371094 -0.025194 37 36 34
0.093750 -0.371094 -0.032441 28 25 26
0.097656 -0.371094 -0.038114 35 33 35
0.101562 -0.371094 -0.042675 33 32 35
0.105469 -0.371094 -0.046619 33 32 35
0.109375 -0.371094 -0.050193 33 32 35
0.113281 -0.371094 -0.052670 35 35 38
0.117188 -0.371094 -0.054179 35 35 38
0.121094 -0.371094 -0.055810 34 34 37
0.125000 -0.371094 -0.057275 38 37 39
0.128906 -0.371094 -0.057650 38 37 39
0.132812 -0.371094 -0.057123 39 36 38
0.136719 -0.371094 -0.056738 37 35 36
0.140625 -0.371094 -0.056119 29 28 29
0.144531 -0.371094 -0.054923 27 27 29
0.148438 -0.371094 -0.052918 26 27 29
0.152344 -0.371094 -0.050564 23 24 27
0.156250 -0.371094 -0.047535 28 29 32
0.160156 -0.371094 -0.043846 28 28 31
0.164062 -0.371094 -0.037692 38 37 38
0.167969 -0.371094 -0.031255 28 29 32
-0.093750 -0.375000 -0.028177 50 49 51
-0.089844 -0.375000 -0.035737 54 57 58
-0.085938 -0.375000 -0.039187 48 47 50
-0.082031 -0.375000 -0.041785 53 53 55
-0.078125 -0.375000 -0.044355 58 57 58
-0.074219 -0.375000 -0.046142 63 61 61
-0.070312 -0.375000 -0.047402 64 63 62
-0.066406 -0.375000 -0.048318 64 63 63
-0.062500 -0.375000 -0.048946 64 63 63
-0.058594 -0.375000 -0.048870 63 62 61
-0.054688 -0.375000 -0.048116 58 57 57
-0.050781 -0.375000 -0.047415 56 55 55
-0.046875 -0.375000 -0.046524 52 52 52
-0.042969 -0.375000 -0.045215 49 49 50
-0.039062 -0.375000 -0.043260 47 47 48
-0.035156 -0.375000 -0.041605 40 40 42
-0.031250 -0.375000 -0.039965 37 37 39
-0.027344 -0.375000 -0.037210 35 35 36
-0.023438 -0.375000 -0.033604 32 32 35
-0.019531 -0.375000 -0.030043 33 33 35
-0.015625 -0.375000 -0.025643 31 30 33
-0.011719 -0.375000 -0.021020 31 31 32
-0.007812 -0.375000 -0.014468 31 30 32
-0.003906 -0.375000 0.004588 23 24 25
0.089844 -0.375000 -0.023095 33 31 29
0.093750 -0.375000 -0.032023 30 26 25
0.097656 -0.375000 -0.038229 36 34 35
0.101562 -0.375000 -0.042903 38 37 39
0.105469 -0.375000 -0.046936 42 41 43
0.109375 -0.375000 -0.050523 45 44 46
0.113281 -0.375000 -0.053036 51 50 51
0.117188 -0.375000 -0.054611 50 49 51
0.121094 -0.375000 -0.056306 49 48 50
0.125000 -0.375000 -0.057854 48 47 48
0.128906 -0.375000 -0.058258 43 41 42
0.132812 -0.375000 -0.057725 41 38 40
0.136719 -0.375000 -0.057376 36 34 36
0.140625 -0.375000 -0.056819 30 29 30
0.144531 -0.375000 -0.055677 30 30 31
0.148438 -0.375000 -0.053719 28 30 32
0.152344 -0.375000 -0.051444 26 27 30
0.156250 -0.375000 -0.048464 30 30 33
0.160156 -0.375000 -0.044881 27 27 29
0.164062 -0.375000 -0.038803 36 35 36
0.167969 -0.375000 -0.032426 30 30 33
-0.093750 -0.378906 -0.030879 45 42 45
-0.089844 -0.378906 -0.036891 57 58 59
-0.085938 -0.378906 -0.040158 49 49 51
-0.082031 -0.378906 -0.042752 53 53 54
-0.078125 -0.378906 -0.045069 56 56 56
-0.074219 -0.378906 -0.046728 59 58 58
-0.070312 -0.378906 -0.047823 62 61 61
-0.066406 -0.378906 -0.048595 64 63 62
-0.062500 -0.378906 -0.049075 64 63 62
-0.058594 -0.378906 -0.048846 62 61 61
-0.054688 -0.378906 -0.047888 57 57 57
-0.050781 -0.378906 -0.047048 55 54 54
-0.046875 -0.378906 -0.046057 51 51 51
-0.042969 -0.378906 -0.044620 48 48 49
-0.039062 -0.378906 -0.042559 45 45 46
-0.035156 -0.378906 -0.040781 39 40 41
-0.031250 -0.378906 -0.039038 36 37 38
-0.027344 -0.378906 -0.036136 33 34 35
-0.023438 -0.378906 -0.032431 31 32 34
-0.019531 -0.378906 -0.028823 32 32 34
-0.015625 -0.378906 -0.024681 29 29 32
-0.011719 -0.378906 -0.018956 32 32 33
-0.007812 -0.378906 -0.008523 33 32 33
-0.003906 -0.378906 0.004667 15 15 18
0.089844 -0.378906 -0.021847 24 22 21
0.093750 -0.378906 -0.031721 28 24 23
0.097656 -0.378906 -0.038221 31 30 31
0.101562 -0.378906 -0.043037 35 35 36
0.105469 -0.378906 -0.047281 39 38 40
0.109375 -0.378906 -0.050894 43 43 44
0.113281 -0.378906 -0.053404 47 46 47
0.117188 -0.378906 -0.055049 44 43 44
0.121094 -0.378906 -0.056817 41 41 42
0.125000 -0.378906 -0.058439 37 37 39
0.128906 -0.378906 -0.058850 35 34 36
0.132812 -0.378906 -0.058287 37 36 37
0.136719 -0.378906 -0.057992 38 36 38
0.140625 -0.378906 -0.057513 35 34 35
0.144531 -0.378906 -0.056447 36 35 37
0.148438 -0.378906 -0.054567 31 32 35
0.152344 -0.378906 -0.052345 27 27 30
0.156250 -0.378906 -0.049440 27 27 30
0.160156 -0.378906 -0.046026 24 24 26
0.164062 -0.378906 -0.039998 39 38 38
0.167969 -0.378906 -0.033930 27 27 30
-0.097656 -0.382812 -0.017695 33 28 31
-0.093750 -0.382812 -0.033250 32 29 33
-0.089844 -0.382812 -0.037676 55 55 56
-0.085938 -0.382812 -0.040932 51 50 52
-0.082031 -0.382812 -0.043613 55 55 56
-0.078125 -0.382812 -0.045738 58 58 58
-0.074219 -0.382812 -0.047304 60 60 59
-0.070312 -0.382812 -0.048237 61 61 60
-0.066406 -0.382812 -0.048857 62 61 61
-0.062500 -0.382812 -0.049192 62 62 61
-0.058594 -0.382812 -0.048832 61 60 60
-0.054688 -0.382812 -0.047688 57 57 57
-0.050781 -0.382812 -0.046725 55 55 55
-0.046875 -0.382812 -0.045634 50 50 50
-0.042969 -0.382812 -0.044059 45 45 46
-0.039062 -0.382812 -0.041890 40 40 42
-0.035156 -0.382812 -0.039956 37 37 39
-0.031250 -0.382812 -0.038024 36 36 38
-0.027344 -0.382812 -0.035055 33 33 35
-0.023438 -0.382812 -0.031470 30 30 33
-0.019531 -0.382812 -0.027262 31 31 34
-0.015625 -0.382812 -0.022906 33 32 35
-0.011719 -0.382812 -0.016756 40 40 39
-0.007812 -0.382812 -0.003127 43 42 40
-0.003906 -0.382812 0.000975 20 20 25
0.089844 -0.382812 -0.019261 38 36 29
0.093750 -0.382812 -0.031157 32 27 25
0.097656 -0.382812 -0.037842 31 30 31
0.101562 -0.382812 -0.043099 35 33 35
0.105469 -0.382812 -0.047520 34 33 35
0.109375 -0.382812 -0.051162 37 36 38
0.113281 -0.382812 -0.053729 40 40 41
0.117188 -0.382812 -0.055482 38 38 40
0.121094 -0.382812 -0.057342 38 38 40
0.125000 -0.382812 -0.059050 40 40 41
0.128906 -0.382812 -0.059495 43 43 43
0.132812 -0.382812 -0.058930 45 45 44
0.136719 -0.382812 -0.058669 42 41 41
0.140625 -0.382812 -0.058240 35 34 35
0.144531 -0.382812 -0.057231 31 31 33
0.148438 -0.382812 -0.055399 25 26 29
0.152344 -0.382812 -0.053301 21 22 25
0.156250 -0.382812 -0.050560 22 22 25
0.160156 -0.382812 -0.047146 20 20 23
0.164062 -0.382812 -0.041296 38 37 38
0.167969 -0.382812 -0.035674 22 22 25
-0.097656 -0.386719 -0.026053 34 30 34
-0.093750 -0.386719 -0.034924 32 30 35
-0.089844 -0.386719 -0.038544 51 52 53
-0.085938 -0.386719 -0.041724 50 50 51
-0.082031 -0.386719 -0.044332 55 55 56
-0.078125 -0.386719 -0.046393 60 60 59
-0.074219 -0.386719 -0.047892 62 62 61
-0.070312 -0.386719 -0.048671 62 62 61
-0.066406 -0.386719 -0.049160 60 60 59
-0.062500 -0.386719 -0.049350 59 59 58
-0.058594 -0.386719 -0.048830 57 57 57
-0.054688 -0.386719 -0.047509 54 55 55
-0.050781 -0.386719 -0.046415 52 52 53
-0.046875 -0.386719 -0.045225 48 48 48
-0.042969 -0.386719 -0.043519 42 43 44
-0.039062 -0.386719 -0.041233 38 38 40
-0.035156 -0.386719 -0.039076 36 37 39
-0.031250 -0.386719 -0.036880 36 37 38
-0.027344 -0.386719 -0.033872 32 33 34
-0.023438 -0.386719 -0.030111 29 29 31
-0.019531 -0.386719 -0.025264 29 29 31
-0.015625 -0.386719 -0.020196 28 27 29
-0.011719 -0.386719 -0.012545 24 23 25
-0.007812 -0.386719 0.002970 31 30 32
0.093750 -0.386719 -0.030673 25 21 21
0.097656 -0.386719 -0.037541 31 29 30
0.101562 -0.386719 -0.043043 39 37 38
0.105469 -0.386719 -0.047674 40 38 40
0.109375 -0.386719 -0.051504 45 44 45
0.113281 -0.386719 -0.054097 53 51 51
0.117188 -0.386719 -0.055919 54 52 52
0.121094 -0.386719 -0.057867 54 53 53
0.125000 -0.386719 -0.059655 55 53 53
0.128906 -0.386719 -0.060162 55 53 52
0.132812 -0.386719 -0.059639 48 46 45
0.136719 -0.386719 -0.059426 39 37 38
0.140625 -0.386719 -0.059059 30 29 31
0.144531 -0.386719 -0.058047 25 25 28
0.148438 -0.386719 -0.056196 21 22 26
0.152344 -0.386719 -0.054219 20 21 25
0.156250 -0.386719 -0.051555 22 23 27
0.160156 -0.386719 -0.048165 22 22 25
0.164062 -0.386719 -0.042504 45 44 46
0.167969 -0.386719 -0.037048 32 32 44
-0.097656 -0.390625 -0.026621 51 48 48
-0.093750 -0.390625 -0.035760 43 41 44
-0.089844 -0.390625 -0.039352 48 49 50
-0.085938 -0.390625 -0.042352 47 48 49
-0.082031 -0.390625 -0.044876 53 53 54
-0.078125 -0.390625 -0.047035 57 57 57
-0.074219 -0.390625 -0.048468 61 60 60
-0.070312 -0.390625 -0.049096 62 61 61
-0.066406 -0.390625 -0.049477 60 60 60
-0.062500 -0.390625 -0.049557 59 59 58
-0.058594 -0.390625 -0.048898 57 57 57
-0.054688 -0.390625 -0.047415 54 55 54
-0.050781 -0.390625 -0.046200 51 52 52
-0.046875 -0.390625 -0.044928 47 48 48
-0.042969 -0.390625 -0.043065 43 44 45
-0.039062 -0.390625 -0.040592 39 40 42
-0.035156 -0.390625 -0.038210 38 38 40
-0.031250 -0.390625 -0.035759 35 36 37
-0.027344 -0.390625 -0.032723 30 30 31
-0.023438 -0.390625 -0.028369 27 27 29
-0.019531 -0.390625 -0.023539 28 28 30
-0.015625 -0.390625 -0.018189 26 26 28
-0.011719 -0.390625 -0.006348 19 19 21
-0.007812 -0.390625 0.002543 33 32 33
0.093750 -0.390625 -0.028630 22 17 19
0.097656 -0.390625 -0.037029 30 28 30
0.101562 -0.390625 -0.043165 36 34 35
0.105469 -0.390625 -0.047728 37 35 37
0.109375 -0.390625 -0.051768 41 39 40
0.113281 -0.390625 -0.054440 46 42 43
0.117188 -0.390625 -0.056343 46 43 44
0.121094 -0.390625 -0.058389 45 42 44
0.125000 -0.390625 -0.060279 43 40 42
0.128906 -0.390625 -0.060842 39 37 38
0.132812 -0.390625 -0.060365 32 31 32
0.136719 -0.390625 -0.060234 28 27 29
0.140625 -0.390625 -0.059950 23 23 26
0.144531 -0.390625 -0.058973 21 22 26
0.148438 -0.390625 -0.057145 21 23 26
0.152344 -0.390625 -0.055219 22 23 26
0.156250 -0.390625 -0.052616 26 27 30
0.160156 -0.390625 -0.049259 26 27 30
0.164062 -0.390625 -0.043826 43 43 46
0.167969 -0.390625 -0.038206 32 31 45
-0.097656 -0.394531 -0.029686 33 28 31
-0.093750 -0.394531 -0.036388 46 44 45
-0.089844 -0.394531 -0.039910 48 50 50
-0.085938 -0.394531 -0.043029 50 51 51
-0.082031 -0.394531 -0.045420 55 55 56
-0.078125 -0.394531 -0.047688 57 57 57
-0.074219 -0.394531 -0.049090 59 59 59
-0.070312 -0.394531 -0.049603 59 59 59
-0.066406 -0.394531 -0.049863 57 57 57
-0.062500 -0.394531 -0.049813 56 56 56
-0.058594 -0.394531 -0.049021 54 54 54
-0.054688 -0.394531 -0.047367 52 52 52
-0.050781 -0.394531 -0.046039 49 49 50
-0.046875 -0.394531 -0.044707 45 46 46
-0.042969 -0.394531 -0.042667 42 43 44
-0.039062 -0.394531 -0.039921 39 39 41
-0.035156 -0.394531 -0.037295 36 37 39
-0.031250 -0.394531 -0.034603 32 33 34
-0.027344 -0.394531 -0.031413 27 27 28
-0.023438 -0.394531 -0.026257 26 26 28
-0.019531 -0.394531 -0.021214 29 29 32
-0.015625 -0.394531 -0.015268 29 29 32
-0.011719 -0.394531 0.002249 19 19 24
0.093750 -0.394531 -0.025193 26 22 24
0.097656 -0.394531 -0.035778 35 34 34
0.101562 -0.394531 -0.043133 35 33 34
0.105469 -0.394531 -0.047873 37 34 36
0.109375 -0.394531 -0.052055 39 37 38
0.113281 -0.394531 -0.054810 40 37 38
0.117188 -0.394531 -0.056847 40 37 38
0.121094 -0.394531 -0.059014 39 37 38
0.125000 -0.394531 -0.061027 38 35 37
0.128906 -0.394531 -0.061625 35 33 35
0.132812 -0.394531 -0.061134 31 29 31
0.136719 -0.394531 -0.061020 28 27 29
0.140625 -0.394531 -0.060745 25 26 29
0.144531 -0.394531 -0.059786 23 25 29
0.148438 -0.394531 -0.057997 23 25 28
0.152344 -0.394531 -0.056094 24 26 28
0.156250 -0.394531 -0.053631 29 31 32
0.160156 -0.394531 -0.050358 27 28 30
0.164062 -0.394531 -0.045252 35 36 39
0.167969 -0.394531 -0.039958 36 36 49
0.171875 -0.394531 -0.022826 27 28 30
-0.097656 -0.398438 -0.032358 34 30 34
-0.093750 -0.398438 -0.037135 43 41 43
-0.089844 -0.398438 -0.040514 50 51 50
-0.085938 -0.398438 -0.043611 54 55 54
-0.082031 -0.398438 -0.046069 59 59 59
-0.078125 -0.398438 -0.048427 59 60 60
-0.074219 -0.398438 -0.049802 62 61 61
-0.070312 -0.398438 -0.050228 60 60 60
-0.066406 -0.398438 -0.050381 57 57 57
-0.062500 -0.398438 -0.050196 53 54 54
-0.058594 -0.398438 -0.049283 50 50 51
-0.054688 -0.398438 -0.047491 49 49 50
-0.050781 -0.398438 -0.046063 47 48 48
-0.046875 -0.398438 -0.044676 44 45 46
-0.042969 -0.398438 -0.042440 42 43 44
-0.039062 -0.398438 -0.039408 37 38 40
-0.035156 -0.398438 -0.036506 34 34 36
-0.031250 -0.398438 -0.033549 30 31 32
-0.027344 -0.398438 -0.029723 26 25 26
-0.023438 -0.398438 -0.023964 26 25 27
-0.019531 -0.398438 -0.019293 28 28 30
-0.015625 -0.398438 -0.010966 26 27 30
-0.011719 -0.398438 0.004118 24 23 25
0.093750 -0.398438 -0.024766 21 19 24
0.097656 -0.398438 -0.035486 32 31 33
0.101562 -0.398438 -0.042784 30 27 29
0.105469 -0.398438 -0.047963 35 32 34
0.109375 -0.398438 -0.052342 41 37 39
0.113281 -0.398438 -0.055194 46 43 43
0.117188 -0.398438 -0.057331 47 45 45
0.121094 -0.398438 -0.059574 47 45 46
0.125000 -0.398438 -0.061677 45 43 43
0.128906 -0.398438 -0.062317 41 39 40
0.132812 -0.398438 -0.061845 35 34 36
0.136719 -0.398438 -0.061756 33 32 35
0.140625 -0.398438 -0.061507 33 34 38
0.144531 -0.398438 -0.060566 32 35 39
0.148438 -0.398438 -0.058822 32 36 39
0.152344 -0.398438 -0.056955 33 37 39
0.156250 -0.398438 -0.054558 35 36 38
0.160156 -0.398438 -0.051436 25 25 28
0.164062 -0.398438 -0.046811 30 30 35
0.167969 -0.398438 -0.041861 32 32 44
0.171875 -0.398438 -0.029071 25 25 28
-0.097656 -0.402344 -0.034068 51 48 48
-0.093750 -0.402344 -0.037693 41 40 42
-0.089844 -0.402344 -0.041202 47 48 49
-0.085938 -0.402344 -0.044299 52 53 53
-0.082031 -0.402344 -0.046789 57 58 58
-0.078125 -0.402344 -0.049247 58 59 59
-0.074219 -0.402344 -0.050580 62 62 62
-0.070312 -0.402344 -0.050919 61 61 61
-0.066406 -0.402344 -0.050996 59 59 58
-0.062500 -0.402344 -0.050696 55 56 55
-0.058594 -0.402344 -0.049688 51 51 51
-0.054688 -0.402344 -0.047786 49 49 50
-0.050781 -0.402344 -0.046268 47 48 48
-0.046875 -0.402344 -0.044817 44 45 46
-0.042969 -0.402344 -0.042331 42 42 43
-0.039062 -0.402344 -0.039029 36 37 38
-0.035156 -0.402344 -0.035769 33 33 34
-0.031250 -0.402344 -0.032411 30 30 31
-0.027344 -0.402344 -0.028192 26 25 26
-0.023438 -0.402344 -0.022496 26 25 26
-0.019531 -0.402344 -0.016810 27 27 29
-0.015625 -0.402344 -0.002816 29 30 32
0.097656 -0.402344 -0.034987 41 41 40
0.101562 -0.402344 -0.042410 27 25 27
0.105469 -0.402344 -0.048111 32 30 33
0.109375 -0.402344 -0.052623 37 34 36
0.113281 -0.402344 -0.055552 46 41 42
0.117188 -0.402344 -0.057722 49 45 46
0.121094 -0.402344 -0.060049 46 43 44
0.125000 -0.402344 -0.062237 40 38 40
0.128906 -0.402344 -0.062930 35 34 36
0.132812 -0.402344 -0.062511 32 32 35
0.136719 -0.402344 -0.062475 33 34 37
0.140625 -0.402344 -0.062293 38 40 42
0.144531 -0.402344 -0.061375 41 44 46
0.148438 -0.402344 -0.059658 40 44 45
0.152344 -0.402344 -0.057873 37 40 41
0.156250 -0.402344 -0.055554 30 32 34
0.160156 -0.402344 -0.052613 18 18 21
0.164062 -0.402344 -0.048713 26 25 30
0.167969 -0.402344 -0.043796 32 31 45
0.171875 -0.402344 -0.034616 31 34 47
-0.101562 -0.406250 -0.026655 22 20 27
-0.097656 -0.406250 -0.035007 50 51 48
-0.093750 -0.406250 -0.038455 41 41 41
-0.089844 -0.406250 -0.042212 46 48 49
-0.085938 -0.406250 -0.045204 52 52 53
-0.082031 -0.406250 -0.047699 58 58 59
-0.078125 -0.406250 -0.050175 58 59 59
-0.074219 -0.406250 -0.051450 62 62 62
-0.070312 -0.406250 -0.051719 59 59 59
-0.066406 -0.406250 -0.051739 56 57 56
-0.062500 -0.406250 -0.051365 55 55 55
-0.058594 -0.406250 -0.050284 50 51 51
-0.054688 -0.406250 -0.048280 46 47 47
-0.050781 -0.406250 -0.046665 44 44 45
-0.046875 -0.406250 -0.045130 41 41 42
-0.042969 -0.406250 -0.042410 38 38 39
-0.039062 -0.406250 -0.038770 34 34 35
-0.035156 -0.406250 -0.035212 32 32 33
-0.031250 -0.406250 -0.031609 30 30 30
-0.027344 -0.406250 -0.026694 26 25 26
-0.023438 -0.406250 -0.020577 27 26 27
-0.019531 -0.406250 -0.012993 26 26 28
-0.015625 -0.406250 0.004823 23 24 26
0.097656 -0.406250 -0.033657 38 39 39
0.101562 -0.406250 -0.041995 27 25 27
0.105469 -0.406250 -0.048309 36 35 38
0.109375 -0.406250 -0.052839 32 31 34
0.113281 -0.406250 -0.055865 34 31 34
0.117188 -0.406250 -0.058038 35 32 34
0.121094 -0.406250 -0.060457 32 31 33
0.125000 -0.406250 -0.062765 33 32 35
0.128906 -0.406250 -0.063531 36 37 40
0.132812 -0.406250 -0.063176 44 46 48
0.136719 -0.406250 -0.063164 47 48 49
0.140625 -0.406250 -0.062986 45 46 47
0.144531 -0.406250 -0.062076 42 43 44
0.148438 -0.406250 -0.060384 32 33 35
0.152344 -0.406250 -0.058705 24 26 29
0.156250 -0.406250 -0.056522 20 22 25
0.160156 -0.406250 -0.053801 15 16 19
0.164062 -0.406250 -0.050296 25 25 30
0.167969 -0.406250 -0.045765 36 36 49
0.171875 -0.406250 -0.037526 41 43 49
-0.101562 -0.410156 -0.026971 22 20 27
-0.097656 -0.410156 -0.035626 39 40 38
-0.093750 -0.410156 -0.039697 45 43 43
-0.089844 -0.410156 -0.043184 49 50 51
-0.085938 -0.410156 -0.046184 52 53 54
-0.082031 -0.410156 -0.048766 59 59 60
-0.078125 -0.410156 -0.051189 60 60 60
-0.074219 -0.410156 -0.052413 62 63 62
-0.070312 -0.410156 -0.052613 58 58 57
-0.066406 -0.410156 -0.052577 53 54 54
-0.062500 -0.410156 -0.052157 52 53 53
-0.058594 -0.410156 -0.051033 48 48 49
-0.054688 -0.410156 -0.048954 43 44 45
-0.050781 -0.410156 -0.047262 42 42 43
-0.046875 -0.410156 -0.045618 39 39 41
-0.042969 -0.410156 -0.042690 37 37 38
-0.039062 -0.410156 -0.038699 33 33 34
-0.035156 -0.410156 -0.034895 31 30 31
-0.031250 -0.410156 -0.031189 28 28 29
-0.027344 -0.410156 -0.025471 26 26 26
-0.023438 -0.410156 -0.018463 31 30 30
-0.019531 -0.410156 -0.009750 27 29 28
-0.015625 -0.410156 0.009149 26 27 30
0.097656 -0.410156 -0.031849 32 32 32
0.101562 -0.410156 -0.041590 28 26 27
0.105469 -0.410156 -0.048506 46 45 48
0.109375 -0.410156 -0.053006 41 40 44
0.113281 -0.410156 -0.056219 41 39 42
0.117188 -0.410156 -0.058410 40 38 41
0.121094 -0.410156 -0.060881 41 39 42
0.125000 -0.410156 -0.063276 47 47 48
0.128906 -0.410156 -0.064108 52 52 53
0.132812 -0.410156 -0.063821 57 56 57
0.136719 -0.410156 -0.063835 47 47 49
0.140625 -0.410156 -0.063681 35 35 38
0.144531 -0.410156 -0.062809 28 29 32
0.148438 -0.410156 -0.061168 21 22 26
0.152344 -0.410156 -0.059581 21 21 26
0.156250 -0.410156 -0.057518 24 25 30
0.160156 -0.410156 -0.055030 20 21 25
0.164062 -0.410156 -0.051727 26 27 31
0.167969 -0.410156 -0.047383 30 31 43
0.171875 -0.410156 -0.040436 26 25 32
0.175781 -0.410156 -0.017127 26 27 31
-0.101562 -0.414062 -0.028520 30 29 34
-0.097656 -0.414062 -0.037001 46 46 44
-0.093750 -0.414062 -0.041145 50 49 49
-0.089844 -0.414062 -0.044380 51 52 54
-0.085938 -0.414062 -0.047432 53 54 55
-0.082031 -0.414062 -0.049985 58 59 59
-0.078125 -0.414062 -0.052317 60 60 60
-0.074219 -0.414062 -0.053496 63 63 61
-0.070312 -0.414062 -0.053647 57 58 57
-0.066406 -0.414062 -0.053578 53 53 53
-0.062500 -0.414062 -0.053106 51 51 51
-0.058594 -0.414062 -0.051951 46 47 47
-0.054688 -0.414062 -0.049850 43 44 45
-0.050781 -0.414062 -0.048059 40 40 42
-0.046875 -0.414062 -0.046286 36 36 38
-0.042969 -0.414062 -0.043164 35 35 37
-0.039062 -0.414062 -0.038797 33 33 34
-0.035156 -0.414062 -0.034800 30 30 31
-0.031250 -0.414062 -0.030747 28 28 28
-0.027344 -0.414062 -0.024419 27 27 27
-0.023438 -0.414062 -0.017221 33 33 31
-0.019531 -0.414062 -0.006959 27 29 28
-0.015625 -0.414062 0.004850 29 30 32
0.097656 -0.414062 -0.032640 45 45 40
0.101562 -0.414062 -0.041765 28 26 27
0.105469 -0.414062 -0.048609 41 40 42
0.109375 -0.414062 -0.053354 43 42 46
0.113281 -0.414062 -0.056645 49 47 51
0.117188 -0.414062 -0.058832 49 47 51
0.121094 -0.414062 -0.061374 49 47 49
0.125000 -0.414062 -0.063815 49 47 49
0.128906 -0.414062 -0.064664 40 39 42
0.132812 -0.414062 -0.064396 35 34 37
0.136719 -0.414062 -0.064432 29 29 32
0.140625 -0.414062 -0.064323 27 27 31
0.144531 -0.414062 -0.063475 26 27 31
0.148438 -0.414062 -0.061877 22 22 27
0.152344 -0.414062 -0.060348 24 25 29
0.156250 -0.414062 -0.058344 26 27 31
0.160156 -0.414062 -0.056089 20 21 25
0.164062 -0.414062 -0.053094 24 25 29
0.167969 -0.414062 -0.048860 25 27 36
0.171875 -0.414062 -0.042245 31 34 47
0.175781 -0.414062 -0.028771 24 25 29
-0.101562 -0.417969 -0.029684 22 20 27
-0.097656 -0.417969 -0.038287 41 42 42
-0.093750 -0.417969 -0.042510 47 46 47
-0.089844 -0.417969 -0.045730 52 54 55
-0.085938 -0.417969 -0.048659 56 57 57
-0.082031 -0.417969 -0.051212 59 60 59
-0.078125 -0.417969 -0.053481 59 60 59
-0.074219 -0.417969 -0.054618 61 60 60
-0.070312 -0.417969 -0.054752 55 55 55
-0.066406 -0.417969 -0.054694 50 51 51
-0.062500 -0.417969 -0.054206 47 47 48
-0.058594 -0.417969 -0.053037 44 44 45
-0.054688 -0.417969 -0.050948 42 42 43
-0.050781 -0.417969 -0.049033 37 37 39
-0.046875 -0.417969 -0.047140 33 33 35
-0.042969 -0.417969 -0.043823 33 32 34
-0.039062 -0.417969 -0.039180 31 31 32
-0.035156 -0.417969 -0.034977 29 28 29
-0.031250 -0.417969 -0.030242 27 27 28
-0.027344 -0.417969 -0.023582 27 27 27
-0.023438 -0.417969 -0.016789 28 27 27
-0.019531 -0.417969 0.003916 15 16 18
0.097656 -0.417969 -0.021070 38 39 39
0.101562 -0.417969 -0.042448 18 16 19
0.105469 -0.417969 -0.048768 27 26 29
0.109375 -0.417969 -0.053468 28 27 31
0.113281 -0.417969 -0.056846 32 31 36
0.117188 -0.417969 -0.059195 32 31 36
0.121094 -0.417969 -0.061791 32 31 35
0.125000 -0.417969 -0.064277 32 31 36
0.128906 -0.417969 -0.065171 30 30 34
0.132812 -0.417969 -0.064927 31 31 34
0.136719 -0.417969 -0.064973 33 32 36
0.140625 -0.417969 -0.064889 38 37 40
0.144531 -0.417969 -0.064046 38 36 40
0.148438 -0.417969 -0.062447 27 27 32
0.152344 -0.417969 -0.060991 24 24 29
0.156250 -0.417969 -0.059158 21 22 26
0.160156 -0.417969 -0.057044 20 21 24
0.164062 -0.417969 -0.054069 26 26 30
0.167969 -0.417969 -0.050148 25 26 33
0.171875 -0.417969 -0.043491 41 43 49
0.175781 -0.417969 -0.035622 26 26 30
-0.101562 -0.421875 -0.031971 22 20 27
-0.097656 -0.421875 -0.039554 42 43 44
-0.093750 -0.421875 -0.043755 47 47 47
-0.089844 -0.421875 -0.047144 53 54 55
-0.085938 -0.421875 -0.049866 57 58 58
-0.082031 -0.421875 -0.052449 59 60 59
-0.078125 -0.421875 -0.054693 60 60 60
-0.074219 -0.421875 -0.055811 59 59 58
-0.070312 -0.421875 -0.055923 52 52 53
-0.066406 -0.421875 -0.055868 48 49 49
-0.062500 -0.421875 -0.055383 45 46 46
-0.058594 -0.421875 -0.054201 43 44 44
-0.054688 -0.421875 -0.052098 41 42 42
-0.050781 -0.421875 -0.050102 36 36 37
-0.046875 -0.421875 -0.048063 33 33 34
-0.042969 -0.421875 -0.044579 32 32 33
-0.039062 -0.421875 -0.039703 30 29 31
-0.035156 -0.421875 -0.035106 28 28 29
-0.031250 -0.421875 -0.030060 27 26 28
-0.027344 -0.421875 -0.023460 26 26 26
-0.023438 -0.421875 -0.013735 27 27 27
-0.019531 -0.421875 0.008020 27 29 28
0.101562 -0.421875 -0.041565 27 25 26
0.105469 -0.421875 -0.048790 32 31 33
0.109375 -0.421875 -0.053753 26 25 28
0.113281 -0.421875 -0.056979 28 26 31
0.117188 -0.421875 -0.059516 32 30 35
0.121094 -0.421875 -0.062127 34 32 36
0.125000 -0.421875 -0.064643 36 35 39
0.128906 -0.421875 -0.065587 38 37 40
0.132812 -0.421875 -0.065417 37 36 39
0.136719 -0.421875 -0.065491 34 33 36
0.140625 -0.421875 -0.065424 36 33 37
0.144531 -0.421875 -0.064603 32 31 36
0.148438 -0.421875 -0.063026 27 27 33
0.152344 -0.421875 -0.061647 27 28 33
0.156250 -0.421875 -0.059981 27 28 33
0.160156 -0.421875 -0.058002 28 29 32
0.164062 -0.421875 -0.055120 27 28 31
0.167969 -0.421875 -0.051384 19 20 25
0.171875 -0.421875 -0.045144 26 25 32
0.175781 -0.421875 -0.039048 27 28 31
-0.105469 -0.425781 -0.023847 29 28 29
-0.101562 -0.425781 -0.035213 36 33 37
-0.097656 -0.425781 -0.041063 53 53 52
-0.093750 -0.425781 -0.044927 50 49 49
-0.089844 -0.425781 -0.048424 51 52 52
-0.085938 -0.425781 -0.051069 54 56 54
-0.082031 -0.425781 -0.053661 56 58 56
-0.078125 -0.425781 -0.055875 60 60 59
-0.074219 -0.425781 -0.057007 58 58 58
-0.070312 -0.425781 -0.057108 52 52 52
-0.066406 -0.425781 -0.057089 50 50 50
-0.062500 -0.425781 -0.056625 46 46 46
-0.058594 -0.425781 -0.055448 43 43 44
-0.054688 -0.425781 -0.053367 40 40 41
-0.050781 -0.425781 -0.051299 35 35 37
-0.046875 -0.425781 -0.049095 33 33 34
-0.042969 -0.425781 -0.045419 32 31 32
-0.039062 -0.425781 -0.040139 29 28 30
-0.035156 -0.425781 -0.035406 28 28 29
-0.031250 -0.425781 -0.030700 27 26 28
-0.027344 -0.425781 -0.022509 25 26 26
-0.023438 -0.425781 -0.009575 27 28 28
-0.019531 -0.425781 0.003635 27 29 28
0.101562 -0.425781 -0.039795 21 19 23
0.105469 -0.425781 -0.048461 27 25 28
0.109375 -0.425781 -0.054029 24 22 26
0.113281 -0.425781 -0.057166 27 27 31
0.117188 -0.425781 -0.059776 33 32 36
0.121094 -0.425781 -0.062372 33 32 36
0.125000 -0.425781 -0.064898 34 33 37
0.128906 -0.425781 -0.065884 33 33 36
0.132812 -0.425781 -0.065830 30 30 34
0.136719 -0.425781 -0.065958 31 30 34
0.140625 -0.425781 -0.065916 35 34 38
0.144531 -0.425781 -0.065113 34 34 38
0.148438 -0.425781 -0.063572 35 34 38
0.152344 -0.425781 -0.062263 36 35 39
0.156250 -0.425781 -0.060688 31 30 35
0.160156 -0.425781 -0.058834 27 26 31
0.164062 -0.425781 -0.056069 22 23 28
0.167969 -0.425781 -0.052521 21 23 28
0.171875 -0.425781 -0.046793 40 41 45
0.175781 -0.425781 -0.040681 22 23 28
-0.105469 -0.429688 -0.025368 25 25 27
-0.101562 -0.429688 -0.037001 33 32 36
-0.097656 -0.429688 -0.042426 47 46 46
-0.093750 -0.429688 -0.046048 46 46 46
-0.089844 -0.429688 -0.049565 48 48 48
-0.085938 -0.429688 -0.052230 52 54 52
-0.082031 -0.429688 -0.054843 54 56 54
-0.078125 -0.429688 -0.057028 57 57 56
-0.074219 -0.429688 -0.058169 54 55 54
-0.070312 -0.429688 -0.058284 48 48 48
-0.066406 -0.429688 -0.058311 46 45 45
-0.062500 -0.429688 -0.057882 41 41 41
-0.058594 -0.429688 -0.056714 38 38 39
-0.054688 -0.429688 -0.054652 37 37 38
-0.050781 -0.429688 -0.052518 34 34 35
-0.046875 -0.429688 -0.050128 32 32 32
-0.042969 -0.429688 -0.046412 30 29 29
-0.039062 -0.429688 -0.041129 27 26 27
-0.035156 -0.429688 -0.035846 28 28 29
-0.031250 -0.429688 -0.030589 29 28 30
-0.027344 -0.429688 -0.021641 25 26 27
-0.023438 -0.429688 -0.003728 24 25 25
0.101562 -0.429688 -0.039068 18 16 19
0.105469 -0.429688 -0.048283 18 16 20
0.109375 -0.429688 -0.054018 21 19 23
0.113281 -0.429688 -0.057254 30 30 35
0.117188 -0.429688 -0.059927 37 37 40
0.121094 -0.429688 -0.062578 36 35 39
0.125000 -0.429688 -0.065121 37 37 40
0.128906 -0.429688 -0.066145 39 39 42
0.132812 -0.429688 -0.066188 40 41 43
0.136719 -0.429688 -0.066378 45 46 48
0.140625 -0.429688 -0.066384 48 47 50
0.144531 -0.429688 -0.065618 40 38 42
0.148438 -0.429688 -0.064108 34 31 35
0.152344 -0.429688 -0.062883 29 27 32
0.156250 -0.429688 -0.061420 23 22 27
0.160156 -0.429688 -0.059619 20 20 25
0.164062 -0.429688 -0.056851 21 21 26
0.167969 -0.429688 -0.053530 23 24 28
0.171875 -0.429688 -0.048010 39 40 42
0.175781 -0.429688 -0.041489 21 21 26
-0.105469 -0.433594 -0.027854 25 24 25
-0.101562 -0.433594 -0.038118 35 35 38
-0.097656 -0.433594 -0.043460 42 42 42
-0.093750 -0.433594 -0.047381 44 43 44
-0.089844 -0.433594 -0.050657 47 47 47
-0.085938 -0.433594 -0.053384 53 53 52
-0.082031 -0.433594 -0.055996 54 54 53
-0.078125 -0.433594 -0.058147 55 55 54
-0.074219 -0.433594 -0.059292 52 52 51
-0.070312 -0.433594 -0.059447 45 45 45
-0.066406 -0.433594 -0.059529 42 41 42
-0.062500 -0.433594 -0.059129 38 37 38
-0.058594 -0.433594 -0.057955 36 36 37
-0.054688 -0.433594 -0.055868 36 36 37
-0.050781 -0.433594 -0.053615 33 33 33
-0.046875 -0.433594 -0.051032 31 30 31
-0.042969 -0.433594 -0.047311 28 27 28
-0.039062 -0.433594 -0.042175 26 25 27
-0.035156 -0.433594 -0.036438 28 28 30
-0.031250 -0.433594 -0.029868 27 28 30
-0.027344 -0.433594 -0.021583 21 22 24
-0.023438 -0.433594 0.000343 27 27 27
0.101562 -0.433594 -0.038710 27 25 26
0.105469 -0.433594 -0.048036 29 30 31
0.109375 -0.433594 -0.053966 21 20 22
0.113281 -0.433594 -0.057337 30 31 35
0.117188 -0.433594 -0.060000 40 40 43
0.121094 -0.433594 -0.062693 41 39 43
0.125000 -0.433594 -0.065247 44 43 46
0.128906 -0.433594 -0.066338 47 46 48
0.132812 -0.433594 -0.066473 45 44 46
0.136719 -0.433594 -0.066736 42 41 44
0.140625 -0.433594 -0.066800 36 35 39
0.144531 -0.433594 -0.066082 27 26 31
0.148438 -0.433594 -0.064642 24 23 28
0.152344 -0.433594 -0.063499 23 22 28
0.156250 -0.433594 -0.062111 22 22 28
0.160156 -0.433594 -0.060356 22 22 28
0.164062 -0.433594 -0.057601 22 22 28
0.167969 -0.433594 -0.054486 17 17 23
0.171875 -0.433594 -0.049084 23 22 27
0.175781 -0.433594 -0.042337 18 16 20
-0.105469 -0.437500 -0.030683 29 28 29
-0.101562 -0.437500 -0.039340 35 34 37
-0.097656 -0.437500 -0.044616 40 40 40
-0.093750 -0.437500 -0.048437 44 43 43
-0.089844 -0.437500 -0.051668 46 46 46
-0.085938 -0.437500 -0.054487 50 50 49
-0.082031 -0.437500 -0.057089 50 50 49
-0.078125 -0.437500 -0.059219 51 51 50
-0.074219 -0.437500 -0.060397 50 49 49
-0.070312 -0.437500 -0.060579 45 44 45
-0.066406 -0.437500 -0.060717 41 41 41
-0.062500 -0.437500 -0.060364 38 38 38
-0.058594 -0.437500 -0.059183 37 38 38
-0.054688 -0.437500 -0.057080 35 35 36
-0.050781 -0.437500 -0.054770 32 32 32
-0.046875 -0.437500 -0.052046 30 30 30
-0.042969 -0.437500 -0.048399 28 27 27
-0.039062 -0.437500 -0.043255 25 24 26
-0.035156 -0.437500 -0.037363 25 25 27
-0.031250 -0.437500 -0.030334 22 23 25
-0.027344 -0.437500 -0.021596 15 16 19
-0.023438 -0.437500 0.005414 27 28 28
0.101562 -0.437500 -0.036795 21 19 23
0.105469 -0.437500 -0.047936 26 26 28
0.109375 -0.437500 -0.053888 16 14 17
0.113281 -0.437500 -0.057465 22 23 27
0.117188 -0.437500 -0.060142 26 27 32
0.121094 -0.437500 -0.062836 25 24 29
0.125000 -0.437500 -0.065389 26 25 29
0.128906 -0.437500 -0.066539 28 27 31
0.132812 -0.437500 -0.066768 27 26 30
0.136719 -0.437500 -0.067092 26 26 31
0.140625 -0.437500 -0.067214 27 27 32
0.144531 -0.437500 -0.066555 28 29 33
0.148438 -0.437500 -0.065182 31 32 37
0.152344 -0.437500 -0.064086 32 33 38
0.156250 -0.437500 -0.062737 29 30 36
0.160156 -0.437500 -0.061041 26 26 33
0.164062 -0.437500 -0.058354 24 24 30
0.167969 -0.437500 -0.055347 17 17 22
0.171875 -0.437500 -0.049951 26 24 28
0.175781 -0.437500 -0.043212 17 16 20
-0.105469 -0.441406 -0.033287 25 25 27
-0.101562 -0.441406 -0.040652 32 32 36
-0.097656 -0.441406 -0.045598 39 37 38
-0.093750 -0.441406 -0.049456 44 42 43
-0.089844 -0.441406 -0.052733 46 45 45
-0.085938 -0.441406 -0.055538 47 47 46
-0.082031 -0.441406 -0.058109 47 47 46
-0.078125 -0.441406 -0.060222 47 47 46
-0.074219 -0.441406 -0.061428 45 44 44
-0.070312 -0.441406 -0.061614 42 40 41
-0.066406 -0.441406 -0.061799 38 37 37
-0.062500 -0.441406 -0.061512 35 34 35
-0.058594 -0.441406 -0.060328 34 34 35
-0.054688 -0.441406 -0.058172 32 33 33
-0.050781 -0.441406 -0.055792 30 30 30
-0.046875 -0.441406 -0.052970 29 28 28
-0.042969 -0.441406 -0.049554 25 25 26
-0.039062 -0.441406 -0.044341 23 23 25
-0.035156 -0.441406 -0.038317 22 23 25
-0.031250 -0.441406 -0.032271 23 24 26
-0.027344 -0.441406 -0.010894 18 20 23
0.101562 -0.441406 -0.033699 24 25 29
0.105469 -0.441406 -0.048098 23 22 23
0.109375 -0.441406 -0.053679 18 15 17
0.113281 -0.441406 -0.057579 24 25 29
0.117188 -0.441406 -0.060342 29 29 34
0.121094 -0.441406 -0.063007 28 27 32
0.125000 -0.441406 -0.065563 29 28 33
0.128906 -0.441406 -0.066777 32 31 36
0.132812 -0.441406 -0.067119 34 33 38
0.136719 -0.441406 -0.067496 36 36 41
0.140625 -0.441406 -0.067665 40 39 44
0.144531 -0.441406 -0.067087 42 41 46
0.148438 -0.441406 -0.065773 42 42 47
0.152344 -0.441406 -0.064743 38 38 43
0.156250 -0.441406 -0.063474 31 32 37
0.160156 -0.441406 -0.061855 26 27 32
0.164062 -0.441406 -0.059265 25 26 30
0.167969 -0.441406 -0.056342 17 17 21
0.171875 -0.441406 -0.051028 20 18 22
0.175781 -0.441406 -0.044277 13 12 16
-0.105469 -0.445312 -0.035198 29 28 30
-0.101562 -0.445312 -0.041790 36 35 39
-0.097656 -0.445312 -0.046613 38 37 38
-0.093750 -0.445312 -0.050542 44 42 43
-0.089844 -0.445312 -0.053725 45 44 45
-0.085938 -0.445312 -0.056454 44 44 44
-0.082031 -0.445312 -0.058967 45 45 44
-0.078125 -0.445312 -0.061049 44 43 43
-0.074219 -0.445312 -0.062261 41 40 40
-0.070312 -0.445312 -0.062471 39 38 38
-0.066406 -0.445312 -0.062715 38 36 37
-0.062500 -0.445312 -0.062497 37 36 37
-0.058594 -0.445312 -0.061336 36 36 36
-0.054688 -0.445312 -0.059154 33 33 34
-0.050781 -0.445312 -0.056783 31 30 31
-0.046875 -0.445312 -0.054017 28 27 28
-0.042969 -0.445312 -0.050569 24 24 26
-0.039062 -0.445312 -0.045282 23 23 26
-0.035156 -0.445312 -0.039204 22 23 25
-0.031250 -0.445312 -0.031240 23 24 25
-0.027344 -0.445312 0.001709 21 22 24
0.101562 -0.445312 -0.024898 23 24 28
0.105469 -0.445312 -0.048146 39 37 34
0.109375 -0.445312 -0.053540 22 19 20
0.113281 -0.445312 -0.057611 23 24 28
0.117188 -0.445312 -0.060467 27 28 33
0.121094 -0.445312 -0.063116 30 29 34
0.125000 -0.445312 -0.065652 34 34 39
0.128906 -0.445312 -0.066935 41 39 45
0.132812 -0.445312 -0.067406 42 41 47
0.136719 -0.445312 -0.067847 41 40 46
0.140625 -0.445312 -0.068065 37 36 41
0.144531 -0.445312 -0.067568 32 31 37
0.148438 -0.445312 -0.066312 29 29 35
0.152344 -0.445312 -0.065365 27 27 34
0.156250 -0.445312 -0.064208 26 27 33
0.160156 -0.445312 -0.062624 26 27 31
0.164062 -0.445312 -0.060111 28 29 33
0.167969 -0.445312 -0.057282 19 19 24
0.171875 -0.445312 -0.051994 17 16 20
0.175781 -0.445312 -0.045015 18 16 20
-0.105469 -0.449219 -0.037456 31 29 32
-0.101562 -0.449219 -0.042788 38 37 41
-0.097656 -0.449219 -0.047603 37 36 38
-0.093750 -0.449219 -0.051642 42 40 41
-0.089844 -0.449219 -0.054716 45 44 44
-0.085938 -0.449219 -0.057335 43 42 42
-0.082031 -0.449219 -0.059767 44 44 42
-0.078125 -0.449219 -0.061810 43 42 41
-0.074219 -0.449219 -0.063020 40 39 39
-0.070312 -0.449219 -0.063249 40 38 38
-0.066406 -0.449219 -0.063544 40 38 38
-0.062500 -0.449219 -0.063397 40 39 39
-0.058594 -0.449219 -0.062252 38 38 38
-0.054688 -0.449219 -0.060029 33 33 33
-0.050781 -0.449219 -0.057746 29 29 30
-0.046875 -0.449219 -0.055158 26 26 27
-0.042969 -0.449219 -0.051733 24 24 25
-0.039062 -0.449219 -0.046872 24 24 25
-0.035156 -0.449219 -0.040475 21 22 23
-0.031250 -0.449219 -0.029079 21 21 22
-0.027344 -0.449219 0.003669 15 16 19
0.105469 -0.449219 -0.047601 26 26 28
0.109375 -0.449219 -0.053503 16 12 15
0.113281 -0.449219 -0.057755 19 18 22
0.117188 -0.449219 -0.060659 22 23 27
0.121094 -0.449219 -0.063314 23 23 28
0.125000 -0.449219 -0.065808 26 25 31
0.128906 -0.449219 -0.067128 29 28 35
0.132812 -0.449219 -0.067727 30 29 36
0.136719 -0.449219 -0.068251 31 31 37
0.140625 -0.449219 -0.068538 31 31 37
0.144531 -0.449219 -0.068123 30 31 37
0.148438 -0.449219 -0.066931 33 33 39
0.152344 -0.449219 -0.066070 34 35 41
0.156250 -0.449219 -0.065025 36 35 41
0.160156 -0.449219 -0.063449 34 34 38
0.164062 -0.449219 -0.061014 34 34 38
0.167969 -0.449219 -0.058188 22 22 27
0.171875 -0.449219 -0.053065 18 18 22
0.175781 -0.449219 -0.046924 17 16 20
0.179688 -0.449219 -0.018573 22 22 27
-0.105469 -0.453125 -0.038633 24 22 25
-0.101562 -0.453125 -0.043965 37 35 39
-0.097656 -0.453125 -0.048718 37 37 39
-0.093750 -0.453125 -0.052828 38 37 38
-0.089844 -0.453125 -0.055795 42 40 40
-0.085938 -0.453125 -0.058270 41 41 40
-0.082031 -0.453125 -0.060607 43 43 41
