ply
    format ascii 1.0
    element vertex 72514
    property float x
    property float y
    property float z
    property uchar red
    property uchar green
    property uchar blue
    end_header
-0.039062 -0.222656 0.050592 48 49 63
-0.035156 -0.222656 0.053351 48 49 62
-0.031250 -0.222656 0.055916 48 49 62
-0.027344 -0.222656 0.058407 50 50 64
-0.023438 -0.222656 0.060759 50 51 65
-0.019531 -0.222656 0.062963 51 53 66
-0.015625 -0.222656 0.065053 54 56 69
-0.011719 -0.222656 0.067021 58 59 72
-0.007812 -0.222656 0.068947 59 60 73
-0.003906 -0.222656 0.070711 57 58 71
0.000000 -0.222656 0.072376 57 59 72
0.003906 -0.222656 0.073936 58 60 74
0.007812 -0.222656 0.075308 58 60 74
0.011719 -0.222656 0.076601 59 61 76
0.015625 -0.222656 0.077876 61 62 77
0.019531 -0.222656 0.078917 62 63 78
0.023438 -0.222656 0.079581 63 64 79
0.027344 -0.222656 0.080147 63 64 79
0.031250 -0.222656 0.080615 63 63 79
0.035156 -0.222656 0.080755 63 63 79
0.039062 -0.222656 0.080517 62 63 79
0.042969 -0.222656 0.080070 63 64 81
0.046875 -0.222656 0.079389 64 66 83
0.050781 -0.222656 0.078533 62 65 83
0.054688 -0.222656 0.077482 63 66 84
0.058594 -0.222656 0.076218 67 70 87
0.062500 -0.222656 0.074829 68 70 87
0.066406 -0.222656 0.073022 69 71 88
0.070312 -0.222656 0.070618 70 72 89
0.074219 -0.222656 0.067931 70 72 89
0.078125 -0.222656 0.065163 73 76 92
0.082031 -0.222656 0.061534 73 75 92
0.085938 -0.222656 0.056797 72 75 92
0.089844 -0.222656 0.051321 78 80 98
0.093750 -0.222656 0.044955 80 82 101
0.097656 -0.222656 0.038064 78 82 102
0.101562 -0.222656 0.029013 78 85 108
0.105469 -0.222656 0.014987 49 55 73
-0.269531 -0.226562 0.028546 107 109 133
-0.265625 -0.226562 0.042220 106 109 131
-0.261719 -0.226562 0.049322 78 83 102
-0.257812 -0.226562 0.053333 86 90 107
-0.253906 -0.226562 0.056967 85 88 105
-0.250000 -0.226562 0.060195 82 85 101
-0.246094 -0.226562 0.063285 84 87 104
-0.242188 -0.226562 0.066253 80 83 100
-0.238281 -0.226562 0.069065 77 80 97
-0.234375 -0.226562 0.071851 76 78 94
-0.230469 -0.226562 0.074062 74 76 92
-0.226562 -0.226562 0.075569 73 75 91
-0.222656 -0.226562 0.076900 74 76 91
-0.218750 -0.226562 0.078152 72 74 89
-0.214844 -0.226562 0.079091 71 74 89
-0.210938 -0.226562 0.079741 72 75 89
-0.207031 -0.226562 0.080253 70 73 87
-0.203125 -0.226562 0.080639 72 75 90
-0.199219 -0.226562 0.080730 75 77 91
-0.195312 -0.226562 0.080413 72 74 88
-0.191406 -0.226562 0.079905 71 72 87
-0.187500 -0.226562 0.079264 69 71 85
-0.183594 -0.226562 0.078405 67 69 84
-0.179688 -0.226562 0.077266 67 69 83
-0.175781 -0.226562 0.076004 65 68 82
-0.171875 -0.226562 0.074682 62 65 79
-0.167969 -0.226562 0.073274 63 65 80
-0.164062 -0.226562 0.071779 63 65 80
-0.160156 -0.226562 0.070201 62 64 79
-0.156250 -0.226562 0.068530 64 66 80
-0.152344 -0.226562 0.066697 62 65 80
-0.148438 -0.226562 0.064744 63 65 80
-0.144531 -0.226562 0.062568 63 66 80
-0.140625 -0.226562 0.060183 59 62 75
-0.136719 -0.226562 0.057407 57 59 71
-0.132812 -0.226562 0.054094 56 58 71
-0.128906 -0.226562 0.050619 54 56 70
-0.125000 -0.226562 0.047094 56 58 72
-0.121094 -0.226562 0.043613 56 58 73
-0.117188 -0.226562 0.040377 53 55 70
-0.113281 -0.226562 0.037168 62 62 77
-0.109375 -0.226562 0.034106 60 61 76
-0.105469 -0.226562 0.030889 59 60 74
-0.101562 -0.226562 0.026459 71 72 85
-0.097656 -0.226562 0.019614 63 65 81
-0.093750 -0.226562 0.011210 59 62 80
-0.089844 -0.226562 -0.001874 29 32 47
-0.078125 -0.226562 -0.010276 44 46 60
-0.074219 -0.226562 -0.000405 49 56 73
-0.070312 -0.226562 0.006962 52 55 71
-0.066406 -0.226562 0.013977 56 57 72
-0.062500 -0.226562 0.020461 58 59 73
-0.058594 -0.226562 0.026402 63 63 78
-0.054688 -0.226562 0.031956 55 55 70
-0.050781 -0.226562 0.036984 44 46 60
-0.046875 -0.226562 0.041665 42 43 57
-0.042969 -0.226562 0.045696 46 47 61
-0.039062 -0.226562 0.048961 50 51 65
-0.035156 -0.226562 0.051890 48 50 63
-0.031250 -0.226562 0.054620 50 50 64
-0.027344 -0.226562 0.057253 52 52 66
-0.023438 -0.226562 0.059725 51 52 65
-0.019531 -0.226562 0.062071 52 53 67
-0.015625 -0.226562 0.064294 53 55 68
-0.011719 -0.226562 0.066379 55 57 70
-0.007812 -0.226562 0.068421 58 59 72
-0.003906 -0.226562 0.070283 56 57 71
0.000000 -0.226562 0.072011 56 57 70
0.003906 -0.226562 0.073608 58 59 72
0.007812 -0.226562 0.075009 59 60 74
0.011719 -0.226562 0.076324 61 62 77
0.015625 -0.226562 0.077608 63 64 79
0.019531 -0.226562 0.078636 64 65 80
0.023438 -0.226562 0.079271 64 65 80
0.027344 -0.226562 0.079809 64 64 80
0.031250 -0.226562 0.080255 64 64 80
0.035156 -0.226562 0.080393 64 64 80
0.039062 -0.226562 0.080186 63 64 80
0.042969 -0.226562 0.079772 64 65 82
0.046875 -0.226562 0.079129 64 66 84
0.050781 -0.226562 0.078309 63 65 83
0.054688 -0.226562 0.077288 63 65 83
0.058594 -0.226562 0.076059 65 67 85
0.062500 -0.226562 0.074717 65 68 85
0.066406 -0.226562 0.072952 67 69 86
0.070312 -0.226562 0.070583 70 72 88
0.074219 -0.226562 0.067920 70 72 88
0.078125 -0.226562 0.065172 74 76 92
0.082031 -0.226562 0.061572 75 78 94
0.085938 -0.226562 0.056846 73 75 92
0.089844 -0.226562 0.051403 76 78 96
0.093750 -0.226562 0.045082 79 81 100
0.097656 -0.226562 0.038213 75 79 99
0.101562 -0.226562 0.028921 76 83 106
0.105469 -0.226562 0.014167 46 51 70
-0.269531 -0.230469 0.028155 108 111 136
-0.265625 -0.230469 0.041303 105 108 130
-0.261719 -0.230469 0.048474 79 84 103
-0.257812 -0.230469 0.052650 87 91 108
-0.253906 -0.230469 0.056487 84 88 105
-0.250000 -0.230469 0.059836 81 84 102
-0.246094 -0.230469 0.062989 82 85 102
-0.242188 -0.230469 0.065985 80 83 100
-0.238281 -0.230469 0.068851 79 82 98
-0.234375 -0.230469 0.071697 79 80 96
-0.230469 -0.230469 0.073955 77 78 93
-0.226562 -0.230469 0.075491 75 77 91
-0.222656 -0.230469 0.076843 74 77 91
-0.218750 -0.230469 0.078112 72 75 90
-0.214844 -0.230469 0.079068 71 74 89
-0.210938 -0.230469 0.079725 70 73 88
-0.207031 -0.230469 0.080241 67 70 85
-0.203125 -0.230469 0.080627 68 71 86
-0.199219 -0.230469 0.080701 68 70 85
-0.195312 -0.230469 0.080372 65 67 82
-0.191406 -0.230469 0.079861 65 67 81
-0.187500 -0.230469 0.079205 66 68 83
-0.183594 -0.230469 0.078337 65 67 82
-0.179688 -0.230469 0.077185 66 68 83
-0.175781 -0.230469 0.075910 67 69 84
-0.171875 -0.230469 0.074559 64 66 81
-0.167969 -0.230469 0.073101 64 67 81
-0.164062 -0.230469 0.071559 63 65 80
-0.160156 -0.230469 0.069933 61 63 78
-0.156250 -0.230469 0.068223 63 65 80
-0.152344 -0.230469 0.066329 61 64 78
-0.148438 -0.230469 0.064288 61 63 78
-0.144531 -0.230469 0.062028 62 64 79
-0.140625 -0.230469 0.059562 57 60 73
-0.136719 -0.230469 0.056700 56 58 71
-0.132812 -0.230469 0.053273 57 59 72
-0.128906 -0.230469 0.049666 57 59 72
-0.125000 -0.230469 0.046028 59 61 75
-0.121094 -0.230469 0.042429 58 60 75
-0.117188 -0.230469 0.039095 54 56 72
-0.113281 -0.230469 0.035781 64 65 80
-0.109375 -0.230469 0.032613 61 62 77
-0.105469 -0.230469 0.029301 62 64 78
-0.101562 -0.230469 0.024515 76 79 93
-0.097656 -0.230469 0.017615 65 68 85
-0.093750 -0.230469 0.008557 71 75 93
-0.074219 -0.230469 -0.005087 52 58 79
-0.070312 -0.230469 0.004232 51 56 72
-0.066406 -0.230469 0.011234 54 56 71
-0.062500 -0.230469 0.017761 57 57 72
-0.058594 -0.230469 0.023925 59 59 73
-0.054688 -0.230469 0.029766 52 52 67
-0.050781 -0.230469 0.035013 47 47 61
-0.046875 -0.230469 0.039904 44 46 59
-0.042969 -0.230469 0.044151 47 48 62
-0.039062 -0.230469 0.047587 52 53 66
-0.035156 -0.230469 0.050668 50 51 65
-0.031250 -0.230469 0.053537 51 51 65
-0.027344 -0.230469 0.056261 53 53 66
-0.023438 -0.230469 0.058804 51 52 65
-0.019531 -0.230469 0.061244 53 55 68
-0.015625 -0.230469 0.063553 54 56 70
-0.011719 -0.230469 0.065719 54 56 69
-0.007812 -0.230469 0.067850 57 59 72
-0.003906 -0.230469 0.069800 58 59 72
0.000000 -0.230469 0.071611 56 58 71
0.003906 -0.230469 0.073270 57 58 72
0.007812 -0.230469 0.074718 58 59 73
0.011719 -0.230469 0.076079 61 62 77
0.015625 -0.230469 0.077396 64 65 80
0.019531 -0.230469 0.078426 64 65 80
0.023438 -0.230469 0.079031 64 64 79
0.027344 -0.230469 0.079536 63 64 79
0.031250 -0.230469 0.079949 64 65 80
0.035156 -0.230469 0.080088 64 65 81
0.039062 -0.230469 0.079918 64 64 80
0.042969 -0.230469 0.079534 65 65 82
0.046875 -0.230469 0.078917 65 66 83
0.050781 -0.230469 0.078114 64 65 83
0.054688 -0.230469 0.077091 65 66 84
0.058594 -0.230469 0.075860 68 69 86
0.062500 -0.230469 0.074529 68 69 87
0.066406 -0.230469 0.072782 68 69 86
0.070312 -0.230469 0.070416 69 71 87
0.074219 -0.230469 0.067757 68 70 87
0.078125 -0.230469 0.065023 72 74 90
0.082031 -0.230469 0.061462 75 77 93
0.085938 -0.230469 0.056807 70 73 90
0.089844 -0.230469 0.051456 74 76 93
0.093750 -0.230469 0.045209 81 83 102
0.097656 -0.230469 0.038460 79 83 103
0.101562 -0.230469 0.029144 81 88 111
0.105469 -0.230469 0.013964 51 55 74
-0.269531 -0.234375 0.027954 108 111 136
-0.265625 -0.234375 0.040534 105 109 131
-0.261719 -0.234375 0.047769 83 89 107
-0.257812 -0.234375 0.052066 90 94 111
-0.253906 -0.234375 0.055997 85 89 106
-0.250000 -0.234375 0.059465 81 85 102
-0.246094 -0.234375 0.062688 80 83 101
-0.242188 -0.234375 0.065716 78 81 99
-0.238281 -0.234375 0.068626 79 81 98
-0.234375 -0.234375 0.071512 76 77 93
-0.230469 -0.234375 0.073803 74 76 91
-0.226562 -0.234375 0.075371 74 76 91
-0.222656 -0.234375 0.076759 75 78 92
-0.218750 -0.234375 0.078047 76 79 93
-0.214844 -0.234375 0.079014 75 78 92
-0.210938 -0.234375 0.079678 73 76 90
-0.207031 -0.234375 0.080199 70 73 88
-0.203125 -0.234375 0.080588 70 73 87
-0.199219 -0.234375 0.080661 68 71 86
-0.195312 -0.234375 0.080342 66 68 83
-0.191406 -0.234375 0.079838 65 68 82
-0.187500 -0.234375 0.079174 66 68 83
-0.183594 -0.234375 0.078299 66 68 83
-0.179688 -0.234375 0.077140 67 69 83
-0.175781 -0.234375 0.075843 68 70 85
-0.171875 -0.234375 0.074453 66 68 82
-0.167969 -0.234375 0.072929 65 67 82
-0.164062 -0.234375 0.071309 62 64 79
-0.160156 -0.234375 0.069595 59 61 76
-0.156250 -0.234375 0.067808 61 63 77
-0.152344 -0.234375 0.065822 59 61 76
-0.148438 -0.234375 0.063662 58 61 75
-0.144531 -0.234375 0.061301 61 63 77
-0.140625 -0.234375 0.058756 58 60 74
-0.136719 -0.234375 0.055824 57 59 72
-0.132812 -0.234375 0.052314 58 60 73
-0.128906 -0.234375 0.048627 58 59 72
-0.125000 -0.234375 0.044947 61 62 76
-0.121094 -0.234375 0.041289 59 61 75
-0.117188 -0.234375 0.037889 56 57 73
-0.113281 -0.234375 0.034479 64 65 80
-0.109375 -0.234375 0.031158 62 64 79
-0.105469 -0.234375 0.027694 69 72 87
-0.101562 -0.234375 0.022711 82 86 102
-0.097656 -0.234375 0.016031 63 69 87
-0.093750 -0.234375 0.005508 73 80 98
-0.074219 -0.234375 -0.011091 51 56 79
-0.070312 -0.234375 0.000652 52 57 74
-0.066406 -0.234375 0.008573 53 55 70
-0.062500 -0.234375 0.015226 57 57 72
-0.058594 -0.234375 0.021450 61 60 75
-0.054688 -0.234375 0.027595 55 55 70
-0.050781 -0.234375 0.033140 51 51 65
-0.046875 -0.234375 0.038273 47 48 62
-0.042969 -0.234375 0.042699 48 48 62
-0.039062 -0.234375 0.046264 52 52 66
-0.035156 -0.234375 0.049481 50 51 65
-0.031250 -0.234375 0.052490 52 52 65
-0.027344 -0.234375 0.055313 54 54 67
-0.023438 -0.234375 0.057919 54 54 68
-0.019531 -0.234375 0.060418 55 57 70
-0.015625 -0.234375 0.062789 54 57 70
-0.011719 -0.234375 0.065029 53 56 69
-0.007812 -0.234375 0.067247 57 58 71
-0.003906 -0.234375 0.069282 58 59 73
0.000000 -0.234375 0.071183 58 59 72
0.003906 -0.234375 0.072920 59 59 73
0.007812 -0.234375 0.074418 59 60 74
0.011719 -0.234375 0.075826 62 63 78
0.015625 -0.234375 0.077181 66 66 82
0.019531 -0.234375 0.078213 67 67 82
0.023438 -0.234375 0.078780 65 65 81
0.027344 -0.234375 0.079241 64 64 79
0.031250 -0.234375 0.079620 65 66 81
0.035156 -0.234375 0.079762 66 67 82
0.039062 -0.234375 0.079633 67 67 83
0.042969 -0.234375 0.079286 68 67 84
0.046875 -0.234375 0.078704 67 67 84
0.050781 -0.234375 0.077918 67 66 84
0.054688 -0.234375 0.076881 68 68 86
0.058594 -0.234375 0.075614 70 69 86
0.062500 -0.234375 0.074258 69 69 86
0.066406 -0.234375 0.072497 67 68 85
0.070312 -0.234375 0.070125 67 69 86
0.074219 -0.234375 0.067479 67 69 85
0.078125 -0.234375 0.064760 69 72 88
0.082031 -0.234375 0.061238 73 75 91
0.085938 -0.234375 0.056693 69 71 88
0.089844 -0.234375 0.051489 75 77 95
0.093750 -0.234375 0.045400 88 89 108
0.097656 -0.234375 0.038790 85 89 109
0.101562 -0.234375 0.029666 84 91 114
0.105469 -0.234375 0.014891 52 56 75
-0.273438 -0.238281 0.001093 86 87 112
-0.269531 -0.238281 0.027540 109 111 136
-0.265625 -0.238281 0.039704 104 107 131
-0.261719 -0.238281 0.047177 81 86 106
-0.257812 -0.238281 0.051597 86 90 107
-0.253906 -0.238281 0.055552 84 87 105
-0.250000 -0.238281 0.059096 82 86 103
-0.246094 -0.238281 0.062385 80 84 101
-0.242188 -0.238281 0.065431 79 82 99
-0.238281 -0.238281 0.068372 79 81 98
-0.234375 -0.238281 0.071298 74 76 91
-0.230469 -0.238281 0.073629 72 74 89
-0.226562 -0.238281 0.075237 72 75 90
-0.222656 -0.238281 0.076662 74 76 91
-0.218750 -0.238281 0.077967 74 76 91
-0.214844 -0.238281 0.078934 72 75 89
-0.210938 -0.238281 0.079606 69 72 87
-0.207031 -0.238281 0.080135 68 71 86
-0.203125 -0.238281 0.080535 69 71 86
-0.199219 -0.238281 0.080623 68 71 85
-0.195312 -0.238281 0.080324 69 71 85
-0.191406 -0.238281 0.079829 67 69 84
-0.187500 -0.238281 0.079160 66 68 83
-0.183594 -0.238281 0.078271 66 68 83
-0.179688 -0.238281 0.077099 65 67 81
-0.175781 -0.238281 0.075777 65 67 81
-0.171875 -0.238281 0.074347 63 65 80
-0.167969 -0.238281 0.072771 63 65 80
-0.164062 -0.238281 0.071088 60 63 77
-0.160156 -0.238281 0.069302 58 60 75
-0.156250 -0.238281 0.067445 61 63 78
-0.152344 -0.238281 0.065374 59 61 76
-0.148438 -0.238281 0.063082 58 60 74
-0.144531 -0.238281 0.060599 60 61 75
-0.140625 -0.238281 0.057962 57 59 72
-0.136719 -0.238281 0.054949 56 58 70
-0.132812 -0.238281 0.051360 55 57 69
-0.128906 -0.238281 0.047611 54 56 69
-0.125000 -0.238281 0.043913 59 61 75
-0.121094 -0.238281 0.040212 59 61 75
-0.117188 -0.238281 0.036727 56 58 73
-0.113281 -0.238281 0.033185 60 61 77
-0.109375 -0.238281 0.029778 60 62 78
-0.105469 -0.238281 0.026209 68 71 88
-0.101562 -0.238281 0.020936 77 84 99
-0.097656 -0.238281 0.014412 63 72 89
-0.093750 -0.238281 0.002287 69 78 97
-0.074219 -0.238281 -0.016138 48 53 74
-0.070312 -0.238281 -0.003276 58 62 81
-0.066406 -0.238281 0.005862 54 56 72
-0.062500 -0.238281 0.012824 57 57 72
-0.058594 -0.238281 0.019142 62 61 76
-0.054688 -0.238281 0.025544 58 58 74
-0.050781 -0.238281 0.031405 54 54 69
-0.046875 -0.238281 0.036780 51 50 65
-0.042969 -0.238281 0.041350 50 49 63
-0.039062 -0.238281 0.045021 52 52 66
-0.035156 -0.238281 0.048363 52 52 65
-0.031250 -0.238281 0.051499 52 52 66
-0.027344 -0.238281 0.054397 55 54 68
-0.023438 -0.238281 0.057048 56 56 70
-0.019531 -0.238281 0.059595 56 58 71
-0.015625 -0.238281 0.062022 54 56 70
-0.011719 -0.238281 0.064329 54 55 69
-0.007812 -0.238281 0.066631 57 58 71
-0.003906 -0.238281 0.068759 58 59 72
0.000000 -0.238281 0.070754 59 59 73
0.003906 -0.238281 0.072571 60 60 74
0.007812 -0.238281 0.074134 61 62 76
0.011719 -0.238281 0.075604 65 65 80
0.015625 -0.238281 0.076987 68 69 84
0.019531 -0.238281 0.078004 69 69 85
0.023438 -0.238281 0.078535 67 67 82
0.027344 -0.238281 0.078961 65 65 80
0.031250 -0.238281 0.079312 65 65 81
0.035156 -0.238281 0.079450 66 66 82
0.039062 -0.238281 0.079354 67 66 83
0.042969 -0.238281 0.079041 68 67 84
0.046875 -0.238281 0.078490 67 66 83
0.050781 -0.238281 0.077721 68 67 84
0.054688 -0.238281 0.076669 70 69 86
0.058594 -0.238281 0.075369 69 68 85
0.062500 -0.238281 0.073985 66 66 84
0.066406 -0.238281 0.072208 66 67 84
0.070312 -0.238281 0.069825 67 69 86
0.074219 -0.238281 0.067183 67 69 85
0.078125 -0.238281 0.064462 70 72 88
0.082031 -0.238281 0.060962 72 75 90
0.085938 -0.238281 0.056524 69 72 89
0.089844 -0.238281 0.051460 77 79 97
0.093750 -0.238281 0.045498 89 91 109
0.097656 -0.238281 0.038989 85 88 108
0.101562 -0.238281 0.030261 82 89 112
0.105469 -0.238281 0.016704 48 53 72
-0.273438 -0.242188 0.004055 93 93 118
-0.269531 -0.242188 0.027188 113 113 139
-0.265625 -0.242188 0.039056 105 107 131
-0.261719 -0.242188 0.046561 78 84 104
-0.257812 -0.242188 0.051147 83 86 104
-0.253906 -0.242188 0.055142 83 86 104
-0.250000 -0.242188 0.058766 84 87 103
-0.246094 -0.242188 0.062113 82 85 102
-0.242188 -0.242188 0.065180 80 83 99
-0.238281 -0.242188 0.068151 78 81 97
-0.234375 -0.242188 0.071114 75 77 93
-0.230469 -0.242188 0.073490 74 77 93
-0.226562 -0.242188 0.075121 74 77 92
-0.222656 -0.242188 0.076558 73 76 91
-0.218750 -0.242188 0.077873 72 75 90
-0.214844 -0.242188 0.078846 70 74 88
-0.210938 -0.242188 0.079530 68 71 86
-0.207031 -0.242188 0.080069 68 71 86
-0.203125 -0.242188 0.080482 68 70 85
-0.199219 -0.242188 0.080583 66 69 83
-0.195312 -0.242188 0.080296 68 70 85
-0.191406 -0.242188 0.079808 67 69 83
-0.187500 -0.242188 0.079144 66 68 82
-0.183594 -0.242188 0.078255 65 67 81
-0.179688 -0.242188 0.077079 63 65 79
-0.175781 -0.242188 0.075742 63 65 80
-0.171875 -0.242188 0.074280 62 64 79
-0.167969 -0.242188 0.072670 61 63 78
-0.164062 -0.242188 0.070948 60 62 77
-0.160156 -0.242188 0.069109 58 60 75
-0.156250 -0.242188 0.067185 60 62 77
-0.152344 -0.242188 0.065021 58 60 75
-0.148438 -0.242188 0.062599 56 58 72
-0.144531 -0.242188 0.059991 57 59 73
-0.140625 -0.242188 0.057248 55 57 70
-0.136719 -0.242188 0.054152 55 57 70
-0.132812 -0.242188 0.050492 55 57 70
-0.128906 -0.242188 0.046673 54 57 70
-0.125000 -0.242188 0.042935 59 61 75
-0.121094 -0.242188 0.039179 61 63 77
-0.117188 -0.242188 0.035628 58 60 75
-0.113281 -0.242188 0.031987 59 60 76
-0.109375 -0.242188 0.028369 63 65 81
-0.105469 -0.242188 0.024716 67 72 90
-0.101562 -0.242188 0.019415 71 79 97
-0.097656 -0.242188 0.012604 72 83 99
-0.070312 -0.242188 -0.006962 62 66 84
-0.066406 -0.242188 0.003158 54 56 73
-0.062500 -0.242188 0.010396 55 55 71
-0.058594 -0.242188 0.016983 60 59 76
-0.054688 -0.242188 0.023673 60 59 76
-0.050781 -0.242188 0.029814 59 57 73
-0.046875 -0.242188 0.035384 55 54 68
-0.042969 -0.242188 0.040032 53 51 65
-0.039062 -0.242188 0.043757 54 52 66
-0.035156 -0.242188 0.047191 53 52 66
-0.031250 -0.242188 0.050430 53 52 66
-0.027344 -0.242188 0.053391 53 53 66
-0.023438 -0.242188 0.056091 55 55 68
-0.019531 -0.242188 0.058710 56 57 70
-0.015625 -0.242188 0.061219 55 56 70
-0.011719 -0.242188 0.063604 54 55 69
-0.007812 -0.242188 0.065980 57 57 71
-0.003906 -0.242188 0.068191 59 59 72
0.000000 -0.242188 0.070266 59 59 72
0.003906 -0.242188 0.072156 59 59 73
0.007812 -0.242188 0.073783 61 62 76
0.011719 -0.242188 0.075306 67 67 82
0.015625 -0.242188 0.076714 70 70 86
0.019531 -0.242188 0.077731 69 69 85
0.023438 -0.242188 0.078250 67 67 82
0.027344 -0.242188 0.078661 66 66 82
0.031250 -0.242188 0.079002 67 66 82
0.035156 -0.242188 0.079143 66 66 83
0.039062 -0.242188 0.079070 67 66 84
0.042969 -0.242188 0.078785 68 67 85
0.046875 -0.242188 0.078251 67 66 84
0.050781 -0.242188 0.077478 69 67 84
0.054688 -0.242188 0.076413 72 71 87
0.058594 -0.242188 0.075099 71 70 87
0.062500 -0.242188 0.073707 67 67 85
0.066406 -0.242188 0.071919 68 69 86
0.070312 -0.242188 0.069509 68 70 87
0.074219 -0.242188 0.066841 68 70 86
0.078125 -0.242188 0.064095 71 73 88
0.082031 -0.242188 0.060621 72 74 89
0.085938 -0.242188 0.056299 70 72 89
0.089844 -0.242188 0.051335 75 78 96
0.093750 -0.242188 0.045437 83 85 103
0.097656 -0.242188 0.039074 79 82 102
0.101562 -0.242188 0.030750 80 88 110
0.105469 -0.242188 0.018283 48 52 71
-0.273438 -0.246094 0.005376 100 102 127
-0.269531 -0.246094 0.026660 114 115 140
-0.265625 -0.246094 0.038274 104 107 131
-0.261719 -0.246094 0.045949 80 85 105
-0.257812 -0.246094 0.050753 85 88 106
-0.253906 -0.246094 0.054805 84 87 104
-0.250000 -0.246094 0.058453 83 86 103
-0.246094 -0.246094 0.061823 83 86 102
-0.242188 -0.246094 0.064926 79 82 98
-0.238281 -0.246094 0.067940 75 78 94
-0.234375 -0.246094 0.070927 74 77 93
-0.230469 -0.246094 0.073324 76 78 95
-0.226562 -0.246094 0.074954 74 77 93
-0.222656 -0.246094 0.076380 72 75 90
-0.218750 -0.246094 0.077692 71 74 89
-0.214844 -0.246094 0.078669 72 75 89
-0.210938 -0.246094 0.079365 69 73 87
-0.207031 -0.246094 0.079915 70 73 87
-0.203125 -0.246094 0.080341 69 72 86
-0.199219 -0.246094 0.080449 67 70 84
-0.195312 -0.246094 0.080163 67 70 84
-0.191406 -0.246094 0.079682 66 68 83
-0.187500 -0.246094 0.079030 65 67 82
-0.183594 -0.246094 0.078156 64 66 80
-0.179688 -0.246094 0.076991 62 64 79
-0.175781 -0.246094 0.075665 64 66 81
-0.171875 -0.246094 0.074203 63 65 80
-0.167969 -0.246094 0.072598 62 64 79
-0.164062 -0.246094 0.070875 63 65 80
-0.160156 -0.246094 0.069015 62 64 79
-0.156250 -0.246094 0.067057 63 65 80
-0.152344 -0.246094 0.064831 61 63 78
-0.148438 -0.246094 0.062310 60 62 76
-0.144531 -0.246094 0.059599 62 63 77
-0.140625 -0.246094 0.056753 59 60 75
-0.136719 -0.246094 0.053575 58 60 74
-0.132812 -0.246094 0.049848 58 60 73
-0.128906 -0.246094 0.045948 56 58 72
-0.125000 -0.246094 0.042142 58 60 74
-0.121094 -0.246094 0.038290 60 62 76
-0.117188 -0.246094 0.034585 60 61 77
-0.113281 -0.246094 0.030798 60 62 78
-0.109375 -0.246094 0.026870 69 71 88
-0.105469 -0.246094 0.023002 68 72 92
-0.101562 -0.246094 0.017632 61 69 90
-0.097656 -0.246094 0.009854 67 78 100
-0.070312 -0.246094 -0.011304 55 58 76
-0.066406 -0.246094 0.000221 49 51 69
-0.062500 -0.246094 0.008074 54 55 72
-0.058594 -0.246094 0.015142 62 61 79
-0.054688 -0.246094 0.021994 64 62 80
-0.050781 -0.246094 0.028247 62 60 76
-0.046875 -0.246094 0.033930 58 56 71
-0.042969 -0.246094 0.038615 54 52 66
-0.039062 -0.246094 0.042379 54 52 66
-0.035156 -0.246094 0.045926 55 53 67
-0.031250 -0.246094 0.049290 54 53 66
-0.027344 -0.246094 0.052335 53 53 66
-0.023438 -0.246094 0.055113 55 55 68
-0.019531 -0.246094 0.057827 56 57 70
-0.015625 -0.246094 0.060431 56 56 69
-0.011719 -0.246094 0.062895 55 55 68
-0.007812 -0.246094 0.065326 57 56 69
-0.003906 -0.246094 0.067592 59 57 71
0.000000 -0.246094 0.069717 59 58 71
0.003906 -0.246094 0.071654 59 58 72
0.007812 -0.246094 0.073328 60 61 75
0.011719 -0.246094 0.074892 66 66 81
0.015625 -0.246094 0.076338 71 71 86
0.019531 -0.246094 0.077389 71 71 86
0.023438 -0.246094 0.077930 69 69 85
0.027344 -0.246094 0.078348 69 69 85
0.031250 -0.246094 0.078704 69 69 85
0.035156 -0.246094 0.078862 69 68 86
0.039062 -0.246094 0.078794 69 69 88
0.042969 -0.246094 0.078519 72 72 90
0.046875 -0.246094 0.077983 71 70 88
0.050781 -0.246094 0.077200 69 68 84
0.054688 -0.246094 0.076133 72 71 87
0.058594 -0.246094 0.074822 71 71 87
0.062500 -0.246094 0.073466 67 68 85
0.066406 -0.246094 0.071691 68 69 87
0.070312 -0.246094 0.069242 68 70 87
0.074219 -0.246094 0.066528 68 70 85
0.078125 -0.246094 0.063718 70 72 87
0.082031 -0.246094 0.060221 71 72 87
0.085938 -0.246094 0.055947 70 72 88
0.089844 -0.246094 0.051027 75 77 95
0.093750 -0.246094 0.045232 79 81 100
0.097656 -0.246094 0.039076 76 80 100
0.101562 -0.246094 0.031094 81 89 110
0.105469 -0.246094 0.019568 48 53 72
-0.273438 -0.250000 0.005343 103 105 129
-0.269531 -0.250000 0.025823 109 111 137
-0.265625 -0.250000 0.037446 101 105 129
-0.261719 -0.250000 0.045263 82 87 106
-0.257812 -0.250000 0.050331 88 90 108
-0.253906 -0.250000 0.054495 85 87 105
-0.250000 -0.250000 0.058152 83 86 102
-0.246094 -0.250000 0.061548 83 86 102
-0.242188 -0.250000 0.064677 79 82 97
-0.238281 -0.250000 0.067720 75 78 93
-0.234375 -0.250000 0.070721 75 78 94
-0.230469 -0.250000 0.073128 76 79 95
-0.226562 -0.250000 0.074750 73 76 92
-0.222656 -0.250000 0.076174 70 73 88
-0.218750 -0.250000 0.077483 69 72 87
-0.214844 -0.250000 0.078463 70 73 88
-0.210938 -0.250000 0.079177 69 72 86
-0.207031 -0.250000 0.079740 69 72 86
-0.203125 -0.250000 0.080179 67 70 84
-0.199219 -0.250000 0.080299 66 69 83
-0.195312 -0.250000 0.080028 66 69 83
-0.191406 -0.250000 0.079559 65 67 82
-0.187500 -0.250000 0.078913 66 68 82
-0.183594 -0.250000 0.078047 65 67 81
-0.179688 -0.250000 0.076897 65 67 82
-0.175781 -0.250000 0.075587 67 69 84
-0.171875 -0.250000 0.074131 64 66 81
-0.167969 -0.250000 0.072534 64 66 80
-0.164062 -0.250000 0.070809 65 66 81
-0.160156 -0.250000 0.068937 64 66 81
-0.156250 -0.250000 0.066973 65 67 81
-0.152344 -0.250000 0.064716 63 65 80
-0.148438 -0.250000 0.062121 62 63 78
-0.144531 -0.250000 0.059328 62 63 78
-0.140625 -0.250000 0.056403 58 60 74
-0.136719 -0.250000 0.053162 56 58 72
-0.132812 -0.250000 0.049390 56 58 72
-0.128906 -0.250000 0.045440 55 57 71
-0.125000 -0.250000 0.041579 56 58 73
-0.121094 -0.250000 0.037591 58 61 76
-0.117188 -0.250000 0.033614 59 61 76
-0.113281 -0.250000 0.029525 60 62 78
-0.109375 -0.250000 0.025158 70 72 90
-0.105469 -0.250000 0.020842 64 68 89
-0.101562 -0.250000 0.015193 56 64 86
-0.097656 -0.250000 0.006430 51 62 89
-0.070312 -0.250000 -0.016007 44 46 67
-0.066406 -0.250000 -0.002657 49 51 71
-0.062500 -0.250000 0.006181 58 58 77
-0.058594 -0.250000 0.013607 67 65 84
-0.054688 -0.250000 0.020447 64 62 81
-0.050781 -0.250000 0.026682 61 59 76
-0.046875 -0.250000 0.032406 62 59 74
-0.042969 -0.250000 0.037096 56 53 68
-0.039062 -0.250000 0.040919 54 52 65
-0.035156 -0.250000 0.044587 57 54 68
-0.031250 -0.250000 0.048098 55 54 68
-0.027344 -0.250000 0.051265 54 54 67
-0.023438 -0.250000 0.054139 56 56 69
-0.019531 -0.250000 0.056948 57 57 70
-0.015625 -0.250000 0.059651 57 57 70
-0.011719 -0.250000 0.062193 57 57 70
-0.007812 -0.250000 0.064667 58 56 70
-0.003906 -0.250000 0.066964 59 57 70
0.000000 -0.250000 0.069120 59 57 70
0.003906 -0.250000 0.071095 60 59 72
0.007812 -0.250000 0.072814 61 61 75
0.011719 -0.250000 0.074414 64 65 80
0.015625 -0.250000 0.075893 69 70 85
0.019531 -0.250000 0.076997 73 74 89
0.023438 -0.250000 0.077593 75 75 90
0.027344 -0.250000 0.078050 73 73 89
0.031250 -0.250000 0.078435 71 71 87
0.035156 -0.250000 0.078613 70 69 88
0.039062 -0.250000 0.078531 71 70 90
0.042969 -0.250000 0.078232 73 73 92
0.046875 -0.250000 0.077674 72 71 89
0.050781 -0.250000 0.076894 69 69 85
0.054688 -0.250000 0.075850 71 71 86
0.058594 -0.250000 0.074576 71 70 86
0.062500 -0.250000 0.073287 69 70 86
0.066406 -0.250000 0.071520 70 72 89
0.070312 -0.250000 0.069007 69 71 88
0.074219 -0.250000 0.066216 69 70 86
0.078125 -0.250000 0.063312 71 73 87
0.082031 -0.250000 0.059759 70 72 86
0.085938 -0.250000 0.055512 69 71 87
0.089844 -0.250000 0.050629 74 76 93
0.093750 -0.250000 0.044897 77 79 97
0.097656 -0.250000 0.039004 78 81 101
0.101562 -0.250000 0.031380 84 92 113
0.105469 -0.250000 0.020430 47 52 71
-0.273438 -0.253906 0.003908 100 103 128
-0.269531 -0.253906 0.025069 108 110 136
-0.265625 -0.253906 0.036736 102 106 130
-0.261719 -0.253906 0.044561 81 85 105
-0.257812 -0.253906 0.049771 86 88 105
-0.253906 -0.253906 0.054070 85 87 104
-0.250000 -0.253906 0.057793 82 85 101
-0.246094 -0.253906 0.061246 80 84 99
-0.242188 -0.253906 0.064398 75 78 94
-0.238281 -0.253906 0.067458 73 76 91
-0.234375 -0.253906 0.070479 74 77 93
-0.230469 -0.253906 0.072898 73 75 92
-0.226562 -0.253906 0.074509 71 74 90
-0.222656 -0.253906 0.075930 69 72 88
-0.218750 -0.253906 0.077247 69 72 87
-0.214844 -0.253906 0.078238 70 73 87
-0.210938 -0.253906 0.078969 69 72 86
-0.207031 -0.253906 0.079544 70 73 87
-0.203125 -0.253906 0.080000 66 69 84
-0.199219 -0.253906 0.080139 66 68 83
-0.195312 -0.253906 0.079887 68 70 85
-0.191406 -0.253906 0.079431 67 69 83
-0.187500 -0.253906 0.078785 66 68 83
-0.183594 -0.253906 0.077921 65 67 82
-0.179688 -0.253906 0.076786 66 68 82
-0.175781 -0.253906 0.075495 67 69 83
-0.171875 -0.253906 0.074048 63 65 80
-0.167969 -0.253906 0.072456 63 65 79
-0.164062 -0.253906 0.070732 62 64 78
-0.160156 -0.253906 0.068864 60 62 76
-0.156250 -0.253906 0.066917 62 63 78
-0.152344 -0.253906 0.064640 61 63 78
-0.148438 -0.253906 0.061985 61 63 77
-0.144531 -0.253906 0.059125 62 64 78
-0.140625 -0.253906 0.056123 61 63 78
-0.136719 -0.253906 0.052810 60 62 77
-0.132812 -0.253906 0.048998 61 63 78
-0.128906 -0.253906 0.045015 62 64 79
-0.125000 -0.253906 0.041111 63 65 80
-0.121094 -0.253906 0.036980 62 65 80
-0.117188 -0.253906 0.032652 59 61 76
-0.113281 -0.253906 0.028172 59 62 79
-0.109375 -0.253906 0.023344 69 72 90
-0.105469 -0.253906 0.018551 62 65 87
-0.101562 -0.253906 0.012758 66 71 95
-0.097656 -0.253906 0.002972 54 64 92
-0.066406 -0.253906 -0.006097 63 66 87
-0.062500 -0.253906 0.004348 63 62 81
-0.058594 -0.253906 0.011808 67 66 85
-0.054688 -0.253906 0.018689 62 61 80
-0.050781 -0.253906 0.025131 62 60 76
-0.046875 -0.253906 0.030871 68 64 80
-0.042969 -0.253906 0.035532 61 58 72
-0.039062 -0.253906 0.039424 54 52 65
-0.035156 -0.253906 0.043220 56 54 68
-0.031250 -0.253906 0.046892 56 54 68
-0.027344 -0.253906 0.050203 55 55 68
-0.023438 -0.253906 0.053176 57 57 70
-0.019531 -0.253906 0.056071 57 57 70
-0.015625 -0.253906 0.058870 57 57 70
-0.011719 -0.253906 0.061486 58 57 71
-0.007812 -0.253906 0.063991 59 57 71
-0.003906 -0.253906 0.066309 59 57 71
0.000000 -0.253906 0.068487 59 57 70
0.003906 -0.253906 0.070491 60 58 72
0.007812 -0.253906 0.072243 62 62 76
0.011719 -0.253906 0.073869 63 63 78
0.015625 -0.253906 0.075380 65 66 81
0.019531 -0.253906 0.076551 72 72 88
0.023438 -0.253906 0.077237 78 77 93
0.027344 -0.253906 0.077757 76 76 91
0.031250 -0.253906 0.078179 71 71 87
0.035156 -0.253906 0.078363 71 70 89
0.039062 -0.253906 0.078264 72 72 91
0.042969 -0.253906 0.077937 72 71 91
0.046875 -0.253906 0.077345 70 70 88
0.050781 -0.253906 0.076565 70 70 86
0.054688 -0.253906 0.075565 72 72 87
0.058594 -0.253906 0.074345 72 72 88
0.062500 -0.253906 0.073117 72 73 89
0.066406 -0.253906 0.071342 73 74 91
0.070312 -0.253906 0.068755 69 71 88
0.074219 -0.253906 0.065886 67 69 85
0.078125 -0.253906 0.062910 71 73 87
0.082031 -0.253906 0.059311 70 72 86
0.085938 -0.253906 0.055058 68 71 86
0.089844 -0.253906 0.050189 73 75 93
0.093750 -0.253906 0.044502 76 78 96
0.097656 -0.253906 0.038815 80 84 103
0.101562 -0.253906 0.031429 89 97 117
0.105469 -0.253906 0.020821 49 54 73
-0.269531 -0.257812 0.023859 109 109 136
-0.265625 -0.257812 0.035715 102 105 130
-0.261719 -0.257812 0.043687 76 81 100
-0.257812 -0.257812 0.049054 81 84 101
-0.253906 -0.257812 0.053525 84 86 103
-0.250000 -0.257812 0.057358 82 85 101
-0.246094 -0.257812 0.060865 79 82 98
-0.242188 -0.257812 0.064058 73 77 92
-0.238281 -0.257812 0.067140 71 75 90
-0.234375 -0.257812 0.070187 72 75 91
-0.230469 -0.257812 0.072627 69 72 88
-0.226562 -0.257812 0.074240 69 72 88
-0.222656 -0.257812 0.075667 69 72 88
-0.218750 -0.257812 0.076998 69 71 87
-0.214844 -0.257812 0.078006 68 71 86
-0.210938 -0.257812 0.078757 67 70 84
-0.207031 -0.257812 0.079356 69 72 86
-0.203125 -0.257812 0.079836 65 68 83
-0.199219 -0.257812 0.079988 65 67 82
-0.195312 -0.257812 0.079741 67 69 84
-0.191406 -0.257812 0.079289 66 68 83
-0.187500 -0.257812 0.078651 66 68 83
-0.183594 -0.257812 0.077797 64 66 81
-0.179688 -0.257812 0.076680 66 68 83
-0.175781 -0.257812 0.075408 68 70 84
-0.171875 -0.257812 0.073973 65 67 81
-0.167969 -0.257812 0.072391 66 68 82
-0.164062 -0.257812 0.070677 65 66 81
-0.160156 -0.257812 0.068820 63 65 79
-0.156250 -0.257812 0.066877 67 69 83
-0.152344 -0.257812 0.064569 68 69 84
-0.148438 -0.257812 0.061848 68 70 84
-0.144531 -0.257812 0.058907 70 71 86
-0.140625 -0.257812 0.055801 69 70 85
-0.136719 -0.257812 0.052394 69 70 84
-0.132812 -0.257812 0.048514 67 69 83
-0.128906 -0.257812 0.044455 65 67 81
-0.125000 -0.257812 0.040474 64 66 81
-0.121094 -0.257812 0.036188 61 63 77
-0.117188 -0.257812 0.031514 56 58 73
-0.113281 -0.257812 0.026581 60 62 79
-0.109375 -0.257812 0.021244 70 72 91
-0.105469 -0.257812 0.016074 57 61 81
-0.101562 -0.257812 0.009723 61 65 88
-0.066406 -0.257812 -0.010839 73 76 96
-0.062500 -0.257812 0.001270 64 64 81
-0.058594 -0.257812 0.009608 65 65 84
-0.054688 -0.257812 0.016817 61 60 78
-0.050781 -0.257812 0.023301 61 59 75
-0.046875 -0.257812 0.028979 70 66 82
-0.042969 -0.257812 0.033760 65 61 76
-0.039062 -0.257812 0.037855 56 53 67
-0.035156 -0.257812 0.041792 57 55 69
-0.031250 -0.257812 0.045633 58 56 70
-0.027344 -0.257812 0.049101 57 57 70
-0.023438 -0.257812 0.052181 57 57 70
-0.019531 -0.257812 0.055169 57 57 70
-0.015625 -0.257812 0.058072 57 57 70
-0.011719 -0.257812 0.060763 58 57 71
-0.007812 -0.257812 0.063298 58 57 70
-0.003906 -0.257812 0.065644 59 58 71
0.000000 -0.257812 0.067855 59 58 71
0.003906 -0.257812 0.069885 61 60 74
0.007812 -0.257812 0.071654 63 62 76
0.011719 -0.257812 0.073301 63 63 77
0.015625 -0.257812 0.074834 65 65 80
0.019531 -0.257812 0.076047 71 71 86
0.023438 -0.257812 0.076810 77 77 92
0.027344 -0.257812 0.077411 75 75 91
0.031250 -0.257812 0.077886 71 71 87
0.035156 -0.257812 0.078085 72 72 89
0.039062 -0.257812 0.077968 74 73 92
0.042969 -0.257812 0.077615 71 71 90
0.046875 -0.257812 0.076999 69 68 86
0.050781 -0.257812 0.076223 69 69 85
0.054688 -0.257812 0.075261 70 70 85
0.058594 -0.257812 0.074084 71 71 87
0.062500 -0.257812 0.072903 71 72 89
0.066406 -0.257812 0.071132 71 72 89
0.070312 -0.257812 0.068502 68 70 87
0.074219 -0.257812 0.065573 67 69 84
0.078125 -0.257812 0.062534 71 73 88
0.082031 -0.257812 0.058882 70 72 87
0.085938 -0.257812 0.054592 68 71 87
0.089844 -0.257812 0.049711 73 76 93
0.093750 -0.257812 0.044026 74 77 95
0.097656 -0.257812 0.038465 77 82 101
0.101562 -0.257812 0.031363 87 96 116
0.105469 -0.257812 0.021082 49 55 73
-0.269531 -0.261719 0.022180 106 104 133
-0.265625 -0.261719 0.034267 101 103 128
-0.261719 -0.261719 0.042598 76 80 99
-0.257812 -0.261719 0.048391 78 81 98
-0.253906 -0.261719 0.052977 81 84 101
-0.250000 -0.261719 0.056825 79 82 98
-0.246094 -0.261719 0.060365 79 82 99
-0.242188 -0.261719 0.063633 76 79 95
-0.238281 -0.261719 0.066772 74 78 93
-0.234375 -0.261719 0.069856 74 77 93
-0.230469 -0.261719 0.072336 69 72 89
-0.226562 -0.261719 0.073968 70 72 89
-0.222656 -0.261719 0.075409 68 71 87
-0.218750 -0.261719 0.076755 67 69 84
-0.214844 -0.261719 0.077774 69 71 86
-0.210938 -0.261719 0.078546 68 70 85
-0.207031 -0.261719 0.079176 71 74 88
-0.203125 -0.261719 0.079682 69 71 86
-0.199219 -0.261719 0.079844 67 69 84
-0.195312 -0.261719 0.079598 67 68 84
-0.191406 -0.261719 0.079158 66 68 83
-0.187500 -0.261719 0.078540 68 70 85
-0.183594 -0.261719 0.077704 67 69 84
-0.179688 -0.261719 0.076601 69 71 85
-0.175781 -0.261719 0.075335 70 72 86
-0.171875 -0.261719 0.073901 67 68 83
-0.167969 -0.261719 0.072313 68 69 83
-0.164062 -0.261719 0.070578 66 68 82
-0.160156 -0.261719 0.068685 65 66 81
-0.156250 -0.261719 0.066699 67 68 82
-0.152344 -0.261719 0.064330 64 65 79
-0.148438 -0.261719 0.061527 64 65 79
-0.144531 -0.261719 0.058495 63 65 79
-0.140625 -0.261719 0.055285 60 61 75
-0.136719 -0.261719 0.051794 60 61 75
-0.132812 -0.261719 0.047863 58 59 74
-0.128906 -0.261719 0.043748 56 57 71
-0.125000 -0.261719 0.039721 55 57 71
-0.121094 -0.261719 0.035351 53 54 69
-0.117188 -0.261719 0.030506 53 55 69
-0.113281 -0.261719 0.025188 60 63 79
-0.109375 -0.261719 0.019112 70 72 90
-0.105469 -0.261719 0.013406 55 60 78
-0.101562 -0.261719 0.005522 56 59 82
-0.062500 -0.261719 -0.002551 64 64 80
-0.058594 -0.261719 0.006831 67 67 87
-0.054688 -0.261719 0.014541 62 60 79
-0.050781 -0.261719 0.021229 60 57 74
-0.046875 -0.261719 0.027004 67 63 79
-0.042969 -0.261719 0.031905 64 61 76
-0.039062 -0.261719 0.036218 57 55 69
-0.035156 -0.261719 0.040302 57 56 70
-0.031250 -0.261719 0.044305 59 58 71
-0.027344 -0.261719 0.047930 58 57 71
-0.023438 -0.261719 0.051115 56 56 69
-0.019531 -0.261719 0.054194 56 56 68
-0.015625 -0.261719 0.057204 57 57 70
-0.011719 -0.261719 0.059989 59 58 71
-0.007812 -0.261719 0.062570 59 58 71
-0.003906 -0.261719 0.064952 59 58 72
0.000000 -0.261719 0.067214 61 60 73
0.003906 -0.261719 0.069283 63 63 77
0.007812 -0.261719 0.071051 64 63 78
0.011719 -0.261719 0.072692 64 63 78
0.015625 -0.261719 0.074222 65 65 79
0.019531 -0.261719 0.075452 70 68 83
0.023438 -0.261719 0.076278 75 74 89
0.027344 -0.261719 0.076965 76 75 90
0.031250 -0.261719 0.077516 74 73 90
0.035156 -0.261719 0.077747 74 74 91
0.039062 -0.261719 0.077608 74 73 92
0.042969 -0.261719 0.077231 70 70 88
0.046875 -0.261719 0.076615 69 68 86
0.050781 -0.261719 0.075850 69 68 85
0.054688 -0.261719 0.074901 69 69 85
0.058594 -0.261719 0.073752 71 71 87
0.062500 -0.261719 0.072608 72 73 90
0.066406 -0.261719 0.070848 73 75 92
0.070312 -0.261719 0.068203 71 73 90
0.074219 -0.261719 0.065233 68 70 86
0.078125 -0.261719 0.062150 71 72 88
0.082031 -0.261719 0.058466 69 71 86
0.085938 -0.261719 0.054146 67 70 86
0.089844 -0.261719 0.049236 71 75 92
0.093750 -0.261719 0.043504 71 75 93
0.097656 -0.261719 0.038014 73 79 97
0.101562 -0.261719 0.031157 82 93 113
0.105469 -0.261719 0.021062 48 55 73
-0.269531 -0.265625 0.020378 111 106 136
-0.265625 -0.265625 0.033011 99 99 125
-0.261719 -0.265625 0.041456 80 83 103
-0.257812 -0.265625 0.047589 81 83 101
-0.253906 -0.265625 0.052342 79 81 99
-0.250000 -0.265625 0.056180 73 77 94
-0.246094 -0.265625 0.059746 76 79 96
-0.242188 -0.265625 0.063105 74 77 94
-0.238281 -0.265625 0.066321 72 75 91
-0.234375 -0.265625 0.069468 73 77 93
-0.230469 -0.265625 0.072009 70 73 89
-0.226562 -0.265625 0.073674 70 73 89
-0.222656 -0.265625 0.075143 67 70 86
-0.218750 -0.265625 0.076521 66 69 84
-0.214844 -0.265625 0.077567 69 71 85
-0.210938 -0.265625 0.078351 66 69 83
-0.207031 -0.265625 0.078988 69 71 85
-0.203125 -0.265625 0.079509 69 71 85
-0.199219 -0.265625 0.079688 67 69 84
-0.195312 -0.265625 0.079457 66 68 83
-0.191406 -0.265625 0.079032 66 67 84
-0.187500 -0.265625 0.078430 70 71 87
-0.183594 -0.265625 0.077604 68 69 85
-0.179688 -0.265625 0.076509 69 71 86
-0.175781 -0.265625 0.075253 70 71 86
-0.171875 -0.265625 0.073821 65 67 81
-0.167969 -0.265625 0.072214 65 66 80
-0.164062 -0.265625 0.070438 61 63 77
-0.160156 -0.265625 0.068490 59 60 74
-0.156250 -0.265625 0.066444 57 58 72
-0.152344 -0.265625 0.064008 53 55 69
-0.148438 -0.265625 0.061118 54 56 70
-0.144531 -0.265625 0.057989 56 57 71
-0.140625 -0.265625 0.054700 54 56 70
-0.136719 -0.265625 0.051150 56 58 72
-0.132812 -0.265625 0.047204 56 57 72
-0.128906 -0.265625 0.043088 55 57 71
-0.125000 -0.265625 0.039106 56 57 72
-0.121094 -0.265625 0.034757 53 55 70
-0.117188 -0.265625 0.029727 60 63 77
-0.113281 -0.265625 0.024099 69 72 88
-0.109375 -0.265625 0.017528 73 77 92
-0.105469 -0.265625 0.010946 62 69 86
-0.101562 -0.265625 0.000664 70 72 94
-0.062500 -0.265625 -0.008394 65 66 82
-0.058594 -0.265625 0.004067 71 73 93
-0.054688 -0.265625 0.012315 65 63 83
-0.050781 -0.265625 0.019094 63 60 78
-0.046875 -0.265625 0.024949 65 62 80
-0.042969 -0.265625 0.029998 63 61 77
-0.039062 -0.265625 0.034526 58 57 72
-0.035156 -0.265625 0.038760 57 56 71
-0.031250 -0.265625 0.042922 58 57 71
-0.027344 -0.265625 0.046720 57 57 70
-0.023438 -0.265625 0.050020 55 55 68
-0.019531 -0.265625 0.053190 54 54 66
-0.015625 -0.265625 0.056299 55 55 68
-0.011719 -0.265625 0.059171 58 58 71
-0.007812 -0.265625 0.061810 59 59 72
-0.003906 -0.265625 0.064248 59 59 72
0.000000 -0.265625 0.066572 62 61 74
0.003906 -0.265625 0.068673 64 64 78
0.007812 -0.265625 0.070435 64 63 78
0.011719 -0.265625 0.072067 64 63 77
0.015625 -0.265625 0.073589 65 63 78
0.019531 -0.265625 0.074833 67 65 80
0.023438 -0.265625 0.075716 70 69 84
0.027344 -0.265625 0.076476 74 73 88
0.031250 -0.265625 0.077093 76 76 91
0.035156 -0.265625 0.077354 76 76 92
0.039062 -0.265625 0.077204 74 73 91
0.042969 -0.265625 0.076824 70 70 87
0.046875 -0.265625 0.076225 69 68 86
0.050781 -0.265625 0.075471 69 69 86
0.054688 -0.265625 0.074514 69 69 86
0.058594 -0.265625 0.073360 70 70 87
0.062500 -0.265625 0.072229 73 73 90
0.066406 -0.265625 0.070474 75 76 93
0.070312 -0.265625 0.067833 73 74 91
0.074219 -0.265625 0.064868 69 71 87
0.078125 -0.265625 0.061790 69 71 87
0.082031 -0.265625 0.058097 67 70 85
0.085938 -0.265625 0.053743 67 70 86
0.089844 -0.265625 0.048795 71 75 92
0.093750 -0.265625 0.042989 70 76 93
0.097656 -0.265625 0.037532 73 80 98
0.101562 -0.265625 0.030834 83 95 115
0.105469 -0.265625 0.020773 51 58 76
-0.269531 -0.269531 0.017755 122 114 140
-0.265625 -0.269531 0.032073 96 94 120
-0.261719 -0.269531 0.040469 80 82 103
-0.257812 -0.269531 0.046563 84 86 104
-0.253906 -0.269531 0.051527 80 83 101
-0.250000 -0.269531 0.055476 72 76 93
-0.246094 -0.269531 0.059087 74 78 95
-0.242188 -0.269531 0.062525 72 76 92
-0.238281 -0.269531 0.065812 69 72 88
-0.234375 -0.269531 0.069024 72 75 91
-0.230469 -0.269531 0.071625 70 73 89
-0.226562 -0.269531 0.073330 70 73 88
-0.222656 -0.269531 0.074843 69 72 87
-0.218750 -0.269531 0.076268 69 71 86
-0.214844 -0.269531 0.077349 71 73 88
-0.210938 -0.269531 0.078144 67 69 83
-0.207031 -0.269531 0.078777 67 69 83
-0.203125 -0.269531 0.079306 66 68 82
-0.199219 -0.269531 0.079506 65 67 82
-0.195312 -0.269531 0.079293 65 66 82
-0.191406 -0.269531 0.078877 65 66 83
-0.187500 -0.269531 0.078281 68 69 86
-0.183594 -0.269531 0.077458 66 67 83
-0.179688 -0.269531 0.076371 67 68 83
-0.175781 -0.269531 0.075129 68 69 84
-0.171875 -0.269531 0.073702 65 66 81
-0.167969 -0.269531 0.072075 65 66 80
-0.164062 -0.269531 0.070267 62 64 78
-0.160156 -0.269531 0.068290 62 64 78
-0.156250 -0.269531 0.066205 63 65 79
-0.152344 -0.269531 0.063723 60 62 76
-0.148438 -0.269531 0.060759 60 62 76
-0.144531 -0.269531 0.057540 60 62 76
-0.140625 -0.269531 0.054189 59 61 75
-0.136719 -0.269531 0.050578 62 63 78
-0.132812 -0.269531 0.046608 60 62 77
-0.128906 -0.269531 0.042487 61 63 76
-0.125000 -0.269531 0.038500 62 64 78
-0.121094 -0.269531 0.034164 59 61 76
-0.117188 -0.269531 0.028966 71 73 88
-0.113281 -0.269531 0.023010 75 78 93
-0.109375 -0.269531 0.015885 63 67 82
-0.105469 -0.269531 0.007970 42 48 66
-0.058594 -0.269531 0.000988 72 73 94
-0.054688 -0.269531 0.010218 64 62 82
-0.050781 -0.269531 0.016819 63 61 80
-0.046875 -0.269531 0.022637 66 64 81
-0.042969 -0.269531 0.028009 66 65 81
-0.039062 -0.269531 0.032780 63 62 78
-0.035156 -0.269531 0.037139 59 58 73
-0.031250 -0.269531 0.041452 57 57 71
-0.027344 -0.269531 0.045432 58 57 71
-0.023438 -0.269531 0.048873 57 57 69
-0.019531 -0.269531 0.052152 55 55 68
-0.015625 -0.269531 0.055365 54 55 68
-0.011719 -0.269531 0.058321 56 57 69
-0.007812 -0.269531 0.061028 57 58 70
-0.003906 -0.269531 0.063539 57 58 71
0.000000 -0.269531 0.065928 60 60 73
0.003906 -0.269531 0.068048 62 62 75
0.007812 -0.269531 0.069802 63 62 76
0.011719 -0.269531 0.071426 64 62 77
0.015625 -0.269531 0.072935 66 64 79
0.019531 -0.269531 0.074182 67 65 80
0.023438 -0.269531 0.075103 68 66 81
0.027344 -0.269531 0.075922 71 70 85
0.031250 -0.269531 0.076606 75 74 89
0.035156 -0.269531 0.076904 75 75 91
0.039062 -0.269531 0.076770 74 74 90
0.042969 -0.269531 0.076416 71 70 87
0.046875 -0.269531 0.075841 69 68 85
0.050781 -0.269531 0.075096 70 69 87
0.054688 -0.269531 0.074122 69 68 86
0.058594 -0.269531 0.072935 68 67 85
0.062500 -0.269531 0.071789 69 70 87
0.066406 -0.269531 0.070040 71 72 89
0.070312 -0.269531 0.067430 71 72 89
0.074219 -0.269531 0.064502 70 72 88
0.078125 -0.269531 0.061453 70 72 88
0.082031 -0.269531 0.057760 67 69 85
0.085938 -0.269531 0.053377 67 71 87
0.089844 -0.269531 0.048407 71 76 92
0.093750 -0.269531 0.042549 69 76 93
0.097656 -0.269531 0.037082 72 81 99
0.101562 -0.269531 0.030403 83 96 115
0.105469 -0.269531 0.020178 52 60 78
-0.269531 -0.273438 0.012952 111 106 127
-0.265625 -0.273438 0.030018 98 97 120
-0.261719 -0.273438 0.039271 78 81 100
-0.257812 -0.273438 0.045495 83 85 103
-0.253906 -0.273438 0.050594 82 85 102
-0.250000 -0.273438 0.054712 74 78 95
-0.246094 -0.273438 0.058367 74 78 95
-0.242188 -0.273438 0.061892 73 76 92
-0.238281 -0.273438 0.065266 69 73 89
-0.234375 -0.273438 0.068546 72 75 91
-0.230469 -0.273438 0.071198 69 72 88
-0.226562 -0.273438 0.072949 66 69 85
-0.222656 -0.273438 0.074513 66 69 85
-0.218750 -0.273438 0.075979 68 70 85
-0.214844 -0.273438 0.077091 72 73 88
-0.210938 -0.273438 0.077909 70 72 87
-0.207031 -0.273438 0.078559 70 72 86
-0.203125 -0.273438 0.079096 67 69 83
-0.199219 -0.273438 0.079303 66 67 83
-0.195312 -0.273438 0.079098 66 67 83
-0.191406 -0.273438 0.078687 66 66 84
-0.187500 -0.273438 0.078102 68 69 86
-0.183594 -0.273438 0.077294 67 68 84
-0.179688 -0.273438 0.076209 67 68 83
-0.175781 -0.273438 0.074955 67 68 82
-0.171875 -0.273438 0.073524 66 68 82
-0.167969 -0.273438 0.071889 68 69 84
-0.164062 -0.273438 0.070063 66 67 82
-0.160156 -0.273438 0.068064 67 68 82
-0.156250 -0.273438 0.065947 67 69 83
-0.152344 -0.273438 0.063433 65 66 80
-0.148438 -0.273438 0.060418 64 65 79
-0.144531 -0.273438 0.057141 62 63 78
-0.140625 -0.273438 0.053737 61 63 77
-0.136719 -0.273438 0.050059 64 65 79
-0.132812 -0.273438 0.046012 62 64 78
-0.128906 -0.273438 0.041807 63 64 78
-0.125000 -0.273438 0.037766 63 64 78
-0.121094 -0.273438 0.033427 59 61 76
-0.117188 -0.273438 0.028029 70 72 87
-0.113281 -0.273438 0.021641 68 71 86
-0.109375 -0.273438 0.014024 56 61 76
-0.105469 -0.273438 0.004385 44 49 67
-0.058594 -0.273438 -0.004358 76 80 99
-0.054688 -0.273438 0.006882 64 65 83
-0.050781 -0.273438 0.014387 62 62 80
-0.046875 -0.273438 0.020358 65 64 82
-0.042969 -0.273438 0.025849 68 66 83
-0.039062 -0.273438 0.030846 66 65 81
-0.035156 -0.273438 0.035417 59 58 73
-0.031250 -0.273438 0.039943 57 56 70
-0.027344 -0.273438 0.044083 57 56 69
-0.023438 -0.273438 0.047656 57 56 69
-0.019531 -0.273438 0.051059 57 57 69
-0.015625 -0.273438 0.054381 57 58 70
-0.011719 -0.273438 0.057430 58 58 70
-0.007812 -0.273438 0.060203 58 59 71
-0.003906 -0.273438 0.062787 59 60 73
0.000000 -0.273438 0.065243 60 61 74
0.003906 -0.273438 0.067390 61 61 74
0.007812 -0.273438 0.069142 62 61 76
0.011719 -0.273438 0.070763 65 63 78
0.015625 -0.273438 0.072266 67 65 80
0.019531 -0.273438 0.073529 68 66 81
0.023438 -0.273438 0.074480 66 64 79
0.027344 -0.273438 0.075341 68 67 82
0.031250 -0.273438 0.076084 71 71 86
0.035156 -0.273438 0.076426 73 73 88
0.039062 -0.273438 0.076317 73 73 89
0.042969 -0.273438 0.075981 70 70 86
0.046875 -0.273438 0.075424 67 67 84
0.050781 -0.273438 0.074681 70 69 86
0.054688 -0.273438 0.073695 71 69 87
0.058594 -0.273438 0.072494 69 69 86
0.062500 -0.273438 0.071336 70 70 88
0.066406 -0.273438 0.069590 70 71 88
0.070312 -0.273438 0.067016 69 71 87
0.074219 -0.273438 0.064133 72 74 90
0.078125 -0.273438 0.061113 71 73 89
0.082031 -0.273438 0.057423 66 68 84
0.085938 -0.273438 0.053011 67 70 86
0.089844 -0.273438 0.048023 71 76 92
0.093750 -0.273438 0.042156 71 77 94
0.097656 -0.273438 0.036660 73 82 99
0.101562 -0.273438 0.029747 82 96 115
0.105469 -0.273438 0.018689 52 60 78
-0.269531 -0.277344 0.005236 112 111 124
-0.265625 -0.277344 0.028048 106 107 125
-0.261719 -0.277344 0.037705 77 82 100
-0.257812 -0.277344 0.044213 80 83 100
-0.253906 -0.277344 0.049570 81 84 101
-0.250000 -0.277344 0.053940 76 80 97
-0.246094 -0.277344 0.057642 73 77 94
-0.242188 -0.277344 0.061235 71 75 91
-0.238281 -0.277344 0.064689 69 72 88
-0.234375 -0.277344 0.068034 71 73 90
-0.230469 -0.277344 0.070742 68 71 87
-0.226562 -0.277344 0.072542 66 68 84
-0.222656 -0.277344 0.074153 66 69 84
-0.218750 -0.277344 0.075664 66 69 83
-0.214844 -0.277344 0.076816 69 71 86
-0.210938 -0.277344 0.077661 70 72 86
-0.207031 -0.277344 0.078333 70 71 85
-0.203125 -0.277344 0.078881 66 68 82
-0.199219 -0.277344 0.079085 65 67 82
-0.195312 -0.277344 0.078883 66 67 84
-0.191406 -0.277344 0.078483 66 67 84
-0.187500 -0.277344 0.077909 70 71 88
-0.183594 -0.277344 0.077107 71 72 88
-0.179688 -0.277344 0.076015 70 71 86
-0.175781 -0.277344 0.074739 67 69 83
-0.171875 -0.277344 0.073299 67 69 83
-0.167969 -0.277344 0.071663 68 69 83
-0.164062 -0.277344 0.069835 65 66 80
-0.160156 -0.277344 0.067819 63 64 79
-0.156250 -0.277344 0.065685 62 63 78
-0.152344 -0.277344 0.063156 61 63 77
-0.148438 -0.277344 0.060098 62 64 78
-0.144531 -0.277344 0.056771 61 63 77
-0.140625 -0.277344 0.053317 61 63 76
-0.136719 -0.277344 0.049562 62 63 77
-0.132812 -0.277344 0.045395 59 60 75
-0.128906 -0.277344 0.041055 58 60 74
-0.125000 -0.277344 0.036901 57 59 74
-0.121094 -0.277344 0.032496 56 59 74
-0.117188 -0.277344 0.026978 66 68 85
-0.113281 -0.277344 0.020230 63 66 84
-0.109375 -0.277344 0.012202 64 69 86
-0.105469 -0.277344 0.001292 69 77 95
-0.058594 -0.277344 -0.010051 67 74 90
-0.054688 -0.277344 0.003348 63 66 83
-0.050781 -0.277344 0.011770 62 65 83
