ply
    format ascii 1.0
    element vertex 58626
    property float x
    property float y
    property float z
    property uchar red
    property uchar green
    property uchar blue
    end_header
-0.035156 0.042969 -0.107424 90 108 110
-0.031250 0.042969 -0.107508 100 118 120
-0.027344 0.042969 -0.107693 117 135 137
-0.023438 0.042969 -0.107957 130 149 153
-0.019531 0.042969 -0.108237 132 151 155
-0.015625 0.042969 -0.108535 122 141 145
-0.011719 0.042969 -0.108861 114 133 137
-0.007812 0.042969 -0.109270 110 131 136
-0.003906 0.042969 -0.109642 105 127 138
0.000000 0.042969 -0.110005 96 120 132
0.003906 0.042969 -0.110501 92 115 129
0.007812 0.042969 -0.111078 99 122 136
0.011719 0.042969 -0.111608 111 134 152
0.015625 0.042969 -0.112104 115 138 156
0.019531 0.042969 -0.112682 109 131 152
0.023438 0.042969 -0.113239 101 123 144
0.027344 0.042969 -0.113780 84 106 127
0.031250 0.042969 -0.114265 90 113 131
0.035156 0.042969 -0.114384 92 115 133
0.039062 0.042969 -0.114205 90 113 129
0.042969 0.042969 -0.113902 94 117 131
0.046875 0.042969 -0.113475 103 127 139
0.050781 0.042969 -0.113090 105 127 140
0.054688 0.042969 -0.112686 99 121 135
0.058594 0.042969 -0.112183 95 116 137
0.062500 0.042969 -0.111607 78 96 118
0.066406 0.042969 -0.110690 68 87 104
0.070312 0.042969 -0.109346 75 94 108
0.074219 0.042969 -0.107982 78 98 107
0.078125 0.042969 -0.106568 73 93 100
0.082031 0.042969 -0.104949 81 102 110
0.085938 0.042969 -0.102909 98 117 126
0.089844 0.042969 -0.100869 90 107 117
0.093750 0.042969 -0.097990 74 86 98
0.097656 0.042969 -0.093943 74 85 94
0.101562 0.042969 -0.088916 120 150 147
0.105469 0.042969 -0.082322 76 120 132
0.109375 0.042969 -0.073615 57 89 113
0.113281 0.042969 -0.062745 71 106 120
0.117188 0.042969 -0.050756 77 115 117
0.136719 0.042969 -0.068536 84 107 127
0.140625 0.042969 -0.078707 92 118 147
0.144531 0.042969 -0.083876 77 108 145
0.148438 0.042969 -0.087892 80 111 157
0.152344 0.042969 -0.090823 83 113 165
0.156250 0.042969 -0.093368 81 108 161
0.160156 0.042969 -0.094414 84 106 155
0.164062 0.042969 -0.094324 73 92 132
0.167969 0.042969 -0.094265 83 98 124
0.171875 0.042969 -0.093957 144 154 166
0.175781 0.042969 -0.092409 110 114 117
0.179688 0.042969 -0.089570 133 135 136
0.183594 0.042969 -0.086893 155 156 156
0.187500 0.042969 -0.083613 161 161 161
0.191406 0.042969 -0.079673 165 165 166
0.195312 0.042969 -0.074271 168 168 168
0.199219 0.042969 -0.068894 174 172 175
0.203125 0.042969 -0.061804 186 181 187
0.207031 0.042969 -0.053327 190 187 193
-0.234375 0.039062 0.056853 47 54 77
-0.230469 0.039062 0.049138 51 62 81
-0.226562 0.039062 0.043655 60 76 93
-0.222656 0.039062 0.040004 69 87 104
-0.218750 0.039062 0.035912 72 91 108
-0.214844 0.039062 0.034124 85 104 121
-0.210938 0.039062 0.033257 102 121 138
-0.207031 0.039062 0.032149 100 120 136
-0.203125 0.039062 0.031030 83 101 116
-0.199219 0.039062 0.030667 74 92 106
-0.195312 0.039062 0.030431 77 95 107
-0.191406 0.039062 0.030401 77 93 106
-0.187500 0.039062 0.031694 68 85 95
-0.183594 0.039062 0.008735 70 84 95
-0.179688 0.039062 -0.024076 85 97 106
-0.175781 0.039062 -0.035355 105 112 120
-0.171875 0.039062 -0.043658 88 95 98
-0.167969 0.039062 -0.051412 90 103 103
-0.164062 0.039062 -0.057011 113 129 126
-0.160156 0.039062 -0.062750 139 152 150
-0.156250 0.039062 -0.068256 157 165 167
-0.152344 0.039062 -0.072891 177 180 184
-0.148438 0.039062 -0.077238 191 190 194
-0.144531 0.039062 -0.081158 188 188 189
-0.140625 0.039062 -0.084870 185 185 187
-0.136719 0.039062 -0.088145 185 187 189
-0.132812 0.039062 -0.091026 174 179 180
-0.128906 0.039062 -0.093591 161 168 166
-0.125000 0.039062 -0.095740 169 178 171
-0.121094 0.039062 -0.097945 149 156 149
-0.117188 0.039062 -0.099967 105 114 109
-0.113281 0.039062 -0.101947 71 80 79
-0.109375 0.039062 -0.103687 70 80 81
-0.105469 0.039062 -0.104944 70 79 84
-0.101562 0.039062 -0.105941 85 94 99
-0.097656 0.039062 -0.106723 119 128 133
-0.093750 0.039062 -0.107465 112 123 127
-0.089844 0.039062 -0.107910 104 115 117
-0.085938 0.039062 -0.108253 98 110 110
-0.082031 0.039062 -0.108402 92 107 104
-0.078125 0.039062 -0.108497 84 99 94
-0.074219 0.039062 -0.108420 73 88 81
-0.070312 0.039062 -0.108179 65 80 73
-0.066406 0.039062 -0.107918 89 102 95
-0.062500 0.039062 -0.107592 87 98 92
-0.058594 0.039062 -0.107404 89 100 94
-0.054688 0.039062 -0.107266 100 111 105
-0.050781 0.039062 -0.107220 106 117 111
-0.046875 0.039062 -0.107226 102 113 107
-0.042969 0.039062 -0.107222 93 106 99
-0.039062 0.039062 -0.107247 88 101 94
-0.035156 0.039062 -0.107304 85 98 91
-0.031250 0.039062 -0.107413 86 99 90
-0.027344 0.039062 -0.107621 83 99 89
-0.023438 0.039062 -0.107900 81 97 87
-0.019531 0.039062 -0.108193 84 100 90
-0.015625 0.039062 -0.108501 86 102 92
-0.011719 0.039062 -0.108833 81 98 88
-0.007812 0.039062 -0.109254 74 91 83
-0.003906 0.039062 -0.109642 77 96 94
0.000000 0.039062 -0.110021 71 91 92
0.003906 0.039062 -0.110543 73 91 95
0.007812 0.039062 -0.111149 82 101 105
0.011719 0.039062 -0.111714 92 109 116
0.015625 0.039062 -0.112246 90 109 116
0.019531 0.039062 -0.112842 83 101 111
0.023438 0.039062 -0.113390 77 95 105
0.027344 0.039062 -0.113913 86 104 114
0.031250 0.039062 -0.114379 83 101 111
0.035156 0.039062 -0.114481 78 96 106
0.039062 0.039062 -0.114278 73 92 99
0.042969 0.039062 -0.113954 74 93 99
0.046875 0.039062 -0.113510 81 100 106
0.050781 0.039062 -0.113127 93 112 116
0.054688 0.039062 -0.112728 101 120 127
0.058594 0.039062 -0.112237 132 148 163
0.062500 0.039062 -0.111675 126 142 157
0.066406 0.039062 -0.110755 116 133 143
0.070312 0.039062 -0.109408 104 121 129
0.074219 0.039062 -0.108041 89 108 112
0.078125 0.039062 -0.106616 85 104 108
0.082031 0.039062 -0.104983 96 116 121
0.085938 0.039062 -0.102931 110 130 135
0.089844 0.039062 -0.100838 104 119 128
0.093750 0.039062 -0.097880 82 95 104
0.097656 0.039062 -0.093730 73 83 92
0.101562 0.039062 -0.088597 120 145 143
0.105469 0.039062 -0.081919 89 135 142
0.109375 0.039062 -0.073067 63 97 117
0.113281 0.039062 -0.062183 75 110 123
0.117188 0.039062 -0.049654 77 115 116
0.136719 0.039062 -0.066372 78 100 120
0.140625 0.039062 -0.076179 86 112 141
0.144531 0.039062 -0.081485 75 106 143
0.148438 0.039062 -0.085737 77 108 153
0.152344 0.039062 -0.088670 82 111 163
0.156250 0.039062 -0.091312 82 109 159
0.160156 0.039062 -0.092453 88 110 157
0.164062 0.039062 -0.092392 83 101 139
0.167969 0.039062 -0.092291 90 104 130
0.171875 0.039062 -0.091941 147 157 169
0.175781 0.039062 -0.090301 110 114 116
0.179688 0.039062 -0.087346 134 136 137
0.183594 0.039062 -0.084496 158 159 159
0.187500 0.039062 -0.080995 167 167 167
0.191406 0.039062 -0.076880 174 174 174
0.195312 0.039062 -0.071239 179 178 179
0.199219 0.039062 -0.065747 184 182 184
0.203125 0.039062 -0.058490 192 187 194
0.207031 0.039062 -0.048886 195 190 199
-0.234375 0.035156 0.061210 45 50 74
-0.230469 0.035156 0.052211 42 54 73
-0.226562 0.035156 0.046102 50 67 86
-0.222656 0.035156 0.042306 55 74 93
-0.218750 0.035156 0.037589 50 68 86
-0.214844 0.035156 0.036049 50 68 85
-0.210938 0.035156 0.035302 64 82 98
-0.207031 0.035156 0.034147 84 100 117
-0.203125 0.035156 0.032996 91 109 125
-0.199219 0.035156 0.032527 77 95 110
-0.195312 0.035156 0.032066 62 79 92
-0.191406 0.035156 0.031710 62 78 90
-0.187500 0.035156 0.033098 54 67 78
-0.183594 0.035156 0.005251 45 55 62
-0.179688 0.035156 -0.026007 34 41 46
-0.175781 0.035156 -0.037446 27 32 37
-0.171875 0.035156 -0.045726 31 40 44
-0.167969 0.035156 -0.053188 51 68 67
-0.164062 0.035156 -0.058493 77 105 94
-0.160156 0.035156 -0.064155 110 135 125
-0.156250 0.035156 -0.069544 140 153 153
-0.152344 0.035156 -0.073994 167 173 176
-0.148438 0.035156 -0.078233 183 185 186
-0.144531 0.035156 -0.082049 183 184 185
-0.140625 0.035156 -0.085613 182 183 185
-0.136719 0.035156 -0.088694 184 185 189
-0.132812 0.035156 -0.091411 172 176 178
-0.128906 0.035156 -0.093807 159 165 164
-0.125000 0.035156 -0.095764 173 183 176
-0.121094 0.035156 -0.097828 151 160 155
-0.117188 0.035156 -0.099747 104 115 111
-0.113281 0.035156 -0.101650 69 79 80
-0.109375 0.035156 -0.103323 85 95 97
-0.105469 0.035156 -0.104508 76 85 90
-0.101562 0.035156 -0.105438 73 84 90
-0.097656 0.035156 -0.106166 99 110 116
-0.093750 0.035156 -0.106868 98 109 115
-0.089844 0.035156 -0.107289 97 108 114
-0.085938 0.035156 -0.107622 97 111 114
-0.082031 0.035156 -0.107782 98 112 113
-0.078125 0.035156 -0.107908 94 108 108
-0.074219 0.035156 -0.107857 87 102 99
-0.070312 0.035156 -0.107644 83 95 91
-0.066406 0.035156 -0.107435 89 100 94
-0.062500 0.035156 -0.107156 89 99 91
-0.058594 0.035156 -0.107002 104 114 106
-0.054688 0.035156 -0.106896 128 138 130
-0.050781 0.035156 -0.106887 132 142 133
-0.046875 0.035156 -0.106932 115 125 116
-0.042969 0.035156 -0.106960 99 109 98
-0.039062 0.035156 -0.107010 97 107 96
-0.035156 0.035156 -0.107093 84 94 83
-0.031250 0.035156 -0.107221 87 98 84
-0.027344 0.035156 -0.107447 82 93 79
-0.023438 0.035156 -0.107742 76 87 73
-0.019531 0.035156 -0.108044 86 99 82
-0.015625 0.035156 -0.108361 107 120 103
-0.011719 0.035156 -0.108707 114 127 109
-0.007812 0.035156 -0.109146 105 119 104
-0.003906 0.035156 -0.109554 120 133 124
0.000000 0.035156 -0.109959 106 121 116
0.003906 0.035156 -0.110512 95 107 105
0.007812 0.035156 -0.111149 87 102 99
0.011719 0.035156 -0.111754 90 102 102
0.015625 0.035156 -0.112327 99 113 113
0.019531 0.035156 -0.112934 121 135 136
0.023438 0.035156 -0.113468 141 155 156
0.027344 0.035156 -0.113981 139 153 156
0.031250 0.035156 -0.114433 125 139 142
0.035156 0.035156 -0.114512 109 124 127
0.039062 0.035156 -0.114278 98 113 116
0.042969 0.035156 -0.113930 88 103 106
0.046875 0.035156 -0.113471 86 101 104
0.050781 0.035156 -0.113081 101 116 119
0.054688 0.035156 -0.112684 121 136 141
0.058594 0.035156 -0.112205 97 109 121
0.062500 0.035156 -0.111652 113 125 137
0.066406 0.035156 -0.110728 109 123 132
0.070312 0.035156 -0.109378 86 101 106
0.074219 0.035156 -0.108010 76 94 98
0.078125 0.035156 -0.106569 91 109 113
0.082031 0.035156 -0.104914 100 120 125
0.085938 0.035156 -0.102864 97 117 123
0.089844 0.035156 -0.100754 98 113 124
0.093750 0.035156 -0.097734 93 105 117
0.097656 0.035156 -0.093510 83 93 105
0.101562 0.035156 -0.088305 113 133 134
0.105469 0.035156 -0.081571 103 147 152
0.109375 0.035156 -0.072513 69 102 121
0.113281 0.035156 -0.061529 80 113 125
0.117188 0.035156 -0.048100 77 112 115
0.136719 0.035156 -0.063874 85 107 127
0.140625 0.035156 -0.073520 90 116 145
0.144531 0.035156 -0.078925 90 119 157
0.148438 0.035156 -0.083350 92 121 165
0.152344 0.035156 -0.086375 86 113 163
0.156250 0.035156 -0.089059 85 110 161
0.160156 0.035156 -0.090271 91 113 160
0.164062 0.035156 -0.090214 87 105 143
0.167969 0.035156 -0.090063 94 108 133
0.171875 0.035156 -0.089668 152 160 170
0.175781 0.035156 -0.087933 111 114 116
0.179688 0.035156 -0.084871 131 132 132
0.183594 0.035156 -0.081835 156 157 157
0.187500 0.035156 -0.078102 168 168 168
0.191406 0.035156 -0.073828 179 179 179
0.195312 0.035156 -0.068217 185 184 185
0.199219 0.035156 -0.062077 187 185 188
0.203125 0.035156 -0.054847 188 184 190
0.207031 0.035156 -0.044720 176 170 181
-0.234375 0.031250 0.072011 44 51 67
-0.230469 0.031250 0.056254 36 44 62
-0.226562 0.031250 0.049771 43 58 77
-0.222656 0.031250 0.045012 46 65 85
-0.218750 0.031250 0.039949 46 64 83
-0.214844 0.031250 0.037974 40 55 71
-0.210938 0.031250 0.037098 31 41 53
-0.207031 0.031250 0.035961 25 31 41
-0.203125 0.031250 0.034905 23 28 39
-0.199219 0.031250 0.034438 17 22 34
-0.195312 0.031250 0.033967 12 16 27
-0.191406 0.031250 0.033508 13 17 28
-0.187500 0.031250 0.034996 15 18 30
-0.183594 0.031250 0.002801 17 20 31
-0.179688 0.031250 -0.028120 27 26 39
-0.175781 0.031250 -0.039708 40 35 48
-0.171875 0.031250 -0.048187 58 53 60
-0.167969 0.031250 -0.055309 64 69 66
-0.164062 0.031250 -0.060371 60 86 68
-0.160156 0.031250 -0.065949 82 114 98
-0.156250 0.031250 -0.071099 119 137 134
-0.152344 0.031250 -0.075380 151 159 160
-0.148438 0.031250 -0.079439 172 173 175
-0.144531 0.031250 -0.083102 177 177 178
-0.140625 0.031250 -0.086486 180 180 182
-0.136719 0.031250 -0.089359 183 184 188
-0.132812 0.031250 -0.091943 171 175 178
-0.128906 0.031250 -0.094140 154 163 162
-0.125000 0.031250 -0.095887 177 185 183
-0.121094 0.031250 -0.097807 156 165 164
-0.117188 0.031250 -0.099595 107 117 118
-0.113281 0.031250 -0.101383 78 88 90
-0.109375 0.031250 -0.102961 111 122 128
-0.105469 0.031250 -0.104049 99 109 118
-0.101562 0.031250 -0.104893 83 93 103
-0.097656 0.031250 -0.105558 76 86 96
-0.093750 0.031250 -0.106204 85 98 107
-0.089844 0.031250 -0.106601 96 109 118
-0.085938 0.031250 -0.106929 96 110 119
-0.082031 0.031250 -0.107106 89 102 110
-0.078125 0.031250 -0.107252 82 97 102
-0.074219 0.031250 -0.107218 83 98 103
-0.070312 0.031250 -0.107042 89 103 106
-0.066406 0.031250 -0.106880 80 89 88
-0.062500 0.031250 -0.106644 84 90 88
-0.058594 0.031250 -0.106529 101 107 105
-0.054688 0.031250 -0.106465 119 125 121
-0.050781 0.031250 -0.106494 111 118 111
-0.046875 0.031250 -0.106577 90 97 90
-0.042969 0.031250 -0.106640 90 97 89
-0.039062 0.031250 -0.106731 109 117 106
-0.035156 0.031250 -0.106848 89 97 86
-0.031250 0.031250 -0.107002 99 107 94
-0.027344 0.031250 -0.107248 98 106 93
-0.023438 0.031250 -0.107559 88 96 81
-0.019531 0.031250 -0.107875 96 107 90
-0.015625 0.031250 -0.108204 118 129 112
-0.011719 0.031250 -0.108566 122 134 114
-0.007812 0.031250 -0.109018 108 119 103
-0.003906 0.031250 -0.109443 98 108 99
0.000000 0.031250 -0.109880 96 107 101
0.003906 0.031250 -0.110466 95 106 102
0.007812 0.031250 -0.111133 92 103 99
0.011719 0.031250 -0.111775 88 98 97
0.015625 0.031250 -0.112376 94 104 103
0.019531 0.031250 -0.112992 119 129 130
0.023438 0.031250 -0.113523 143 155 155
0.027344 0.031250 -0.114026 114 125 127
0.031250 0.031250 -0.114452 105 116 118
0.035156 0.031250 -0.114507 102 116 119
0.039062 0.031250 -0.114252 104 118 121
0.042969 0.031250 -0.113881 93 107 110
0.046875 0.031250 -0.113407 80 93 99
0.050781 0.031250 -0.113011 88 101 107
0.054688 0.031250 -0.112609 108 121 129
0.058594 0.031250 -0.112134 113 123 135
0.062500 0.031250 -0.111587 103 112 127
0.066406 0.031250 -0.110654 96 109 118
0.070312 0.031250 -0.109297 95 110 117
0.074219 0.031250 -0.107916 86 103 110
0.078125 0.031250 -0.106446 77 96 102
0.082031 0.031250 -0.104771 81 101 107
0.085938 0.031250 -0.102720 94 113 124
0.089844 0.031250 -0.100584 92 109 124
0.093750 0.031250 -0.097504 108 121 138
0.097656 0.031250 -0.093222 101 110 127
0.101562 0.031250 -0.087937 110 125 134
0.105469 0.031250 -0.081171 119 160 165
0.109375 0.031250 -0.071955 80 112 130
0.113281 0.031250 -0.060818 88 118 132
0.117188 0.031250 -0.046603 79 112 117
0.136719 0.031250 -0.060983 79 101 121
0.140625 0.031250 -0.070603 80 107 133
0.144531 0.031250 -0.076094 90 119 155
0.148438 0.031250 -0.080737 94 123 167
0.152344 0.031250 -0.083916 89 116 166
0.156250 0.031250 -0.086655 87 112 163
0.160156 0.031250 -0.087917 93 115 162
0.164062 0.031250 -0.087861 89 107 145
0.167969 0.031250 -0.087655 94 108 134
0.171875 0.031250 -0.087197 155 164 174
0.175781 0.031250 -0.085378 111 115 116
0.179688 0.031250 -0.082194 126 129 128
0.183594 0.031250 -0.078964 155 156 156
0.187500 0.031250 -0.074997 173 173 173
0.191406 0.031250 -0.070546 189 189 189
0.195312 0.031250 -0.064787 199 198 199
0.199219 0.031250 -0.058256 206 204 207
0.203125 0.031250 -0.050369 214 210 215
0.207031 0.031250 -0.033367 199 198 199
-0.230469 0.027344 0.066289 51 62 81
-0.226562 0.027344 0.055118 43 56 75
-0.222656 0.027344 0.047655 43 61 81
-0.218750 0.027344 0.042712 41 58 77
-0.214844 0.027344 0.040142 31 42 57
-0.210938 0.027344 0.039177 35 37 49
-0.207031 0.027344 0.037932 62 53 61
-0.203125 0.027344 0.036776 96 80 85
-0.199219 0.027344 0.036396 102 83 88
-0.195312 0.027344 0.036066 91 73 76
-0.191406 0.027344 0.035656 90 70 74
-0.187500 0.027344 0.037703 83 63 70
-0.183594 0.027344 0.001347 74 57 64
-0.179688 0.027344 -0.030844 78 56 64
-0.175781 0.027344 -0.042306 80 58 65
-0.171875 0.027344 -0.050820 89 67 73
-0.167969 0.027344 -0.057674 79 66 69
-0.164062 0.027344 -0.062484 58 69 58
-0.160156 0.027344 -0.067976 64 90 79
-0.156250 0.027344 -0.072960 100 117 115
-0.152344 0.027344 -0.077010 134 142 143
-0.148438 0.027344 -0.080880 161 162 164
-0.144531 0.027344 -0.084359 170 172 172
-0.140625 0.027344 -0.087589 177 179 180
-0.136719 0.027344 -0.090198 181 183 186
-0.132812 0.027344 -0.092557 168 174 179
-0.128906 0.027344 -0.094516 157 165 167
-0.125000 0.027344 -0.096040 172 181 181
-0.121094 0.027344 -0.097811 155 163 165
-0.117188 0.027344 -0.099491 102 111 116
-0.113281 0.027344 -0.101138 79 90 96
-0.109375 0.027344 -0.102605 90 100 110
-0.105469 0.027344 -0.103598 100 110 122
-0.101562 0.027344 -0.104360 102 114 128
-0.097656 0.027344 -0.104955 85 97 113
-0.093750 0.027344 -0.105532 81 94 111
-0.089844 0.027344 -0.105901 85 98 115
-0.085938 0.027344 -0.106208 95 111 127
-0.082031 0.027344 -0.106381 103 116 133
-0.078125 0.027344 -0.106528 103 119 134
-0.074219 0.027344 -0.106520 112 128 143
-0.070312 0.027344 -0.106388 126 140 153
-0.066406 0.027344 -0.106262 117 126 135
-0.062500 0.027344 -0.106072 101 108 114
-0.058594 0.027344 -0.106004 79 86 92
-0.054688 0.027344 -0.105988 70 78 81
-0.050781 0.027344 -0.106056 79 87 89
-0.046875 0.027344 -0.106172 93 101 103
-0.042969 0.027344 -0.106275 97 106 105
-0.039062 0.027344 -0.106410 93 102 99
-0.035156 0.027344 -0.106558 89 98 93
-0.031250 0.027344 -0.106735 88 98 90
-0.027344 0.027344 -0.107006 86 93 85
-0.023438 0.027344 -0.107337 81 89 78
-0.019531 0.027344 -0.107670 80 88 75
-0.015625 0.027344 -0.108012 89 97 84
-0.011719 0.027344 -0.108396 104 112 99
-0.007812 0.027344 -0.108867 115 123 112
-0.003906 0.027344 -0.109315 108 114 110
0.000000 0.027344 -0.109786 110 119 118
0.003906 0.027344 -0.110412 109 118 117
0.007812 0.027344 -0.111121 95 104 103
0.011719 0.027344 -0.111803 76 84 86
0.015625 0.027344 -0.112439 70 80 81
0.019531 0.027344 -0.113068 87 97 99
0.023438 0.027344 -0.113592 108 118 120
0.027344 0.027344 -0.114080 112 123 127
0.031250 0.027344 -0.114467 104 115 121
0.035156 0.027344 -0.114502 94 107 115
0.039062 0.027344 -0.114233 93 106 114
0.042969 0.027344 -0.113841 97 110 119
0.046875 0.027344 -0.113355 96 108 120
0.050781 0.027344 -0.112948 89 101 113
0.054688 0.027344 -0.112543 82 94 108
0.058594 0.027344 -0.112062 89 97 116
0.062500 0.027344 -0.111503 91 99 118
0.066406 0.027344 -0.110550 100 112 128
0.070312 0.027344 -0.109169 115 129 142
0.074219 0.027344 -0.107760 114 132 144
0.078125 0.027344 -0.106256 99 118 132
0.082031 0.027344 -0.104563 83 102 117
0.085938 0.027344 -0.102512 76 95 114
0.089844 0.027344 -0.100334 97 116 137
0.093750 0.027344 -0.097212 101 115 141
0.097656 0.027344 -0.092900 126 137 162
0.101562 0.027344 -0.087558 113 126 141
0.105469 0.027344 -0.080803 137 175 181
0.109375 0.027344 -0.071498 95 125 143
0.113281 0.027344 -0.060444 97 126 141
0.117188 0.027344 -0.045093 84 114 121
0.136719 0.027344 -0.057466 84 106 124
0.140625 0.027344 -0.067384 68 93 120
0.144531 0.027344 -0.072866 76 104 140
0.148438 0.027344 -0.077981 91 120 163
0.152344 0.027344 -0.081334 82 109 159
0.156250 0.027344 -0.084028 79 104 155
0.160156 0.027344 -0.085323 96 117 164
0.164062 0.027344 -0.085213 82 100 138
0.167969 0.027344 -0.084954 78 92 118
0.171875 0.027344 -0.084430 156 164 175
0.175781 0.027344 -0.082487 111 114 115
0.179688 0.027344 -0.079157 120 123 121
0.183594 0.027344 -0.075717 151 151 152
0.187500 0.027344 -0.071485 174 173 174
0.191406 0.027344 -0.066957 194 194 194
0.195312 0.027344 -0.061068 206 205 206
0.199219 0.027344 -0.054430 214 213 215
0.203125 0.027344 -0.043579 223 221 225
-0.230469 0.023438 0.072675 42 54 73
-0.226562 0.023438 0.058817 41 51 70
-0.222656 0.023438 0.051517 46 61 81
-0.218750 0.023438 0.045864 39 53 69
-0.214844 0.023438 0.043254 51 54 66
-0.210938 0.023438 0.041124 113 95 99
-0.207031 0.023438 0.039832 152 119 112
-0.203125 0.023438 0.038815 161 121 112
-0.199219 0.023438 0.038685 151 105 99
-0.195312 0.023438 0.038467 138 92 86
-0.191406 0.023438 0.037861 132 86 83
-0.187500 0.023438 0.040103 116 75 75
-0.183594 0.023438 -0.002006 99 65 67
-0.179688 0.023438 -0.033387 91 60 63
-0.175781 0.023438 -0.044967 85 59 64
-0.171875 0.023438 -0.053635 90 64 73
-0.167969 0.023438 -0.060239 85 62 74
-0.164062 0.023438 -0.064812 71 72 67
-0.160156 0.023438 -0.070077 72 93 85
-0.156250 0.023438 -0.074928 104 118 116
-0.152344 0.023438 -0.078667 133 140 140
-0.148438 0.023438 -0.082337 157 159 160
-0.144531 0.023438 -0.085639 168 170 170
-0.140625 0.023438 -0.088764 176 178 179
-0.136719 0.023438 -0.091181 180 182 186
-0.132812 0.023438 -0.093338 170 175 181
-0.128906 0.023438 -0.095061 161 170 173
-0.125000 0.023438 -0.096427 178 186 189
-0.121094 0.023438 -0.098008 165 173 179
-0.117188 0.023438 -0.099560 112 121 130
-0.113281 0.023438 -0.101052 82 92 102
-0.109375 0.023438 -0.102376 84 94 106
-0.105469 0.023438 -0.103228 89 101 117
-0.101562 0.023438 -0.103855 93 106 123
-0.097656 0.023438 -0.104338 92 105 124
-0.093750 0.023438 -0.104829 78 93 114
-0.089844 0.023438 -0.105163 71 86 109
-0.085938 0.023438 -0.105446 79 95 120
-0.082031 0.023438 -0.105621 95 111 136
-0.078125 0.023438 -0.105776 105 121 146
-0.074219 0.023438 -0.105795 106 124 148
-0.070312 0.023438 -0.105702 107 122 145
-0.066406 0.023438 -0.105610 128 139 159
-0.062500 0.023438 -0.105472 122 131 148
-0.058594 0.023438 -0.105443 109 116 134
-0.054688 0.023438 -0.105476 96 105 120
-0.050781 0.023438 -0.105584 95 103 116
-0.046875 0.023438 -0.105743 99 107 118
-0.042969 0.023438 -0.105890 98 107 116
-0.039062 0.023438 -0.106063 93 102 109
-0.035156 0.023438 -0.106249 124 133 138
-0.031250 0.023438 -0.106455 125 135 137
-0.027344 0.023438 -0.106754 130 138 140
-0.023438 0.023438 -0.107114 125 134 133
-0.019531 0.023438 -0.107470 99 108 105
-0.015625 0.023438 -0.107829 74 83 78
-0.011719 0.023438 -0.108235 73 82 77
-0.007812 0.023438 -0.108729 88 97 94
-0.003906 0.023438 -0.109207 84 92 95
0.000000 0.023438 -0.109713 92 99 105
0.003906 0.023438 -0.110374 107 114 120
0.007812 0.023438 -0.111115 124 133 138
0.011719 0.023438 -0.111829 133 142 149
0.015625 0.023438 -0.112495 122 131 138
0.019531 0.023438 -0.113134 91 101 110
0.023438 0.023438 -0.113644 64 74 83
0.027344 0.023438 -0.114110 88 101 110
0.031250 0.023438 -0.114467 92 104 116
0.035156 0.023438 -0.114482 101 115 128
0.039062 0.023438 -0.114196 115 128 144
0.042969 0.023438 -0.113789 127 140 157
0.046875 0.023438 -0.113288 128 141 160
0.050781 0.023438 -0.112864 117 129 151
0.054688 0.023438 -0.112453 106 118 142
0.058594 0.023438 -0.111961 92 102 129
0.062500 0.023438 -0.111389 108 120 146
0.066406 0.023438 -0.110413 112 124 148
0.070312 0.023438 -0.109002 98 115 135
0.074219 0.023438 -0.107557 101 119 139
0.078125 0.023438 -0.106006 112 133 154
0.082031 0.023438 -0.104280 98 120 143
0.085938 0.023438 -0.102224 70 92 118
0.089844 0.023438 -0.100026 77 97 126
0.093750 0.023438 -0.096885 80 97 127
0.097656 0.023438 -0.092566 105 119 148
0.101562 0.023438 -0.087191 101 113 135
0.105469 0.023438 -0.080524 140 175 186
0.109375 0.023438 -0.071269 102 131 148
0.113281 0.023438 -0.060206 102 127 143
0.117188 0.023438 -0.044348 85 112 121
0.132812 0.023438 -0.030167 92 107 117
0.136719 0.023438 -0.053079 84 103 122
0.140625 0.023438 -0.064271 71 96 121
0.144531 0.023438 -0.069744 80 106 140
0.148438 0.023438 -0.074996 88 117 158
0.152344 0.023438 -0.078501 98 125 173
0.156250 0.023438 -0.081164 87 112 161
0.160156 0.023438 -0.082436 93 114 159
0.164062 0.023438 -0.082252 79 95 131
0.167969 0.023438 -0.081921 77 89 113
0.171875 0.023438 -0.081325 160 169 179
0.175781 0.023438 -0.079299 107 109 110
0.179688 0.023438 -0.075810 105 106 105
0.183594 0.023438 -0.072170 134 134 134
0.187500 0.023438 -0.067768 161 161 161
0.191406 0.023438 -0.063059 185 185 186
0.195312 0.023438 -0.056917 198 197 199
0.199219 0.023438 -0.050643 208 206 209
0.203125 0.023438 -0.038989 216 214 218
-0.226562 0.019531 0.066500 43 58 77
-0.222656 0.019531 0.053376 43 54 75
-0.218750 0.019531 0.047666 39 46 61
-0.214844 0.019531 0.045877 84 75 78
-0.210938 0.019531 0.043240 152 121 116
-0.207031 0.019531 0.042148 180 137 123
-0.203125 0.019531 0.041180 177 123 108
-0.199219 0.019531 0.041148 159 97 87
-0.195312 0.019531 0.041096 146 85 76
-0.191406 0.019531 0.040310 140 81 74
-0.187500 0.019531 0.043710 126 72 68
-0.183594 0.019531 -0.007499 108 63 61
-0.179688 0.019531 -0.036424 97 58 59
-0.175781 0.019531 -0.048053 89 58 61
-0.171875 0.019531 -0.056535 92 62 72
-0.167969 0.019531 -0.062803 92 66 82
-0.164062 0.019531 -0.067308 82 78 78
-0.160156 0.019531 -0.072373 84 100 95
-0.156250 0.019531 -0.077192 116 127 125
-0.152344 0.019531 -0.080578 137 143 142
-0.148438 0.019531 -0.083879 154 156 156
-0.144531 0.019531 -0.087145 163 165 165
-0.140625 0.019531 -0.090040 172 174 176
-0.136719 0.019531 -0.092285 176 179 186
-0.132812 0.019531 -0.094288 170 175 183
-0.128906 0.019531 -0.095751 163 173 178
-0.125000 0.019531 -0.096907 185 192 195
-0.121094 0.019531 -0.098324 174 181 188
-0.117188 0.019531 -0.099708 119 128 137
-0.113281 0.019531 -0.101058 79 89 101
-0.109375 0.019531 -0.102239 74 83 98
-0.105469 0.019531 -0.102955 81 92 110
-0.101562 0.019531 -0.103432 89 102 121
-0.097656 0.019531 -0.103812 84 99 122
-0.093750 0.019531 -0.104208 86 102 128
-0.089844 0.019531 -0.104477 85 100 129
-0.085938 0.019531 -0.104711 79 96 126
-0.082031 0.019531 -0.104870 76 95 127
-0.078125 0.019531 -0.105021 83 102 135
-0.074219 0.019531 -0.105047 92 111 144
-0.070312 0.019531 -0.104976 99 115 149
-0.066406 0.019531 -0.104918 113 126 158
-0.062500 0.019531 -0.104835 115 129 156
-0.058594 0.019531 -0.104849 113 124 152
-0.054688 0.019531 -0.104932 100 114 140
-0.050781 0.019531 -0.105087 94 106 130
-0.046875 0.019531 -0.105296 92 104 126
-0.042969 0.019531 -0.105489 91 104 123
-0.039062 0.019531 -0.105698 89 102 119
-0.035156 0.019531 -0.105928 109 122 138
-0.031250 0.019531 -0.106164 100 114 127
-0.027344 0.019531 -0.106488 110 122 134
-0.023438 0.019531 -0.106876 132 145 154
-0.019531 0.019531 -0.107262 132 145 153
-0.015625 0.019531 -0.107650 107 120 128
-0.011719 0.019531 -0.108085 93 104 110
-0.007812 0.019531 -0.108604 95 105 114
-0.003906 0.019531 -0.109123 105 113 124
0.000000 0.019531 -0.109684 106 116 128
0.003906 0.019531 -0.110378 109 119 131
0.007812 0.019531 -0.111141 118 128 140
0.011719 0.019531 -0.111884 132 144 156
0.015625 0.019531 -0.112574 141 153 167
0.019531 0.019531 -0.113221 129 142 158
0.023438 0.019531 -0.113718 112 125 141
0.027344 0.019531 -0.114164 89 105 121
0.031250 0.019531 -0.114493 89 104 123
0.035156 0.019531 -0.114483 92 108 131
0.039062 0.019531 -0.114176 101 117 142
0.042969 0.019531 -0.113747 109 126 154
0.046875 0.019531 -0.113224 112 129 159
0.050781 0.019531 -0.112781 108 124 157
0.054688 0.019531 -0.112361 103 118 151
0.058594 0.019531 -0.111852 88 101 136
0.062500 0.019531 -0.111273 83 97 132
0.066406 0.019531 -0.110263 81 96 129
0.070312 0.019531 -0.108805 83 102 132
0.074219 0.019531 -0.107308 90 111 140
0.078125 0.019531 -0.105688 93 117 145
0.082031 0.019531 -0.103930 90 115 145
0.085938 0.019531 -0.101880 85 109 143
0.089844 0.019531 -0.099669 76 99 135
0.093750 0.019531 -0.096523 74 94 129
0.097656 0.019531 -0.092232 90 104 139
0.101562 0.019531 -0.086823 86 101 129
0.105469 0.019531 -0.080305 152 182 196
0.109375 0.019531 -0.071277 118 146 160
0.113281 0.019531 -0.060324 108 133 149
0.117188 0.019531 -0.045100 92 115 126
0.121094 0.019531 -0.007183 86 117 117
0.132812 0.019531 -0.033068 91 106 116
0.136719 0.019531 -0.048608 79 99 115
0.140625 0.019531 -0.060856 76 101 126
0.144531 0.019531 -0.066711 82 108 142
0.148438 0.019531 -0.071667 81 108 150
0.152344 0.019531 -0.075360 106 131 180
0.156250 0.019531 -0.078108 91 113 163
0.160156 0.019531 -0.079288 88 105 151
0.164062 0.019531 -0.079042 73 89 125
0.167969 0.019531 -0.078630 71 83 107
0.171875 0.019531 -0.077903 161 168 178
0.175781 0.019531 -0.075770 108 111 111
0.179688 0.019531 -0.072161 94 95 94
0.183594 0.019531 -0.068297 122 122 122
0.187500 0.019531 -0.063610 152 152 152
0.191406 0.019531 -0.058787 178 178 179
0.195312 0.019531 -0.051974 193 191 195
0.199219 0.019531 -0.044980 199 196 202
0.203125 0.019531 -0.031652 214 210 215
-0.222656 0.015625 0.059645 43 61 81
-0.218750 0.015625 0.052119 42 42 57
-0.214844 0.015625 0.048861 102 82 79
-0.210938 0.015625 0.046606 160 119 108
-0.207031 0.015625 0.044989 183 132 114
-0.203125 0.015625 0.043798 181 121 100
-0.199219 0.015625 0.043729 167 99 83
-0.195312 0.015625 0.043793 159 91 76
-0.191406 0.015625 0.042626 156 90 75
-0.187500 0.015625 0.047382 143 81 70
-0.183594 0.015625 -0.015700 122 69 62
-0.179688 0.015625 -0.038819 107 61 59
-0.175781 0.015625 -0.050782 94 60 62
-0.171875 0.015625 -0.059190 90 61 71
-0.167969 0.015625 -0.065191 90 66 85
-0.164062 0.015625 -0.069688 81 78 82
-0.160156 0.015625 -0.074679 100 113 110
-0.156250 0.015625 -0.079195 137 145 144
-0.152344 0.015625 -0.082576 149 154 152
-0.148438 0.015625 -0.085459 156 158 157
-0.144531 0.015625 -0.088557 161 162 163
-0.140625 0.015625 -0.091318 169 170 172
-0.136719 0.015625 -0.093455 174 177 183
-0.132812 0.015625 -0.095276 172 177 185
-0.128906 0.015625 -0.096546 169 176 181
-0.125000 0.015625 -0.097545 186 191 194
-0.121094 0.015625 -0.098799 171 174 182
-0.117188 0.015625 -0.100003 113 119 129
-0.113281 0.015625 -0.101198 70 78 89
-0.109375 0.015625 -0.102214 63 72 87
-0.105469 0.015625 -0.102772 73 84 102
-0.101562 0.015625 -0.103080 82 97 118
-0.097656 0.015625 -0.103335 85 101 126
-0.093750 0.015625 -0.103603 99 116 144
-0.089844 0.015625 -0.103782 105 121 154
-0.085938 0.015625 -0.103958 90 109 142
-0.082031 0.015625 -0.104106 77 97 134
-0.078125 0.015625 -0.104259 77 99 138
-0.074219 0.015625 -0.104298 84 106 147
-0.070312 0.015625 -0.104252 88 110 151
-0.066406 0.015625 -0.104232 94 113 153
-0.062500 0.015625 -0.104202 101 119 157
-0.058594 0.015625 -0.104259 103 121 159
-0.054688 0.015625 -0.104393 96 114 150
-0.050781 0.015625 -0.104596 90 109 142
-0.046875 0.015625 -0.104852 87 106 138
-0.042969 0.015625 -0.105097 88 105 135
-0.039062 0.015625 -0.105360 86 103 131
-0.035156 0.015625 -0.105632 91 108 134
-0.031250 0.015625 -0.105894 80 96 121
-0.027344 0.015625 -0.106262 84 100 123
-0.023438 0.015625 -0.106696 107 124 144
-0.019531 0.015625 -0.107120 122 139 157
-0.015625 0.015625 -0.107545 112 127 146
-0.011719 0.015625 -0.108021 93 109 125
-0.007812 0.015625 -0.108579 84 97 114
-0.003906 0.015625 -0.109136 78 91 110
0.000000 0.015625 -0.109732 86 99 118
0.003906 0.015625 -0.110447 89 102 121
0.007812 0.015625 -0.111225 89 104 123
0.011719 0.015625 -0.111991 102 117 136
0.015625 0.015625 -0.112700 118 135 153
0.019531 0.015625 -0.113345 122 139 159
0.023438 0.015625 -0.113825 113 131 153
0.027344 0.015625 -0.114250 102 120 144
0.031250 0.015625 -0.114543 95 115 142
0.035156 0.015625 -0.114505 90 109 139
0.039062 0.015625 -0.114178 88 108 141
0.042969 0.015625 -0.113727 91 111 148
0.046875 0.015625 -0.113180 93 115 154
0.050781 0.015625 -0.112717 96 118 159
0.054688 0.015625 -0.112283 98 117 160
0.058594 0.015625 -0.111749 94 111 155
0.062500 0.015625 -0.111151 80 97 140
0.066406 0.015625 -0.110099 72 91 131
0.070312 0.015625 -0.108592 78 100 137
0.074219 0.015625 -0.107036 80 106 141
0.078125 0.015625 -0.105330 77 106 140
0.082031 0.015625 -0.103530 82 112 148
0.085938 0.015625 -0.101464 95 125 163
0.089844 0.015625 -0.099218 86 115 153
0.093750 0.015625 -0.096073 79 103 143
0.097656 0.015625 -0.091830 81 99 135
0.101562 0.015625 -0.086448 75 90 120
0.105469 0.015625 -0.080174 164 188 205
0.109375 0.015625 -0.071419 140 167 180
0.113281 0.015625 -0.060493 119 142 159
0.117188 0.015625 -0.046615 102 124 135
0.121094 0.015625 -0.007273 95 124 126
0.132812 0.015625 -0.031341 86 101 111
0.136719 0.015625 -0.045494 74 92 109
0.140625 0.015625 -0.057805 86 108 134
0.144531 0.015625 -0.063907 84 110 144
0.148438 0.015625 -0.068583 72 99 141
0.152344 0.015625 -0.072115 99 124 173
0.156250 0.015625 -0.074749 90 113 161
0.160156 0.015625 -0.075855 88 105 151
0.164062 0.015625 -0.075503 81 97 131
0.167969 0.015625 -0.075010 77 87 112
0.171875 0.015625 -0.074157 163 171 181
0.175781 0.015625 -0.071922 120 122 123
0.179688 0.015625 -0.068124 90 91 90
0.183594 0.015625 -0.064030 114 114 115
0.187500 0.015625 -0.059226 142 142 142
0.191406 0.015625 -0.053994 164 163 165
0.195312 0.015625 -0.046885 173 171 176
0.199219 0.015625 -0.039440 159 156 165
0.203125 0.015625 -0.018603 223 221 225
-0.222656 0.011719 0.069406 46 61 81
-0.218750 0.011719 0.057487 43 41 58
-0.214844 0.011719 0.052654 107 79 78
-0.210938 0.011719 0.049803 162 115 102
-0.207031 0.011719 0.048157 182 128 106
-0.203125 0.011719 0.046538 179 117 93
-0.199219 0.011719 0.046442 168 98 79
-0.195312 0.011719 0.046759 164 94 74
-0.191406 0.011719 0.045432 164 95 75
-0.187500 0.011719 0.049939 154 87 72
-0.183594 0.011719 -0.025591 132 72 63
-0.179688 0.011719 -0.041367 117 65 61
-0.175781 0.011719 -0.053096 104 64 66
-0.171875 0.011719 -0.061562 93 62 75
-0.167969 0.011719 -0.067429 89 68 90
-0.164062 0.011719 -0.072021 93 95 99
-0.160156 0.011719 -0.076817 139 150 147
-0.156250 0.011719 -0.081040 164 172 170
-0.152344 0.011719 -0.084332 163 166 164
-0.148438 0.011719 -0.087292 157 159 158
-0.144531 0.011719 -0.089940 156 159 159
-0.140625 0.011719 -0.092504 164 167 168
-0.136719 0.011719 -0.094582 173 175 181
-0.132812 0.011719 -0.096198 175 179 186
-0.128906 0.011719 -0.097330 172 178 182
-0.125000 0.011719 -0.098240 181 186 187
-0.121094 0.011719 -0.099326 164 166 171
-0.117188 0.011719 -0.100374 111 116 122
-0.113281 0.011719 -0.101389 70 79 86
-0.109375 0.011719 -0.102288 63 73 83
-0.105469 0.011719 -0.102721 69 81 95
-0.101562 0.011719 -0.102891 74 89 108
-0.097656 0.011719 -0.103022 94 110 135
-0.093750 0.011719 -0.103154 98 115 143
-0.089844 0.011719 -0.103252 95 116 147
-0.085938 0.011719 -0.103364 89 111 148
-0.082031 0.011719 -0.103482 91 114 155
-0.078125 0.011719 -0.103624 94 119 160
-0.074219 0.011719 -0.103652 86 110 154
-0.070312 0.011719 -0.103617 70 97 142
-0.066406 0.011719 -0.103616 89 113 159
-0.062500 0.011719 -0.103618 97 121 167
-0.058594 0.011719 -0.103712 105 129 175
-0.054688 0.011719 -0.103898 107 131 175
-0.050781 0.011719 -0.104144 108 131 175
-0.046875 0.011719 -0.104438 105 128 170
-0.042969 0.011719 -0.104738 98 120 161
-0.039062 0.011719 -0.105060 90 112 151
-0.035156 0.011719 -0.105380 82 104 141
-0.031250 0.011719 -0.105676 88 108 143
-0.027344 0.011719 -0.106099 91 111 144
-0.023438 0.011719 -0.106594 89 110 141
-0.019531 0.011719 -0.107071 89 110 139
-0.015625 0.011719 -0.107539 92 111 141
-0.011719 0.011719 -0.108058 92 112 139
-0.007812 0.011719 -0.108661 89 109 136
-0.003906 0.011719 -0.109249 80 97 123
0.000000 0.011719 -0.109870 77 95 119
0.003906 0.011719 -0.110610 70 88 112
0.007812 0.011719 -0.111403 70 88 112
0.011719 0.011719 -0.112185 85 103 127
0.015625 0.011719 -0.112912 102 122 147
0.019531 0.011719 -0.113556 104 126 150
0.023438 0.011719 -0.114010 95 119 145
0.027344 0.011719 -0.114406 107 130 161
0.031250 0.011719 -0.114657 106 131 162
0.035156 0.011719 -0.114587 105 131 166
0.039062 0.011719 -0.114242 105 133 172
0.042969 0.011719 -0.113764 108 135 178
0.046875 0.011719 -0.113181 110 137 184
0.050781 0.011719 -0.112688 112 138 187
0.054688 0.011719 -0.112230 115 138 188
0.058594 0.011719 -0.111664 111 133 183
0.062500 0.011719 -0.111036 122 142 192
0.066406 0.011719 -0.109933 109 133 177
0.070312 0.011719 -0.108368 81 109 149
0.074219 0.011719 -0.106750 70 102 141
0.078125 0.011719 -0.104954 84 118 156
0.082031 0.011719 -0.103105 90 124 162
0.085938 0.011719 -0.101018 80 113 154
0.089844 0.011719 -0.098756 78 110 151
0.093750 0.011719 -0.095623 74 103 142
0.097656 0.011719 -0.091457 72 94 131
0.101562 0.011719 -0.086119 72 88 118
0.105469 0.011719 -0.080113 169 190 207
0.109375 0.011719 -0.071697 155 182 195
0.113281 0.011719 -0.060909 124 148 167
0.117188 0.011719 -0.048678 109 130 143
0.121094 0.011719 -0.007613 108 136 138
0.128906 0.011719 0.003875 175 202 195
0.132812 0.011719 -0.029863 85 101 108
0.136719 0.011719 -0.042955 71 89 106
0.140625 0.011719 -0.054946 94 116 142
0.144531 0.011719 -0.060870 89 115 149
0.148438 0.011719 -0.065175 71 98 140
0.152344 0.011719 -0.068580 87 112 161
0.156250 0.011719 -0.071136 90 113 161
0.160156 0.011719 -0.072099 97 114 160
0.164062 0.011719 -0.071658 101 117 151
0.167969 0.011719 -0.071088 91 101 126
0.171875 0.011719 -0.070092 167 175 186
0.175781 0.011719 -0.067713 138 140 141
0.179688 0.011719 -0.063739 93 93 92
0.183594 0.011719 -0.059328 113 113 113
0.187500 0.011719 -0.054241 138 138 139
0.191406 0.011719 -0.048240 156 156 158
0.195312 0.011719 -0.041089 163 161 168
0.199219 0.011719 -0.034208 140 136 150
-0.218750 0.007812 0.065777 39 46 61
-0.214844 0.007812 0.056985 104 77 80
-0.210938 0.007812 0.053759 165 119 107
-0.207031 0.007812 0.052753 184 133 108
-0.203125 0.007812 0.049773 179 118 93
-0.199219 0.007812 0.049348 170 102 80
-0.195312 0.007812 0.049769 168 100 75
-0.191406 0.007812 0.049357 172 103 78
-0.187500 0.007812 0.046132 164 97 76
-0.183594 0.007812 -0.033403 142 78 66
-0.179688 0.007812 -0.044382 129 71 65
-0.175781 0.007812 -0.055265 119 71 75
-0.171875 0.007812 -0.063777 98 65 82
-0.167969 0.007812 -0.069404 81 68 90
-0.164062 0.007812 -0.074155 110 116 120
-0.160156 0.007812 -0.078835 167 175 173
-0.156250 0.007812 -0.082642 176 182 180
-0.152344 0.007812 -0.086048 162 164 162
-0.148438 0.007812 -0.088685 148 149 148
-0.144531 0.007812 -0.091363 146 149 149
-0.140625 0.007812 -0.093626 157 160 161
-0.136719 0.007812 -0.095677 171 174 180
-0.132812 0.007812 -0.097055 178 182 187
-0.128906 0.007812 -0.098138 177 181 182
-0.125000 0.007812 -0.099023 181 184 182
-0.121094 0.007812 -0.099932 165 167 166
-0.117188 0.007812 -0.100899 124 129 131
-0.113281 0.007812 -0.101745 88 96 99
-0.109375 0.007812 -0.102486 78 89 95
-0.105469 0.007812 -0.102801 78 90 102
-0.101562 0.007812 -0.102834 78 94 110
-0.097656 0.007812 -0.102840 76 92 115
-0.093750 0.007812 -0.102847 79 99 126
-0.089844 0.007812 -0.102852 82 105 136
-0.085938 0.007812 -0.102886 83 107 143
-0.082031 0.007812 -0.102962 84 109 150
-0.078125 0.007812 -0.103083 83 110 155
-0.074219 0.007812 -0.103098 78 106 153
-0.070312 0.007812 -0.103075 70 101 148
-0.066406 0.007812 -0.103075 69 99 149
-0.062500 0.007812 -0.103107 79 109 161
-0.058594 0.007812 -0.103232 93 123 173
-0.054688 0.007812 -0.103456 104 134 184
-0.050781 0.007812 -0.103737 115 143 193
-0.046875 0.007812 -0.104064 117 145 193
-0.042969 0.007812 -0.104419 109 136 183
-0.039062 0.007812 -0.104805 98 125 170
-0.035156 0.007812 -0.105186 92 116 160
-0.031250 0.007812 -0.105539 95 120 161
-0.027344 0.007812 -0.106025 91 116 156
-0.023438 0.007812 -0.106581 84 110 147
-0.019531 0.007812 -0.107123 93 117 155
-0.015625 0.007812 -0.107648 112 136 172
-0.011719 0.007812 -0.108216 121 145 181
-0.007812 0.007812 -0.108861 117 141 175
-0.003906 0.007812 -0.109488 118 139 170
0.000000 0.007812 -0.110155 111 132 161
0.003906 0.007812 -0.110918 98 119 148
0.007812 0.007812 -0.111711 83 104 133
0.011719 0.007812 -0.112497 76 100 128
0.015625 0.007812 -0.113221 86 112 139
0.019531 0.007812 -0.113849 108 133 163
0.023438 0.007812 -0.114267 125 152 181
0.027344 0.007812 -0.114623 121 150 182
0.031250 0.007812 -0.114830 117 147 183
0.035156 0.007812 -0.114732 109 141 180
0.039062 0.007812 -0.114366 103 134 178
0.042969 0.007812 -0.113862 98 130 179
0.046875 0.007812 -0.113251 99 130 184
0.050781 0.007812 -0.112724 103 134 189
0.054688 0.007812 -0.112229 108 137 193
0.058594 0.007812 -0.111627 110 135 189
0.062500 0.007812 -0.110965 113 139 190
0.066406 0.007812 -0.109803 104 132 179
0.070312 0.007812 -0.108171 85 118 161
0.074219 0.007812 -0.106479 75 110 152
0.078125 0.007812 -0.104585 75 112 154
0.082031 0.007812 -0.102679 76 115 156
0.085938 0.007812 -0.100563 73 110 152
0.089844 0.007812 -0.098273 64 99 141
0.093750 0.007812 -0.095141 72 102 141
0.097656 0.007812 -0.091066 76 100 136
0.101562 0.007812 -0.085832 80 100 127
0.105469 0.007812 -0.080107 181 199 215
0.109375 0.007812 -0.071961 173 198 208
0.113281 0.007812 -0.061458 130 153 175
0.117188 0.007812 -0.050597 116 137 152
0.121094 0.007812 -0.011853 121 147 151
0.125000 0.007812 0.016220 151 186 178
0.128906 0.007812 0.002055 182 210 202
0.132812 0.007812 -0.028528 91 107 114
0.136719 0.007812 -0.041000 70 88 105
0.140625 0.007812 -0.052064 96 119 142
0.144531 0.007812 -0.057851 93 119 153
0.148438 0.007812 -0.061769 79 107 146
0.152344 0.007812 -0.064979 77 104 150
0.156250 0.007812 -0.067366 87 110 158
0.160156 0.007812 -0.068190 95 113 156
0.164062 0.007812 -0.067643 109 123 158
0.167969 0.007812 -0.066954 95 105 130
0.171875 0.007812 -0.065772 165 173 183
0.175781 0.007812 -0.063197 155 158 159
0.179688 0.007812 -0.059015 102 103 101
0.183594 0.007812 -0.054270 125 125 125
0.187500 0.007812 -0.049045 152 152 154
0.191406 0.007812 -0.042618 170 169 173
0.195312 0.007812 -0.034903 182 180 188
0.199219 0.007812 -0.025710 199 196 202
-0.218750 0.003906 0.071600 42 42 57
-0.214844 0.003906 0.060965 86 69 74
-0.210938 0.003906 0.057105 154 111 104
-0.207031 0.003906 0.056357 178 129 108
-0.203125 0.003906 0.052922 178 122 96
-0.199219 0.003906 0.052747 172 110 84
-0.195312 0.003906 0.053367 171 107 78
-0.191406 0.003906 0.055495 175 111 81
-0.187500 0.003906 0.027649 171 107 82
-0.183594 0.003906 -0.036597 150 86 72
-0.179688 0.003906 -0.047478 136 76 73
-0.175781 0.003906 -0.057122 129 80 87
-0.171875 0.003906 -0.065515 102 77 93
-0.167969 0.003906 -0.071132 100 100 116
-0.164062 0.003906 -0.075988 155 163 164
-0.160156 0.003906 -0.080592 185 190 187
-0.156250 0.003906 -0.084297 176 180 177
-0.152344 0.003906 -0.087322 152 153 151
-0.148438 0.003906 -0.090220 135 136 135
-0.144531 0.003906 -0.092408 137 140 139
-0.140625 0.003906 -0.094818 152 155 155
-0.136719 0.003906 -0.096363 170 172 178
-0.132812 0.003906 -0.097922 180 183 187
-0.128906 0.003906 -0.098952 179 182 181
-0.125000 0.003906 -0.099900 177 179 176
-0.121094 0.003906 -0.100601 159 161 157
-0.117188 0.003906 -0.101414 128 132 129
-0.113281 0.003906 -0.102158 97 103 103
-0.109375 0.003906 -0.102717 86 96 98
-0.105469 0.003906 -0.102938 88 101 109
-0.101562 0.003906 -0.102843 91 107 120
-0.097656 0.003906 -0.102751 71 90 107
-0.093750 0.003906 -0.102666 72 94 117
-0.089844 0.003906 -0.102583 76 101 131
-0.085938 0.003906 -0.102537 77 103 138
-0.082031 0.003906 -0.102567 69 98 138
-0.078125 0.003906 -0.102661 65 96 140
-0.074219 0.003906 -0.102650 73 104 150
-0.070312 0.003906 -0.102606 83 115 164
-0.066406 0.003906 -0.102594 62 95 148
-0.062500 0.003906 -0.102650 66 101 155
-0.058594 0.003906 -0.102785 72 107 161
-0.054688 0.003906 -0.103024 78 114 166
-0.050781 0.003906 -0.103338 88 121 174
-0.046875 0.003906 -0.103700 98 131 182
-0.042969 0.003906 -0.104107 101 133 182
-0.039062 0.003906 -0.104559 98 130 177
-0.035156 0.003906 -0.105013 109 140 187
-0.031250 0.003906 -0.105436 101 132 178
-0.027344 0.003906 -0.106001 92 121 165
-0.023438 0.003906 -0.106634 89 118 160
-0.019531 0.003906 -0.107247 99 126 169
-0.015625 0.003906 -0.107843 110 138 178
-0.011719 0.003906 -0.108475 110 138 178
-0.007812 0.003906 -0.109169 103 131 168
-0.003906 0.003906 -0.109850 98 122 156
0.000000 0.003906 -0.110571 103 128 158
0.003906 0.003906 -0.111344 111 136 166
0.007812 0.003906 -0.112125 108 133 163
0.011719 0.003906 -0.112907 88 115 144
0.015625 0.003906 -0.113622 72 102 130
0.019531 0.003906 -0.114225 81 110 140
0.023438 0.003906 -0.114610 101 132 163
0.027344 0.003906 -0.114931 107 140 175
0.031250 0.003906 -0.115092 102 136 173
0.035156 0.003906 -0.114974 94 129 171
0.039062 0.003906 -0.114592 84 118 164
0.042969 0.003906 -0.114063 74 110 162
0.046875 0.003906 -0.113432 74 109 165
0.050781 0.003906 -0.112867 78 114 172
0.054688 0.003906 -0.112322 85 120 178
0.058594 0.003906 -0.111667 92 121 177
0.062500 0.003906 -0.110954 78 108 160
0.066406 0.003906 -0.109729 77 109 158
0.070312 0.003906 -0.108033 88 125 170
0.074219 0.003906 -0.106249 91 130 173
0.078125 0.003906 -0.104240 78 120 162
0.082031 0.003906 -0.102265 74 117 159
0.085938 0.003906 -0.100104 82 124 166
0.089844 0.003906 -0.097776 70 107 149
0.093750 0.003906 -0.094650 84 119 156
0.097656 0.003906 -0.090681 88 114 147
0.101562 0.003906 -0.085547 89 111 135
0.105469 0.003906 -0.080112 183 201 217
0.109375 0.003906 -0.072475 182 205 217
0.113281 0.003906 -0.062289 135 158 181
0.117188 0.003906 -0.051679 124 143 160
0.121094 0.003906 -0.015953 129 153 160
0.125000 0.003906 0.012647 156 189 182
0.128906 0.003906 0.000222 192 218 211
0.132812 0.003906 -0.026568 99 115 122
0.136719 0.003906 -0.038844 64 82 99
0.140625 0.003906 -0.049148 88 111 134
0.144531 0.003906 -0.054679 92 116 151
0.148438 0.003906 -0.058187 91 116 156
0.152344 0.003906 -0.061102 81 105 152
0.156250 0.003906 -0.063360 86 107 156
0.160156 0.003906 -0.064092 84 102 145
0.164062 0.003906 -0.063437 101 115 150
0.167969 0.003906 -0.062593 88 98 123
0.171875 0.003906 -0.061247 158 164 176
0.175781 0.003906 -0.058426 163 166 166
0.179688 0.003906 -0.053868 108 109 108
0.183594 0.003906 -0.049062 137 137 138
0.187500 0.003906 -0.043973 165 164 168
0.191406 0.003906 -0.036292 180 179 186
0.195312 0.003906 -0.026811 191 190 197
0.199219 0.003906 -0.014323 159 156 165
-0.214844 0.000000 0.069017 107 79 78
-0.210938 0.000000 0.062315 111 73 76
-0.207031 0.000000 0.060305 157 106 96
-0.203125 0.000000 0.057397 174 123 98
-0.199219 0.000000 0.056932 174 120 88
-0.195312 0.000000 0.057010 170 111 78
-0.191406 0.000000 0.061574 172 113 81
-0.187500 0.000000 0.001250 171 112 85
-0.183594 0.000000 -0.036840 154 93 78
-0.179688 0.000000 -0.049334 139 84 81
-0.175781 0.000000 -0.059091 125 86 95
-0.171875 0.000000 -0.066819 111 106 117
-0.167969 0.000000 -0.072585 170 178 183
-0.164062 0.000000 -0.077504 210 214 214
-0.160156 0.000000 -0.082043 194 199 196
-0.156250 0.000000 -0.085678 167 168 165
-0.152344 0.000000 -0.088614 135 135 133
-0.148438 0.000000 -0.091018 121 122 120
-0.144531 0.000000 -0.093679 128 129 129
-0.140625 0.000000 -0.095660 147 147 149
-0.136719 0.000000 -0.097482 167 167 172
-0.132812 0.000000 -0.098802 179 181 184
-0.128906 0.000000 -0.099782 173 176 175
-0.125000 0.000000 -0.100687 167 170 167
-0.121094 0.000000 -0.101251 144 146 143
-0.117188 0.000000 -0.101987 115 120 116
-0.113281 0.000000 -0.102632 84 90 90
-0.109375 0.000000 -0.103055 78 88 90
-0.105469 0.000000 -0.103223 90 101 107
-0.101562 0.000000 -0.103036 101 115 124
-0.097656 0.000000 -0.102856 104 120 135
-0.093750 0.000000 -0.102701 84 103 120
-0.089844 0.000000 -0.102548 70 92 115
-0.085938 0.000000 -0.102444 75 99 127
-0.082031 0.000000 -0.102428 84 108 142
-0.078125 0.000000 -0.102481 86 112 147
-0.074219 0.000000 -0.102423 86 114 153
-0.070312 0.000000 -0.102347 90 117 160
-0.066406 0.000000 -0.102310 89 120 166
-0.062500 0.000000 -0.102363 84 116 163
-0.058594 0.000000 -0.102490 75 106 153
-0.054688 0.000000 -0.102735 64 95 142
-0.050781 0.000000 -0.103070 63 94 141
-0.046875 0.000000 -0.103456 74 105 152
-0.042969 0.000000 -0.103911 90 118 165
-0.039062 0.000000 -0.104429 97 125 172
-0.035156 0.000000 -0.104958 88 116 163
-0.031250 0.000000 -0.105456 89 117 164
-0.027344 0.000000 -0.106111 94 121 168
-0.023438 0.000000 -0.106839 95 122 169
-0.019531 0.000000 -0.107537 85 112 159
-0.015625 0.000000 -0.108212 75 102 147
-0.011719 0.000000 -0.108916 83 107 153
-0.007812 0.000000 -0.109669 94 121 164
-0.003906 0.000000 -0.110401 92 122 160
0.000000 0.000000 -0.111167 79 109 145
0.003906 0.000000 -0.111953 79 109 145
0.007812 0.000000 -0.112722 91 121 157
0.011719 0.000000 -0.113485 90 120 156
0.015625 0.000000 -0.114183 73 106 141
0.019531 0.000000 -0.114756 64 97 132
0.023438 0.000000 -0.115096 67 101 138
0.027344 0.000000 -0.115372 60 95 133
0.031250 0.000000 -0.115481 70 105 145
0.035156 0.000000 -0.115326 83 117 162
