ply
    format ascii 1.0
    element vertex 68810
    property float x
    property float y
    property float z
    property uchar red
    property uchar green
    property uchar blue
    end_header
-0.058594 0.574219 0.089690 134 97 79
-0.054688 0.574219 0.091988 129 94 78
-0.050781 0.574219 0.094341 142 102 86
-0.046875 0.574219 0.096895 163 118 99
-0.042969 0.574219 0.099026 175 128 108
-0.039062 0.574219 0.100802 176 126 108
-0.035156 0.574219 0.102501 174 124 107
-0.031250 0.574219 0.104365 176 127 110
-0.027344 0.574219 0.106500 178 130 113
-0.023438 0.574219 0.108531 179 131 113
-0.019531 0.574219 0.110251 179 131 114
-0.015625 0.574219 0.111632 179 131 114
-0.011719 0.574219 0.112242 175 127 110
-0.007812 0.574219 0.112269 168 120 104
-0.003906 0.574219 0.111608 163 115 100
0.000000 0.574219 0.110242 160 115 98
0.003906 0.574219 0.108240 154 110 95
0.007812 0.574219 0.105214 149 106 91
0.011719 0.574219 0.101268 140 103 83
0.015625 0.574219 0.096698 125 94 69
0.019531 0.574219 0.091191 116 86 61
0.023438 0.574219 0.084155 96 67 47
0.027344 0.574219 0.075843 51 33 22
0.031250 0.574219 0.067281 25 15 10
0.035156 0.574219 0.060447 22 14 10
0.039062 0.574219 0.055391 24 18 12
0.042969 0.574219 0.050862 24 19 13
0.046875 0.574219 0.046047 26 21 14
0.050781 0.574219 0.040265 29 22 15
0.054688 0.574219 0.033216 33 26 18
0.058594 0.574219 0.025925 40 32 24
0.062500 0.574219 0.017376 46 40 31
0.066406 0.574219 0.006202 52 47 40
0.070312 0.574219 -0.009167 51 47 42
-0.109375 0.570312 -0.032083 44 35 31
-0.105469 0.570312 0.010659 62 62 47
-0.101562 0.570312 0.022998 37 35 25
-0.097656 0.570312 0.026869 23 19 13
-0.093750 0.570312 0.029349 13 10 7
-0.089844 0.570312 0.031074 16 10 7
-0.085938 0.570312 0.036722 24 14 10
-0.082031 0.570312 0.045244 41 24 18
-0.078125 0.570312 0.059298 84 55 41
-0.074219 0.570312 0.072003 125 90 71
-0.070312 0.570312 0.080090 142 103 83
-0.066406 0.570312 0.085469 146 104 83
-0.062500 0.570312 0.089043 148 107 88
-0.058594 0.570312 0.091989 151 111 92
-0.054688 0.570312 0.094490 157 116 95
-0.050781 0.570312 0.096945 165 121 101
-0.046875 0.570312 0.099524 173 127 106
-0.042969 0.570312 0.101629 178 129 109
-0.039062 0.570312 0.103420 176 127 109
-0.035156 0.570312 0.105122 176 127 109
-0.031250 0.570312 0.107022 179 130 113
-0.027344 0.570312 0.109248 181 133 115
-0.023438 0.570312 0.111330 181 132 115
-0.019531 0.570312 0.113138 181 132 115
-0.015625 0.570312 0.114537 181 132 115
-0.011719 0.570312 0.115106 179 130 113
-0.007812 0.570312 0.115208 176 127 110
-0.003906 0.570312 0.114667 173 125 108
0.000000 0.570312 0.113421 171 123 107
0.003906 0.570312 0.111653 167 120 104
0.007812 0.570312 0.108916 158 115 100
0.011719 0.570312 0.105276 146 109 92
0.015625 0.570312 0.101023 138 104 82
0.019531 0.570312 0.095853 134 98 75
0.023438 0.570312 0.089271 123 87 65
0.027344 0.570312 0.081030 79 54 39
0.031250 0.570312 0.071762 35 23 17
0.035156 0.570312 0.063254 24 16 11
0.039062 0.570312 0.056394 24 16 11
0.042969 0.570312 0.050940 24 17 11
0.046875 0.570312 0.046189 29 22 14
0.050781 0.570312 0.040914 30 23 16
0.054688 0.570312 0.034462 32 25 17
0.058594 0.570312 0.027712 39 32 23
0.062500 0.570312 0.019651 43 37 29
0.066406 0.570312 0.009030 50 46 39
0.070312 0.570312 -0.006159 54 51 45
-0.109375 0.566406 -0.032039 36 30 28
-0.105469 0.566406 0.012390 57 58 46
-0.101562 0.566406 0.023126 40 39 28
-0.097656 0.566406 0.026155 28 24 16
-0.093750 0.566406 0.027619 14 10 7
-0.089844 0.566406 0.028563 15 9 6
-0.085938 0.566406 0.034651 27 16 12
-0.082031 0.566406 0.045642 55 33 26
-0.078125 0.566406 0.063328 101 64 49
-0.074219 0.566406 0.075686 131 92 74
-0.070312 0.566406 0.082976 142 104 85
-0.066406 0.566406 0.088051 146 105 86
-0.062500 0.566406 0.091472 150 109 91
-0.058594 0.566406 0.094559 156 115 96
-0.054688 0.566406 0.097267 164 122 101
-0.050781 0.566406 0.099867 171 126 105
-0.046875 0.566406 0.102412 174 127 106
-0.042969 0.566406 0.104466 175 126 106
-0.039062 0.566406 0.106226 175 125 107
-0.035156 0.566406 0.107838 177 127 110
-0.031250 0.566406 0.109675 181 131 114
-0.027344 0.566406 0.111784 184 134 117
-0.023438 0.566406 0.113730 183 134 118
-0.019531 0.566406 0.115530 183 134 117
-0.015625 0.566406 0.116976 183 134 117
-0.011719 0.566406 0.117592 181 132 114
-0.007812 0.566406 0.117735 179 130 112
-0.003906 0.566406 0.117242 178 129 111
0.000000 0.566406 0.116041 176 127 109
0.003906 0.566406 0.114381 172 125 107
0.007812 0.566406 0.111866 164 120 104
0.011719 0.566406 0.108558 156 115 99
0.015625 0.566406 0.104697 151 112 94
0.019531 0.566406 0.100005 144 105 88
0.023438 0.566406 0.094192 138 100 82
0.027344 0.566406 0.086938 111 81 63
0.031250 0.566406 0.078630 65 48 34
0.035156 0.566406 0.069717 43 30 21
0.039062 0.566406 0.059802 31 19 13
0.042969 0.566406 0.051718 23 15 10
0.046875 0.566406 0.046107 27 20 12
0.050781 0.566406 0.041083 30 23 15
0.054688 0.566406 0.035366 33 25 17
0.058594 0.566406 0.029347 36 28 21
0.062500 0.566406 0.021687 34 28 23
0.066406 0.566406 0.011768 42 38 33
0.070312 0.566406 -0.003259 54 51 44
-0.109375 0.562500 -0.029287 45 38 35
-0.105469 0.562500 0.013867 71 71 55
-0.101562 0.562500 0.022955 59 56 38
-0.097656 0.562500 0.025456 39 34 21
-0.093750 0.562500 0.025590 15 11 7
-0.089844 0.562500 0.026226 12 6 5
-0.085938 0.562500 0.032434 24 14 11
-0.082031 0.562500 0.047125 62 42 33
-0.078125 0.562500 0.067890 112 79 61
-0.074219 0.562500 0.079599 138 102 80
-0.070312 0.562500 0.086054 146 110 89
-0.066406 0.562500 0.090638 146 107 89
-0.062500 0.562500 0.093905 149 110 92
-0.058594 0.562500 0.097059 158 119 99
-0.054688 0.562500 0.099919 168 127 106
-0.050781 0.562500 0.102700 176 132 111
-0.046875 0.562500 0.105311 179 133 112
-0.042969 0.562500 0.107405 179 131 111
-0.039062 0.562500 0.109234 180 130 113
-0.035156 0.562500 0.110884 181 131 114
-0.031250 0.562500 0.112693 182 131 115
-0.027344 0.562500 0.114683 185 135 119
-0.023438 0.562500 0.116491 187 138 122
-0.019531 0.562500 0.118187 187 138 122
-0.015625 0.562500 0.119610 186 137 120
-0.011719 0.562500 0.120280 185 135 118
-0.007812 0.562500 0.120515 184 134 116
-0.003906 0.562500 0.120077 181 132 113
0.000000 0.562500 0.118817 177 128 110
0.003906 0.562500 0.117107 172 125 107
0.007812 0.562500 0.114654 164 120 103
0.011719 0.562500 0.111554 162 120 102
0.015625 0.562500 0.107932 155 115 96
0.019531 0.562500 0.103700 141 103 84
0.023438 0.562500 0.098854 146 109 85
0.027344 0.562500 0.093112 146 111 83
0.031250 0.562500 0.086700 119 88 62
0.035156 0.562500 0.078323 89 64 45
0.039062 0.562500 0.065908 49 33 23
0.042969 0.562500 0.053286 24 16 10
0.046875 0.562500 0.045426 25 17 10
0.050781 0.562500 0.040454 29 21 13
0.054688 0.562500 0.035795 33 25 16
0.058594 0.562500 0.030606 33 26 19
0.062500 0.562500 0.023505 28 23 19
0.066406 0.562500 0.014316 38 33 29
0.070312 0.562500 -0.000530 56 53 46
-0.109375 0.558594 -0.023302 45 39 33
-0.105469 0.558594 0.014452 55 51 39
-0.101562 0.558594 0.021313 46 40 27
-0.097656 0.558594 0.024049 33 27 16
-0.093750 0.558594 0.022658 14 9 6
-0.089844 0.558594 0.023715 10 4 4
-0.085938 0.558594 0.029849 23 12 11
-0.082031 0.558594 0.049513 69 52 42
-0.078125 0.558594 0.072145 127 103 78
-0.074219 0.558594 0.082927 155 123 95
-0.070312 0.558594 0.088294 154 117 97
-0.066406 0.558594 0.092265 135 101 85
-0.062500 0.558594 0.095528 127 95 80
-0.058594 0.558594 0.098900 135 102 86
-0.054688 0.558594 0.101815 141 104 88
-0.050781 0.558594 0.104600 146 108 91
-0.046875 0.558594 0.107310 158 118 101
-0.042969 0.558594 0.109664 169 127 109
-0.039062 0.558594 0.111777 177 132 114
-0.035156 0.558594 0.113612 180 133 116
-0.031250 0.558594 0.115347 181 133 116
-0.027344 0.558594 0.117091 185 135 119
-0.023438 0.558594 0.118819 188 139 123
-0.019531 0.558594 0.120470 188 139 123
-0.015625 0.558594 0.121883 188 139 122
-0.011719 0.558594 0.122631 187 139 121
-0.007812 0.558594 0.122798 183 136 117
-0.003906 0.558594 0.122122 174 128 109
0.000000 0.558594 0.120503 165 120 102
0.003906 0.558594 0.118526 153 110 93
0.007812 0.558594 0.116048 136 96 80
0.011719 0.558594 0.113047 129 90 73
0.015625 0.558594 0.109611 117 78 62
0.019531 0.558594 0.105825 99 64 49
0.023438 0.558594 0.101754 109 75 57
0.027344 0.558594 0.097346 137 100 76
0.031250 0.558594 0.093026 149 109 83
0.035156 0.558594 0.086192 133 97 72
0.039062 0.558594 0.073167 75 53 36
0.042969 0.558594 0.055765 30 21 13
0.046875 0.558594 0.043778 23 16 10
0.050781 0.558594 0.038767 28 20 12
0.054688 0.558594 0.035636 31 23 15
0.058594 0.558594 0.031345 29 22 16
0.062500 0.558594 0.025068 27 22 17
0.066406 0.558594 0.016867 40 36 30
0.070312 0.558594 0.001865 62 59 51
-0.113281 0.554688 -0.021373 39 34 28
-0.109375 0.554688 -0.017040 36 32 27
-0.105469 0.554688 0.014679 31 29 23
-0.101562 0.554688 0.019422 25 21 15
-0.097656 0.554688 0.022143 22 17 11
-0.093750 0.554688 0.019711 13 8 6
-0.089844 0.554688 0.021199 10 4 4
-0.085938 0.554688 0.027631 26 14 13
-0.082031 0.554688 0.052306 87 67 54
-0.078125 0.554688 0.075037 150 122 97
-0.074219 0.554688 0.084434 154 119 95
-0.070312 0.554688 0.088492 115 84 70
-0.066406 0.554688 0.092097 77 57 50
-0.062500 0.554688 0.095535 69 52 45
-0.058594 0.554688 0.099067 79 58 50
-0.054688 0.554688 0.101854 76 56 48
-0.050781 0.554688 0.104437 77 56 49
-0.046875 0.554688 0.107194 95 69 60
-0.042969 0.554688 0.109861 123 90 77
-0.039062 0.554688 0.112425 149 110 93
-0.035156 0.554688 0.114728 166 122 104
-0.031250 0.554688 0.116628 178 131 112
-0.027344 0.554688 0.118286 184 136 119
-0.023438 0.554688 0.119979 187 138 122
-0.019531 0.554688 0.121669 188 138 123
-0.015625 0.554688 0.123173 188 139 123
-0.011719 0.554688 0.123814 183 136 117
-0.007812 0.554688 0.123410 162 116 99
-0.003906 0.554688 0.121918 128 89 75
0.000000 0.554688 0.119578 103 71 60
0.003906 0.554688 0.117259 88 60 51
0.007812 0.554688 0.114876 71 48 41
0.011719 0.554688 0.112106 64 42 34
0.015625 0.554688 0.109074 57 36 28
0.019531 0.554688 0.105891 53 33 26
0.023438 0.554688 0.102385 62 41 32
0.027344 0.554688 0.098934 84 58 45
0.031250 0.554688 0.096403 126 89 68
0.035156 0.554688 0.091442 145 108 83
0.039062 0.554688 0.079351 104 75 56
0.042969 0.554688 0.059232 39 28 19
0.046875 0.554688 0.041845 22 15 10
0.050781 0.554688 0.036521 25 18 11
0.054688 0.554688 0.035015 27 20 13
0.058594 0.554688 0.031904 24 18 14
0.062500 0.554688 0.026483 25 21 16
0.066406 0.554688 0.018997 37 33 27
0.070312 0.554688 0.003876 48 43 39
-0.113281 0.550781 -0.027572 46 41 32
-0.109375 0.550781 -0.008750 42 37 29
-0.105469 0.550781 0.014521 30 28 21
-0.101562 0.550781 0.017873 21 19 12
-0.097656 0.550781 0.020265 20 15 9
-0.093750 0.550781 0.017247 14 8 6
-0.089844 0.550781 0.018607 12 6 5
-0.085938 0.550781 0.026063 35 20 17
-0.082031 0.550781 0.055070 117 89 75
-0.078125 0.550781 0.076020 163 129 108
-0.074219 0.550781 0.084022 126 92 76
-0.070312 0.550781 0.087396 64 48 42
-0.066406 0.550781 0.090925 39 32 30
-0.062500 0.550781 0.094545 37 30 27
-0.058594 0.550781 0.098187 41 32 29
-0.054688 0.550781 0.100757 39 31 28
-0.050781 0.550781 0.103071 39 31 27
-0.046875 0.550781 0.105801 46 34 31
-0.042969 0.550781 0.108652 62 45 39
-0.039062 0.550781 0.111636 93 66 56
-0.035156 0.550781 0.114546 129 90 76
-0.031250 0.550781 0.116998 162 116 98
-0.027344 0.550781 0.119008 181 133 115
-0.023438 0.550781 0.120757 185 136 120
-0.019531 0.550781 0.122351 187 138 123
-0.015625 0.550781 0.123740 187 139 122
-0.011719 0.550781 0.123945 170 123 104
-0.007812 0.550781 0.122547 123 84 71
-0.003906 0.550781 0.120045 72 50 43
0.000000 0.550781 0.117098 51 37 32
0.003906 0.550781 0.114711 46 34 30
0.007812 0.550781 0.112740 44 32 28
0.011719 0.550781 0.110588 44 32 27
0.015625 0.550781 0.108163 43 30 25
0.019531 0.550781 0.105473 48 33 27
0.023438 0.550781 0.102508 56 40 32
0.027344 0.550781 0.099754 57 40 32
0.031250 0.550781 0.098010 83 59 47
0.035156 0.550781 0.094404 132 96 77
0.039062 0.550781 0.083990 131 96 77
0.042969 0.550781 0.062724 57 42 31
0.046875 0.550781 0.039452 21 15 10
0.050781 0.550781 0.033819 22 16 10
0.054688 0.550781 0.033412 24 18 12
0.058594 0.550781 0.031887 22 17 12
0.062500 0.550781 0.027326 26 21 16
0.066406 0.550781 0.020806 33 28 24
0.070312 0.550781 0.006509 34 30 28
-0.113281 0.546875 -0.044005 47 41 32
-0.109375 0.546875 -0.001906 45 39 30
-0.105469 0.546875 0.014103 28 26 19
-0.101562 0.546875 0.016990 19 16 10
-0.097656 0.546875 0.018691 18 13 8
-0.093750 0.546875 0.015523 15 9 7
-0.089844 0.546875 0.016557 16 8 7
-0.085938 0.546875 0.025598 52 31 25
-0.082031 0.546875 0.057139 137 106 91
-0.078125 0.546875 0.075780 145 113 96
-0.074219 0.546875 0.083050 91 66 56
-0.070312 0.546875 0.086450 59 46 41
-0.066406 0.546875 0.090292 55 45 41
-0.062500 0.546875 0.094249 54 45 40
-0.058594 0.546875 0.098011 55 45 39
-0.054688 0.546875 0.100490 54 44 39
-0.050781 0.546875 0.102514 53 42 37
-0.046875 0.546875 0.104769 48 36 33
-0.042969 0.546875 0.107210 48 35 31
-0.039062 0.546875 0.110044 62 44 39
-0.035156 0.546875 0.113023 92 62 54
-0.031250 0.546875 0.115827 137 94 79
-0.027344 0.546875 0.118319 171 123 105
-0.023438 0.546875 0.120339 181 133 116
-0.019531 0.546875 0.121946 187 139 122
-0.015625 0.546875 0.123150 183 135 118
-0.011719 0.546875 0.122827 147 103 87
-0.007812 0.546875 0.120622 96 66 56
-0.003906 0.546875 0.117655 65 48 41
0.000000 0.546875 0.114673 60 45 39
0.003906 0.546875 0.112569 66 50 42
0.007812 0.546875 0.111308 72 55 46
0.011719 0.546875 0.110074 81 61 50
0.015625 0.546875 0.108430 80 61 49
0.019531 0.546875 0.106265 88 66 52
0.023438 0.546875 0.103717 93 68 54
0.027344 0.546875 0.101323 75 55 45
0.031250 0.546875 0.099570 77 58 47
0.035156 0.546875 0.096245 110 81 64
0.039062 0.546875 0.087152 133 99 77
0.042969 0.546875 0.066827 74 56 41
0.046875 0.546875 0.037696 22 17 12
0.050781 0.546875 0.030695 18 13 8
0.054688 0.546875 0.031183 20 15 9
0.058594 0.546875 0.031630 19 14 10
0.062500 0.546875 0.027712 28 22 16
0.066406 0.546875 0.022423 41 35 28
0.070312 0.546875 0.009165 39 35 31
-0.113281 0.542969 -0.038720 40 33 27
-0.109375 0.542969 0.001755 39 33 26
-0.105469 0.542969 0.012909 23 20 15
-0.101562 0.542969 0.015928 15 12 8
-0.097656 0.542969 0.017006 16 10 6
-0.093750 0.542969 0.013963 16 9 7
-0.089844 0.542969 0.014589 21 12 10
-0.085938 0.542969 0.025829 69 45 35
-0.082031 0.542969 0.058333 139 110 94
-0.078125 0.542969 0.075303 122 93 81
-0.074219 0.542969 0.082415 85 62 54
-0.070312 0.542969 0.086214 88 68 59
-0.066406 0.542969 0.090581 108 85 72
-0.062500 0.542969 0.094770 115 91 76
-0.058594 0.542969 0.098352 119 93 77
-0.054688 0.542969 0.100607 121 94 79
-0.050781 0.542969 0.102304 117 89 75
-0.046875 0.542969 0.103877 106 78 65
-0.042969 0.542969 0.105584 95 68 57
-0.039062 0.542969 0.108082 92 65 55
-0.035156 0.542969 0.110828 101 69 59
-0.031250 0.542969 0.113654 130 89 74
-0.027344 0.542969 0.116543 163 115 97
-0.023438 0.542969 0.119027 175 126 109
-0.019531 0.542969 0.120867 185 137 120
-0.015625 0.542969 0.122050 180 132 116
-0.011719 0.542969 0.121469 138 95 81
-0.007812 0.542969 0.118766 105 73 62
-0.003906 0.542969 0.115525 99 72 60
0.000000 0.542969 0.112446 108 79 64
0.003906 0.542969 0.110331 119 89 71
0.007812 0.542969 0.109461 126 96 77
0.011719 0.542969 0.108853 141 109 87
0.015625 0.542969 0.107934 146 113 90
0.019531 0.542969 0.106479 150 116 93
0.023438 0.542969 0.104633 150 113 91
0.027344 0.542969 0.102868 133 99 80
0.031250 0.542969 0.101289 119 91 72
0.035156 0.542969 0.097982 115 87 67
0.039062 0.542969 0.089721 131 99 76
0.042969 0.542969 0.071852 88 67 50
0.046875 0.542969 0.037623 24 17 13
0.050781 0.542969 0.027838 15 11 7
0.054688 0.542969 0.028212 17 13 8
0.058594 0.542969 0.031167 17 14 9
0.062500 0.542969 0.027676 24 18 13
0.066406 0.542969 0.022455 39 32 25
0.070312 0.542969 0.010583 47 41 34
0.074219 0.542969 -0.012764 29 27 26
-0.113281 0.539062 -0.034534 51 44 35
-0.109375 0.539062 0.001079 40 34 27
-0.105469 0.539062 0.010824 21 18 14
-0.101562 0.539062 0.013978 12 8 6
-0.097656 0.539062 0.014325 13 7 4
-0.093750 0.539062 0.011669 15 9 7
-0.089844 0.539062 0.011907 24 16 13
-0.085938 0.539062 0.025578 80 60 45
-0.082031 0.539062 0.058902 148 123 101
-0.078125 0.539062 0.074901 141 111 95
-0.074219 0.539062 0.082221 131 97 84
-0.070312 0.539062 0.086369 144 111 94
-0.066406 0.539062 0.090700 153 120 99
-0.062500 0.539062 0.094739 153 118 97
-0.058594 0.539062 0.098009 148 113 92
-0.054688 0.539062 0.099809 141 106 87
-0.050781 0.539062 0.101130 127 95 78
-0.046875 0.539062 0.102293 122 89 72
-0.042969 0.539062 0.103676 125 91 74
-0.039062 0.539062 0.106183 126 91 75
-0.035156 0.539062 0.108931 126 89 74
-0.031250 0.539062 0.111913 138 96 79
-0.027344 0.539062 0.115118 161 112 95
-0.023438 0.539062 0.117939 171 121 105
-0.019531 0.539062 0.119957 183 135 118
-0.015625 0.539062 0.121056 183 134 118
-0.011719 0.539062 0.120306 148 103 87
-0.007812 0.539062 0.117004 130 90 76
-0.003906 0.539062 0.112920 128 91 75
0.000000 0.539062 0.109342 126 90 71
0.003906 0.539062 0.106927 127 91 71
0.007812 0.539062 0.105988 126 90 72
0.011719 0.539062 0.105558 142 104 83
0.015625 0.539062 0.105206 156 119 94
0.019531 0.539062 0.104680 163 126 102
0.023438 0.539062 0.104013 166 127 104
0.027344 0.539062 0.103538 166 126 103
0.031250 0.539062 0.102879 167 130 102
0.035156 0.539062 0.100114 150 113 88
0.039062 0.539062 0.092683 147 110 88
0.042969 0.539062 0.077400 110 82 64
0.046875 0.539062 0.039454 29 21 16
0.050781 0.539062 0.024843 14 10 6
0.054688 0.539062 0.025077 18 13 8
0.058594 0.539062 0.029297 19 15 9
0.062500 0.539062 0.027007 19 15 11
0.066406 0.539062 0.021750 26 20 16
0.070312 0.539062 0.010352 40 33 27
0.074219 0.539062 -0.007039 47 44 39
-0.113281 0.535156 -0.034094 55 46 37
-0.109375 0.535156 -0.002373 40 34 26
-0.105469 0.535156 0.007767 25 22 16
-0.101562 0.535156 0.011406 12 8 6
-0.097656 0.535156 0.010513 11 6 4
-0.093750 0.535156 0.008617 14 8 6
-0.089844 0.535156 0.008393 23 16 12
-0.085938 0.535156 0.024618 81 62 45
-0.082031 0.535156 0.059107 156 130 106
-0.078125 0.535156 0.074463 161 130 110
-0.074219 0.535156 0.081863 164 128 108
-0.070312 0.535156 0.085800 165 130 109
-0.066406 0.535156 0.089479 151 117 96
-0.062500 0.535156 0.093030 130 96 79
-0.058594 0.535156 0.095842 106 76 63
-0.054688 0.535156 0.097076 93 66 56
-0.050781 0.535156 0.097968 84 60 52
-0.046875 0.535156 0.098909 90 66 55
-0.042969 0.535156 0.100347 104 77 63
-0.039062 0.535156 0.103109 113 81 67
-0.035156 0.535156 0.106203 124 88 72
-0.031250 0.535156 0.109782 135 94 77
-0.027344 0.535156 0.113642 157 108 92
-0.023438 0.535156 0.116880 172 121 105
-0.019531 0.535156 0.119135 185 135 118
-0.015625 0.535156 0.120180 185 136 118
-0.011719 0.535156 0.119192 157 109 93
-0.007812 0.535156 0.115130 142 98 82
-0.003906 0.535156 0.110078 125 86 70
0.000000 0.535156 0.105835 105 73 58
0.003906 0.535156 0.102969 98 70 55
0.007812 0.535156 0.101619 82 56 45
0.011719 0.535156 0.100896 82 54 43
0.015625 0.535156 0.100884 99 70 56
0.019531 0.535156 0.101434 122 92 76
0.023438 0.535156 0.101986 143 107 90
0.027344 0.535156 0.102814 161 122 101
0.031250 0.535156 0.103237 178 142 115
0.035156 0.535156 0.101166 170 131 107
0.039062 0.535156 0.094838 163 123 99
0.042969 0.535156 0.082526 135 100 76
0.046875 0.535156 0.044071 45 31 22
0.050781 0.535156 0.021128 16 11 7
0.054688 0.535156 0.022197 16 11 7
0.058594 0.535156 0.025916 18 13 8
0.062500 0.535156 0.025623 19 15 10
0.066406 0.535156 0.019760 24 19 15
0.070312 0.535156 0.009453 30 24 19
0.074219 0.535156 -0.008041 34 31 28
-0.117188 0.531250 -0.023296 35 31 32
-0.113281 0.531250 -0.036532 21 16 16
-0.109375 0.531250 -0.008195 23 19 16
-0.105469 0.531250 0.003216 31 27 20
-0.101562 0.531250 0.007858 17 12 8
-0.097656 0.531250 0.005802 12 6 5
-0.093750 0.531250 0.004748 15 9 7
-0.089844 0.531250 0.004271 23 17 12
-0.085938 0.531250 0.023357 83 64 47
-0.082031 0.531250 0.059472 161 130 109
-0.078125 0.531250 0.073843 163 129 111
-0.074219 0.531250 0.080865 159 123 105
-0.070312 0.531250 0.084328 141 107 90
-0.066406 0.531250 0.087505 112 83 69
-0.062500 0.531250 0.090747 88 64 54
-0.058594 0.531250 0.092919 55 41 36
-0.054688 0.531250 0.093434 40 30 27
-0.050781 0.531250 0.094107 53 38 35
-0.046875 0.531250 0.095236 86 63 53
-0.042969 0.531250 0.096688 94 68 56
-0.039062 0.531250 0.099660 85 60 51
-0.035156 0.531250 0.103472 103 71 60
-0.031250 0.531250 0.108048 125 86 71
-0.027344 0.531250 0.112747 150 103 87
-0.023438 0.531250 0.116468 171 120 104
-0.019531 0.531250 0.118962 183 133 115
-0.015625 0.531250 0.119960 182 132 114
-0.011719 0.531250 0.118683 160 111 94
-0.007812 0.531250 0.114082 143 99 82
-0.003906 0.531250 0.108377 113 76 62
0.000000 0.531250 0.103636 95 65 53
0.003906 0.531250 0.100411 95 70 58
0.007812 0.531250 0.098525 56 41 35
0.011719 0.531250 0.097213 34 24 21
0.015625 0.531250 0.097236 48 36 31
0.019531 0.531250 0.098447 88 67 60
0.023438 0.531250 0.099627 111 84 73
0.027344 0.531250 0.101173 130 95 79
0.031250 0.531250 0.102453 165 129 105
0.035156 0.531250 0.101407 173 136 113
0.039062 0.531250 0.096357 167 128 102
0.042969 0.531250 0.086265 149 110 83
0.046875 0.531250 0.049277 67 44 32
0.050781 0.531250 0.017407 20 13 9
0.054688 0.531250 0.019039 14 10 6
0.058594 0.531250 0.020785 16 11 7
0.062500 0.531250 0.023047 20 15 10
0.066406 0.531250 0.017097 27 21 15
0.070312 0.531250 0.007810 25 20 16
0.074219 0.531250 -0.008497 25 22 21
-0.117188 0.527344 -0.034087 26 22 23
-0.113281 0.527344 -0.040409 9 7 8
-0.109375 0.527344 -0.016148 17 14 13
-0.105469 0.527344 -0.001975 40 35 25
-0.101562 0.527344 0.003209 20 13 10
-0.097656 0.527344 0.000715 12 6 5
-0.093750 0.527344 -0.000342 15 9 7
-0.089844 0.527344 -0.000136 26 20 16
-0.085938 0.527344 0.022046 94 73 55
-0.082031 0.527344 0.060241 166 132 111
-0.078125 0.527344 0.073189 163 128 111
-0.074219 0.527344 0.079850 150 115 97
-0.070312 0.527344 0.083094 112 82 70
-0.066406 0.527344 0.086129 91 65 57
-0.062500 0.527344 0.089668 100 74 65
-0.058594 0.527344 0.091898 64 49 44
-0.054688 0.527344 0.092138 31 26 24
-0.050781 0.527344 0.092817 45 35 32
-0.046875 0.527344 0.094161 96 70 60
-0.042969 0.527344 0.095429 95 68 56
-0.039062 0.527344 0.098457 74 53 43
-0.035156 0.527344 0.102888 95 66 55
-0.031250 0.527344 0.108365 126 87 72
-0.027344 0.527344 0.113807 152 104 88
-0.023438 0.527344 0.117797 170 120 103
-0.019531 0.527344 0.120355 180 129 112
-0.015625 0.527344 0.121263 179 128 111
-0.011719 0.527344 0.119769 163 114 97
-0.007812 0.527344 0.114884 147 102 86
-0.003906 0.527344 0.108788 116 79 65
0.000000 0.527344 0.103696 104 72 60
0.003906 0.527344 0.100385 110 84 70
0.007812 0.527344 0.098417 60 48 43
0.011719 0.527344 0.096733 28 24 22
0.015625 0.527344 0.096583 50 42 38
0.019531 0.527344 0.097889 106 87 75
0.023438 0.527344 0.099036 100 77 67
0.027344 0.527344 0.100711 89 64 55
0.031250 0.527344 0.102166 136 101 83
0.035156 0.527344 0.101615 169 130 107
0.039062 0.527344 0.097458 167 129 102
0.042969 0.527344 0.089166 154 117 88
0.046875 0.527344 0.054395 87 57 43
0.050781 0.527344 0.014140 24 16 12
0.054688 0.527344 0.015968 16 11 7
0.058594 0.527344 0.016754 18 12 8
0.062500 0.527344 0.018886 17 12 9
0.066406 0.527344 0.014293 24 18 13
0.070312 0.527344 0.005529 26 21 17
0.074219 0.527344 -0.009688 26 24 22
-0.117188 0.523438 -0.044057 25 21 22
-0.113281 0.523438 -0.041204 13 11 11
-0.109375 0.523438 -0.021009 26 22 19
-0.105469 0.523438 -0.006814 48 42 31
-0.101562 0.523438 -0.003020 18 12 9
-0.097656 0.523438 -0.004202 10 5 4
-0.093750 0.523438 -0.005673 14 8 7
-0.089844 0.523438 -0.004436 32 25 21
-0.085938 0.523438 0.021783 106 84 65
-0.082031 0.523438 0.061569 165 130 109
-0.078125 0.523438 0.072819 158 122 104
-0.074219 0.523438 0.079352 135 102 86
-0.070312 0.523438 0.082660 93 69 59
-0.066406 0.523438 0.085763 83 60 53
-0.062500 0.523438 0.089702 118 89 76
-0.058594 0.523438 0.092586 108 85 72
-0.054688 0.523438 0.093299 65 52 46
-0.050781 0.523438 0.093922 73 57 50
-0.046875 0.523438 0.094938 108 80 67
-0.042969 0.523438 0.096058 100 72 58
-0.039062 0.523438 0.099363 89 62 51
-0.035156 0.523438 0.104256 111 77 65
-0.031250 0.523438 0.110345 136 93 79
-0.027344 0.523438 0.116345 157 108 92
-0.023438 0.523438 0.120497 173 122 106
-0.019531 0.523438 0.123141 180 129 112
-0.015625 0.523438 0.124020 179 128 112
-0.011719 0.523438 0.122404 168 119 102
-0.007812 0.523438 0.117448 156 110 93
-0.003906 0.523438 0.111083 133 92 77
0.000000 0.523438 0.105372 111 78 65
0.003906 0.523438 0.101696 105 79 66
0.007812 0.523438 0.099981 81 63 54
0.011719 0.523438 0.098558 60 48 43
0.015625 0.523438 0.098279 86 71 61
0.019531 0.523438 0.099317 128 104 86
0.023438 0.523438 0.100331 111 84 70
0.027344 0.523438 0.101987 91 66 57
0.031250 0.523438 0.103073 123 91 77
0.035156 0.523438 0.102295 159 120 101
0.039062 0.523438 0.098549 167 130 104
0.042969 0.523438 0.091495 163 128 98
0.046875 0.523438 0.059649 104 72 54
0.050781 0.523438 0.011737 29 19 15
0.054688 0.523438 0.013174 19 13 9
0.058594 0.523438 0.014053 21 15 9
0.062500 0.523438 0.014187 16 12 8
0.066406 0.523438 0.011063 23 17 12
0.070312 0.523438 0.002677 30 24 19
0.074219 0.523438 -0.011537 27 26 24
-0.117188 0.519531 -0.032590 25 22 24
-0.113281 0.519531 -0.040903 23 20 18
-0.109375 0.519531 -0.023175 32 27 23
-0.105469 0.519531 -0.011193 39 33 25
-0.101562 0.519531 -0.010154 15 9 7
-0.097656 0.519531 -0.008341 10 5 4
-0.093750 0.519531 -0.010668 16 9 8
-0.089844 0.519531 -0.008775 45 35 30
-0.085938 0.519531 0.023000 125 100 82
-0.082031 0.519531 0.063278 165 128 107
-0.078125 0.519531 0.072770 156 116 100
-0.074219 0.519531 0.079377 134 99 84
-0.070312 0.519531 0.083013 108 80 67
-0.066406 0.519531 0.086422 98 71 61
-0.062500 0.519531 0.090279 114 84 70
-0.058594 0.519531 0.093338 122 92 77
-0.054688 0.519531 0.094755 107 80 68
-0.050781 0.519531 0.095535 104 77 66
-0.046875 0.519531 0.096154 107 77 64
-0.042969 0.519531 0.097567 99 68 56
-0.039062 0.519531 0.101377 107 73 61
-0.035156 0.519531 0.106624 129 88 75
-0.031250 0.519531 0.113136 145 99 85
-0.027344 0.519531 0.119362 163 112 97
-0.023438 0.519531 0.123563 180 128 111
-0.019531 0.519531 0.126245 186 135 117
-0.015625 0.519531 0.127126 183 133 115
-0.011719 0.519531 0.125445 176 126 108
-0.007812 0.519531 0.120603 168 119 101
-0.003906 0.519531 0.114161 154 108 90
0.000000 0.519531 0.107643 126 87 73
0.003906 0.519531 0.103287 106 75 63
0.007812 0.519531 0.101810 108 79 66
0.011719 0.519531 0.100931 115 85 72
0.015625 0.519531 0.100555 120 89 76
0.019531 0.519531 0.101109 126 94 80
0.023438 0.519531 0.102082 127 93 78
0.027344 0.519531 0.103789 130 93 79
0.031250 0.519531 0.104523 144 106 90
0.035156 0.519531 0.103441 160 117 100
0.039062 0.519531 0.099839 168 127 105
0.042969 0.519531 0.093508 167 133 104
0.046875 0.519531 0.064940 117 84 64
0.050781 0.519531 0.010234 36 25 19
0.054688 0.519531 0.010889 22 16 11
0.058594 0.519531 0.011378 24 17 11
0.062500 0.519531 0.009773 16 12 8
0.066406 0.519531 0.007975 25 18 14
0.070312 0.519531 0.000217 39 32 26
0.074219 0.519531 -0.012846 30 30 30
-0.117188 0.515625 -0.022249 29 27 28
-0.113281 0.515625 -0.042950 34 31 26
-0.109375 0.515625 -0.025227 33 28 23
-0.105469 0.515625 -0.015190 29 23 18
-0.101562 0.515625 -0.014969 13 8 6
-0.097656 0.515625 -0.013331 11 5 4
-0.093750 0.515625 -0.015281 18 11 9
-0.089844 0.515625 -0.013067 59 46 40
-0.085938 0.515625 0.025296 144 117 95
-0.082031 0.515625 0.065058 163 126 104
-0.078125 0.515625 0.073060 157 118 100
-0.074219 0.515625 0.079785 148 110 93
-0.070312 0.515625 0.083813 141 106 87
-0.066406 0.515625 0.087431 139 103 86
-0.062500 0.515625 0.091020 138 100 82
-0.058594 0.515625 0.093986 142 103 85
-0.054688 0.515625 0.095898 135 97 82
-0.050781 0.515625 0.097033 124 88 73
-0.046875 0.515625 0.097650 116 79 66
-0.042969 0.515625 0.099285 115 78 65
-0.039062 0.515625 0.103564 125 86 72
-0.035156 0.515625 0.109276 136 93 79
-0.031250 0.515625 0.116001 146 99 84
-0.027344 0.515625 0.122126 160 108 93
-0.023438 0.515625 0.126367 175 123 105
-0.019531 0.515625 0.129091 181 129 111
-0.015625 0.515625 0.130054 177 125 108
-0.011719 0.515625 0.128348 173 120 103
-0.007812 0.515625 0.123550 171 119 101
-0.003906 0.515625 0.117059 170 121 102
0.000000 0.515625 0.109939 159 113 95
0.003906 0.515625 0.105064 139 97 82
0.007812 0.515625 0.103557 140 100 84
0.011719 0.515625 0.102827 152 110 93
0.015625 0.515625 0.102434 149 107 90
0.019531 0.515625 0.102792 146 105 87
0.023438 0.515625 0.103826 151 110 93
0.027344 0.515625 0.105606 156 113 96
0.031250 0.515625 0.106090 160 117 98
0.035156 0.515625 0.104804 167 120 103
0.039062 0.515625 0.101340 173 128 107
0.042969 0.515625 0.095275 173 136 107
0.046875 0.515625 0.070010 129 95 72
0.050781 0.515625 0.009531 46 32 24
0.054688 0.515625 0.009096 27 20 13
0.058594 0.515625 0.008931 27 19 12
0.062500 0.515625 0.007076 16 12 8
0.066406 0.515625 0.005188 30 23 16
0.070312 0.515625 -0.001478 62 54 42
0.074219 0.515625 -0.013391 40 41 40
-0.113281 0.511719 -0.045943 32 30 26
-0.109375 0.511719 -0.027020 26 22 18
-0.105469 0.511719 -0.019059 22 16 14
-0.101562 0.511719 -0.018222 14 8 7
-0.097656 0.511719 -0.017676 14 7 6
-0.093750 0.511719 -0.019024 21 13 11
-0.089844 0.511719 -0.017397 68 53 45
-0.085938 0.511719 0.029040 153 124 101
-0.082031 0.511719 0.066846 161 123 101
-0.078125 0.511719 0.073686 157 117 98
-0.074219 0.511719 0.080597 151 111 94
-0.070312 0.511719 0.084988 151 111 93
-0.066406 0.511719 0.088713 158 118 99
-0.062500 0.511719 0.092287 157 115 95
-0.058594 0.511719 0.095428 158 115 94
-0.054688 0.511719 0.097638 152 108 91
-0.050781 0.511719 0.099014 139 96 80
-0.046875 0.511719 0.099944 135 92 76
-0.042969 0.511719 0.101866 142 97 81
-0.039062 0.511719 0.106425 146 101 84
-0.035156 0.511719 0.112378 145 98 84
-0.031250 0.511719 0.119093 146 96 83
-0.027344 0.511719 0.125221 151 98 85
-0.023438 0.511719 0.129615 162 109 94
-0.019531 0.511719 0.132438 166 114 98
-0.015625 0.511719 0.133486 161 108 93
-0.011719 0.511719 0.131869 158 105 90
-0.007812 0.511719 0.127108 164 111 94
-0.003906 0.511719 0.120446 178 126 107
0.000000 0.511719 0.112938 183 133 113
0.003906 0.511719 0.107689 171 121 103
0.007812 0.511719 0.105845 163 115 97
0.011719 0.511719 0.104915 167 118 101
0.015625 0.511719 0.104477 168 119 101
0.019531 0.511719 0.104750 173 125 104
0.023438 0.511719 0.105680 175 127 108
0.027344 0.511719 0.107306 168 121 104
0.031250 0.511719 0.107609 165 119 101
0.035156 0.511719 0.106150 171 123 105
0.039062 0.511719 0.102728 176 131 109
0.042969 0.511719 0.096690 178 139 111
0.046875 0.511719 0.074690 143 106 82
0.050781 0.511719 0.009618 59 41 30
0.054688 0.511719 0.007731 36 25 17
0.058594 0.511719 0.006938 36 25 15
0.062500 0.511719 0.005182 22 16 10
0.066406 0.511719 0.002572 35 27 19
0.070312 0.511719 -0.002822 68 59 45
0.074219 0.511719 -0.013604 40 40 39
-0.113281 0.507812 -0.051163 44 42 36
-0.109375 0.507812 -0.030101 26 22 19
-0.105469 0.507812 -0.022491 20 14 12
-0.101562 0.507812 -0.020673 20 12 10
-0.097656 0.507812 -0.020943 29 15 11
-0.093750 0.507812 -0.021715 34 21 17
-0.089844 0.507812 -0.020991 82 61 53
-0.085938 0.507812 0.032126 159 127 107
-0.082031 0.507812 0.068618 164 125 104
-0.078125 0.507812 0.074538 160 119 101
-0.074219 0.507812 0.081452 154 112 96
-0.070312 0.507812 0.086132 155 112 95
-0.066406 0.507812 0.090160 166 121 102
-0.062500 0.507812 0.093931 161 116 97
-0.058594 0.507812 0.097304 159 113 95
-0.054688 0.507812 0.099825 154 108 91
-0.050781 0.507812 0.101684 144 97 82
-0.046875 0.507812 0.103198 145 98 82
-0.042969 0.507812 0.105408 152 105 88
-0.039062 0.507812 0.110132 151 104 87
-0.035156 0.507812 0.116286 149 102 86
-0.031250 0.507812 0.122838 149 100 85
-0.027344 0.507812 0.128910 155 103 89
-0.023438 0.507812 0.133404 170 118 101
-0.019531 0.507812 0.136376 174 123 104
-0.015625 0.507812 0.137397 168 116 99
-0.011719 0.507812 0.135663 161 108 93
-0.007812 0.507812 0.130798 163 109 93
-0.003906 0.507812 0.123913 176 121 103
0.000000 0.507812 0.116141 185 131 113
0.003906 0.507812 0.110721 182 129 111
0.007812 0.507812 0.108467 174 122 105
0.011719 0.507812 0.107114 172 120 104
0.015625 0.507812 0.106469 172 121 104
0.019531 0.507812 0.106536 180 130 111
0.023438 0.507812 0.107294 185 135 116
0.027344 0.507812 0.108682 177 128 111
0.031250 0.507812 0.108800 174 126 109
0.035156 0.507812 0.107274 178 129 111
0.039062 0.507812 0.103954 179 134 111
0.042969 0.507812 0.097767 181 141 116
0.046875 0.507812 0.078103 153 115 93
0.050781 0.507812 0.010387 71 50 38
0.054688 0.507812 0.006648 44 31 21
0.058594 0.507812 0.005127 49 33 21
0.062500 0.507812 0.003245 32 22 14
0.066406 0.507812 -0.000244 31 22 16
0.070312 0.507812 -0.004808 41 32 25
0.074219 0.507812 -0.013956 32 28 28
-0.113281 0.503906 -0.031800 56 52 46
-0.109375 0.503906 -0.034810 35 29 26
-0.105469 0.503906 -0.026073 23 17 16
-0.101562 0.503906 -0.023500 30 19 15
-0.097656 0.503906 -0.023913 49 27 20
-0.093750 0.503906 -0.024108 52 31 25
-0.089844 0.503906 -0.024171 97 71 60
-0.085938 0.503906 0.033736 162 130 110
-0.082031 0.503906 0.070577 165 127 107
-0.078125 0.503906 0.075756 165 123 106
-0.074219 0.503906 0.082487 160 117 101
-0.070312 0.503906 0.087175 159 113 97
-0.066406 0.503906 0.091463 167 119 102
-0.062500 0.503906 0.095537 162 114 97
-0.058594 0.503906 0.099284 160 112 95
-0.054688 0.503906 0.102251 157 108 92
-0.050781 0.503906 0.104712 148 99 84
-0.046875 0.503906 0.106870 152 102 86
-0.042969 0.503906 0.109417 153 103 86
-0.039062 0.503906 0.114443 144 97 81
-0.035156 0.503906 0.120715 148 101 87
-0.031250 0.503906 0.126913 157 109 94
-0.027344 0.503906 0.132562 171 121 103
-0.023438 0.503906 0.136990 183 135 115
-0.019531 0.503906 0.140077 187 140 121
-0.015625 0.503906 0.140864 190 141 123
-0.011719 0.503906 0.138817 184 134 115
-0.007812 0.503906 0.134136 176 124 105
-0.003906 0.503906 0.127678 171 117 101
0.000000 0.503906 0.120185 176 122 105
0.003906 0.503906 0.114735 184 130 112
0.007812 0.503906 0.111898 181 128 110
0.011719 0.503906 0.109868 177 125 108
0.015625 0.503906 0.108744 176 123 107
0.019531 0.503906 0.108388 180 127 111
0.023438 0.503906 0.108871 184 133 116
0.027344 0.503906 0.109994 180 130 114
0.031250 0.503906 0.109927 180 131 115
0.035156 0.503906 0.108225 182 133 116
0.039062 0.503906 0.104826 181 134 114
0.042969 0.503906 0.098393 184 143 121
0.046875 0.503906 0.080200 160 122 102
0.050781 0.503906 0.011516 76 57 44
0.054688 0.503906 0.005754 46 34 23
0.058594 0.503906 0.003455 54 36 21
0.062500 0.503906 0.001355 38 25 16
0.066406 0.503906 -0.002682 27 19 13
0.070312 0.503906 -0.006940 27 21 16
0.074219 0.503906 -0.014408 25 22 22
-0.109375 0.500000 -0.047313 35 27 26
-0.105469 0.500000 -0.030848 27 20 17
-0.101562 0.500000 -0.027211 29 20 17
-0.097656 0.500000 -0.027611 43 26 20
-0.093750 0.500000 -0.027194 45 29 23
-0.089844 0.500000 -0.027409 92 68 57
-0.085938 0.500000 0.033738 160 129 108
-0.082031 0.500000 0.072208 166 128 108
-0.078125 0.500000 0.077156 168 126 108
-0.074219 0.500000 0.083681 167 122 105
-0.070312 0.500000 0.088199 164 116 100
-0.066406 0.500000 0.092634 168 118 102
-0.062500 0.500000 0.096990 165 115 100
-0.058594 0.500000 0.101143 167 116 101
-0.054688 0.500000 0.104580 165 114 98
-0.050781 0.500000 0.107503 153 102 87
-0.046875 0.500000 0.110167 152 101 85
-0.042969 0.500000 0.113238 153 101 85
-0.039062 0.500000 0.118611 156 106 90
-0.035156 0.500000 0.124778 175 127 109
-0.031250 0.500000 0.130250 185 135 117
-0.027344 0.500000 0.135141 190 140 120
-0.023438 0.500000 0.139346 195 150 129
-0.019531 0.500000 0.142088 195 152 132
-0.015625 0.500000 0.142096 194 147 127
-0.011719 0.500000 0.139798 189 138 118
-0.007812 0.500000 0.136051 191 140 119
-0.003906 0.500000 0.130993 186 134 115
0.000000 0.500000 0.124508 179 126 109
0.003906 0.500000 0.119136 186 131 114
0.007812 0.500000 0.115709 185 130 114
0.011719 0.500000 0.112984 183 130 114
0.015625 0.500000 0.111229 182 129 113
0.019531 0.500000 0.110252 180 127 111
0.023438 0.500000 0.110327 183 130 114
0.027344 0.500000 0.111157 183 132 116
0.031250 0.500000 0.110984 184 134 118
0.035156 0.500000 0.109136 184 135 119
0.039062 0.500000 0.105644 182 134 117
0.042969 0.500000 0.098914 188 145 125
0.046875 0.500000 0.081782 165 128 107
0.050781 0.500000 0.013322 79 59 46
0.054688 0.500000 0.005209 44 31 21
0.058594 0.500000 0.001841 50 30 19
0.062500 0.500000 -0.000768 42 26 16
0.066406 0.500000 -0.004226 36 25 15
0.070312 0.500000 -0.008232 38 28 21
0.074219 0.500000 -0.014864 31 27 26
-0.109375 0.496094 -0.031685 32 27 26
-0.105469 0.496094 -0.037925 39 29 24
-0.101562 0.496094 -0.032187 34 23 20
-0.097656 0.496094 -0.031858 39 26 20
-0.093750 0.496094 -0.030348 38 28 22
-0.089844 0.496094 -0.029952 89 67 58
-0.085938 0.496094 0.032844 165 131 113
-0.082031 0.496094 0.072958 172 132 114
-0.078125 0.496094 0.077877 171 128 111
-0.074219 0.496094 0.084481 172 125 109
-0.070312 0.496094 0.089011 168 118 103
-0.066406 0.496094 0.093691 169 118 103
-0.062500 0.496094 0.098184 169 117 102
-0.058594 0.496094 0.102503 173 121 105
-0.054688 0.496094 0.106241 175 122 106
-0.050781 0.496094 0.109497 164 112 97
-0.046875 0.496094 0.112597 158 106 91
-0.042969 0.496094 0.116071 155 103 88
-0.039062 0.496094 0.121410 168 117 99
-0.035156 0.496094 0.126976 185 136 115
-0.031250 0.496094 0.131222 164 111 94
-0.027344 0.496094 0.135145 148 94 81
-0.023438 0.496094 0.139388 172 120 102
-0.019531 0.496094 0.142123 180 132 111
-0.015625 0.496094 0.141471 148 97 83
-0.011719 0.496094 0.138849 123 74 66
-0.007812 0.496094 0.136071 164 109 95
-0.003906 0.496094 0.132517 193 141 121
0.000000 0.496094 0.127516 188 135 116
0.003906 0.496094 0.122684 188 134 117
0.007812 0.496094 0.118918 187 133 117
0.011719 0.496094 0.115771 187 134 118
0.015625 0.496094 0.113525 187 134 118
0.019531 0.496094 0.112016 183 130 115
0.023438 0.496094 0.111722 183 131 114
0.027344 0.496094 0.112169 183 132 116
0.031250 0.496094 0.111857 185 136 119
0.035156 0.496094 0.109933 185 136 120
0.039062 0.496094 0.106180 182 134 117
0.042969 0.496094 0.098870 189 145 125
0.046875 0.496094 0.082711 167 127 108
0.050781 0.496094 0.016124 86 65 53
0.054688 0.496094 0.005643 52 37 27
0.058594 0.496094 0.001044 48 28 18
0.062500 0.496094 -0.002235 40 24 14
0.066406 0.496094 -0.005284 45 30 19
0.070312 0.496094 -0.008891 48 36 28
0.074219 0.496094 -0.014923 36 31 30
-0.105469 0.492188 -0.047741 51 38 31
-0.101562 0.492188 -0.037589 46 31 24
-0.097656 0.492188 -0.035410 55 39 27
-0.093750 0.492188 -0.032522 57 42 33
-0.089844 0.492188 -0.030910 102 74 66
-0.085938 0.492188 0.027773 167 128 112
-0.082031 0.492188 0.073815 173 131 113
-0.078125 0.492188 0.078509 171 127 109
-0.074219 0.492188 0.085146 174 127 110
-0.070312 0.492188 0.089444 171 121 106
-0.066406 0.492188 0.094342 172 121 106
-0.062500 0.492188 0.098907 171 119 104
-0.058594 0.492188 0.103338 172 120 105
-0.054688 0.492188 0.107304 175 123 107
-0.050781 0.492188 0.110921 172 119 104
-0.046875 0.492188 0.114432 169 116 100
-0.042969 0.492188 0.117952 160 106 91
-0.039062 0.492188 0.122646 160 108 92
-0.035156 0.492188 0.127188 162 112 93
-0.031250 0.492188 0.130416 120 75 64
-0.027344 0.492188 0.133829 98 58 51
-0.023438 0.492188 0.138416 137 88 76
-0.019531 0.492188 0.141663 162 114 95
-0.015625 0.492188 0.141058 127 82 69
-0.011719 0.492188 0.138371 95 57 51
-0.007812 0.492188 0.135960 137 87 76
-0.003906 0.492188 0.133267 181 127 109
0.000000 0.492188 0.129601 186 133 114
0.003906 0.492188 0.125561 186 132 114
0.007812 0.492188 0.121677 184 130 114
0.011719 0.492188 0.118245 185 132 116
0.015625 0.492188 0.115654 187 136 119
0.019531 0.492188 0.113766 186 135 119
0.023438 0.492188 0.113104 184 133 117
0.027344 0.492188 0.113050 181 131 114
0.031250 0.492188 0.112466 183 135 118
0.035156 0.492188 0.110468 184 136 120
0.039062 0.492188 0.106439 180 133 117
0.042969 0.492188 0.098745 186 143 124
0.046875 0.492188 0.083071 167 127 109
0.050781 0.492188 0.019779 111 85 71
0.054688 0.492188 0.007420 90 67 49
0.058594 0.492188 0.001622 60 38 23
0.062500 0.492188 -0.002850 39 24 14
0.066406 0.492188 -0.006087 46 31 21
0.070312 0.492188 -0.009454 44 34 28
0.074219 0.492188 -0.015313 32 28 28
-0.105469 0.488281 -0.055018 37 27 23
-0.101562 0.488281 -0.042593 37 25 21
-0.097656 0.488281 -0.038667 72 51 37
-0.093750 0.488281 -0.034630 98 72 56
-0.089844 0.488281 -0.030741 120 87 75
-0.085938 0.488281 0.016845 163 123 106
-0.082031 0.488281 0.074653 173 131 113
-0.078125 0.488281 0.078744 168 123 106
-0.074219 0.488281 0.085583 173 124 108
-0.070312 0.488281 0.089540 173 123 107
-0.066406 0.488281 0.094771 174 123 108
-0.062500 0.488281 0.099422 174 122 108
-0.058594 0.488281 0.103995 172 120 106
-0.054688 0.488281 0.108160 173 121 107
-0.050781 0.488281 0.112104 173 120 106
-0.046875 0.488281 0.115969 176 122 106
-0.042969 0.488281 0.119472 169 115 99
-0.039062 0.488281 0.123325 155 102 89
-0.035156 0.488281 0.126828 144 95 81
-0.031250 0.488281 0.129528 127 83 70
-0.027344 0.488281 0.132752 124 80 68
-0.023438 0.488281 0.137320 150 103 86
-0.019531 0.488281 0.140723 170 123 104
-0.015625 0.488281 0.140640 155 110 92
-0.011719 0.488281 0.138444 132 89 74
-0.007812 0.488281 0.136047 141 95 79
-0.003906 0.488281 0.133735 163 111 94
0.000000 0.488281 0.130998 179 124 105
0.003906 0.488281 0.127670 182 127 110
0.007812 0.488281 0.123930 181 127 110
0.011719 0.488281 0.120404 183 131 114
0.015625 0.488281 0.117604 186 135 119
0.019531 0.488281 0.115433 188 139 122
0.023438 0.488281 0.114384 187 137 120
0.027344 0.488281 0.113787 181 132 115
0.031250 0.488281 0.112856 184 136 118
0.035156 0.488281 0.110757 185 137 121
0.039062 0.488281 0.106391 179 134 117
0.042969 0.488281 0.097961 183 141 122
0.046875 0.488281 0.082293 168 127 109
0.050781 0.488281 0.024258 146 110 91
0.054688 0.488281 0.009513 143 109 80
0.058594 0.488281 0.002805 78 54 33
0.062500 0.488281 -0.003051 40 27 16
0.066406 0.488281 -0.006538 52 36 24
0.070312 0.488281 -0.010051 48 38 30
0.074219 0.488281 -0.017888 37 34 30
-0.105469 0.484375 -0.058925 44 35 30
-0.101562 0.484375 -0.045572 30 23 21
-0.097656 0.484375 -0.041064 75 54 43
-0.093750 0.484375 -0.036741 121 89 70
-0.089844 0.484375 -0.030741 115 81 68
-0.085938 0.484375 0.001454 156 114 97
-0.082031 0.484375 0.073302 183 141 122
-0.078125 0.484375 0.078700 173 127 110
-0.074219 0.484375 0.086025 174 125 108
-0.070312 0.484375 0.089818 174 125 108
-0.066406 0.484375 0.095195 172 122 107
-0.062500 0.484375 0.099876 175 125 110
-0.058594 0.484375 0.104610 176 125 110
-0.054688 0.484375 0.108860 175 123 109
-0.050781 0.484375 0.112870 174 121 107
-0.046875 0.484375 0.116913 174 120 105
-0.042969 0.484375 0.120407 172 119 102
-0.039062 0.484375 0.123583 157 105 90
-0.035156 0.484375 0.126207 128 84 71
-0.031250 0.484375 0.128305 113 75 63
-0.027344 0.484375 0.131066 120 81 68
-0.023438 0.484375 0.135148 141 96 80
-0.019531 0.484375 0.138363 156 110 92
-0.015625 0.484375 0.138930 142 99 83
-0.011719 0.484375 0.137659 126 86 72
-0.007812 0.484375 0.135775 132 89 73
-0.003906 0.484375 0.134078 151 101 84
0.000000 0.484375 0.132133 174 120 101
0.003906 0.484375 0.129430 180 126 108
0.007812 0.484375 0.126047 181 128 110
0.011719 0.484375 0.122551 186 134 116
0.015625 0.484375 0.119488 187 137 120
0.019531 0.484375 0.116990 190 141 124
0.023438 0.484375 0.115514 189 140 123
0.027344 0.484375 0.114308 182 134 117
0.031250 0.484375 0.112842 184 136 119
0.035156 0.484375 0.110445 183 136 119
0.039062 0.484375 0.105777 179 133 116
0.042969 0.484375 0.096890 183 141 123
0.046875 0.484375 0.080126 168 125 109
0.050781 0.484375 0.025513 152 111 93
0.054688 0.484375 0.010841 158 118 90
0.058594 0.484375 0.003916 90 62 44
0.062500 0.484375 -0.003020 43 30 22
0.066406 0.484375 -0.007241 53 38 28
0.070312 0.484375 -0.011469 46 36 30
0.074219 0.484375 -0.022670 28 24 24
-0.105469 0.480469 -0.060088 89 81 68
-0.101562 0.480469 -0.047567 38 33 30
-0.097656 0.480469 -0.042908 74 56 46
-0.093750 0.480469 -0.038574 130 94 79
-0.089844 0.480469 -0.031249 100 68 60
-0.085938 0.480469 -0.012349 136 95 82
-0.082031 0.480469 0.068386 186 141 122
-0.078125 0.480469 0.078235 176 129 111
-0.074219 0.480469 0.085777 175 126 109
-0.070312 0.480469 0.089491 175 127 109
-0.066406 0.480469 0.094801 171 122 106
-0.062500 0.480469 0.099601 175 127 111
-0.058594 0.480469 0.104598 175 125 110
-0.054688 0.480469 0.108916 171 120 105
-0.050781 0.480469 0.112925 169 116 102
-0.046875 0.480469 0.116923 167 115 100
-0.042969 0.480469 0.120235 167 116 99
-0.039062 0.480469 0.122959 157 107 91
-0.035156 0.480469 0.124974 125 83 70
-0.031250 0.480469 0.126598 101 68 57
-0.027344 0.480469 0.128918 99 67 57
-0.023438 0.480469 0.132275 116 78 65
-0.019531 0.480469 0.135047 131 90 75
-0.015625 0.480469 0.135968 118 81 69
-0.011719 0.480469 0.135543 111 76 65
-0.007812 0.480469 0.134551 128 87 73
-0.003906 0.480469 0.133566 149 102 84
0.000000 0.480469 0.132126 172 122 101
0.003906 0.480469 0.129892 182 131 110
0.007812 0.480469 0.127118 183 132 113
0.011719 0.480469 0.123966 186 136 117
0.015625 0.480469 0.120812 185 136 118
0.019531 0.480469 0.118066 188 140 122
0.023438 0.480469 0.116211 190 142 125
0.027344 0.480469 0.114502 185 137 120
0.031250 0.480469 0.112572 184 137 119
0.035156 0.480469 0.109895 180 133 116
0.039062 0.480469 0.104858 178 133 115
0.042969 0.480469 0.095736 183 140 122
0.046875 0.480469 0.076909 156 113 101
0.050781 0.480469 0.023131 127 87 78
0.054688 0.480469 0.011877 142 100 84
0.058594 0.480469 0.005046 106 75 61
0.062500 0.480469 -0.002814 59 44 37
0.066406 0.480469 -0.008217 52 40 34
0.070312 0.480469 -0.013861 40 31 29
-0.105469 0.476562 -0.060714 100 95 86
-0.101562 0.476562 -0.049357 33 30 30
-0.097656 0.476562 -0.044594 50 39 34
-0.093750 0.476562 -0.040218 123 90 75
-0.089844 0.476562 -0.032866 105 74 64
-0.085938 0.476562 -0.019176 125 88 76
-0.082031 0.476562 0.059071 178 135 116
-0.078125 0.476562 0.076187 173 127 109
-0.074219 0.476562 0.084047 174 127 108
-0.070312 0.476562 0.088256 175 127 110
-0.066406 0.476562 0.093676 170 123 107
-0.062500 0.476562 0.098646 173 126 110
-0.058594 0.476562 0.103819 172 124 109
-0.054688 0.476562 0.108214 172 123 107
-0.050781 0.476562 0.112143 174 123 106
-0.046875 0.476562 0.115758 170 118 100
-0.042969 0.476562 0.118635 154 104 88
-0.039062 0.476562 0.121248 134 89 76
-0.035156 0.476562 0.123428 116 77 66
-0.031250 0.476562 0.125258 109 73 62
-0.027344 0.476562 0.127435 106 71 60
-0.023438 0.476562 0.130101 109 72 62
-0.019531 0.476562 0.132459 119 78 67
-0.015625 0.476562 0.133671 116 77 66
-0.011719 0.476562 0.133772 120 80 69
-0.007812 0.476562 0.133191 132 89 76
-0.003906 0.476562 0.132231 138 93 78
0.000000 0.476562 0.130629 154 105 87
0.003906 0.476562 0.128637 171 120 100
0.007812 0.476562 0.126604 182 132 111
0.011719 0.476562 0.124226 188 140 120
0.015625 0.476562 0.121432 184 137 118
0.019531 0.476562 0.118609 184 137 119
0.023438 0.476562 0.116393 188 141 123
0.027344 0.476562 0.114219 186 140 122
0.031250 0.476562 0.111910 184 138 120
0.035156 0.476562 0.108950 180 134 116
0.039062 0.476562 0.103408 179 134 117
0.042969 0.476562 0.093837 177 135 117
0.046875 0.476562 0.072103 145 104 92
0.050781 0.476562 0.020589 126 87 79
0.054688 0.476562 0.013081 148 107 94
0.058594 0.476562 0.006267 126 95 80
0.062500 0.476562 -0.002119 79 66 54
0.066406 0.476562 -0.008538 55 45 39
0.070312 0.476562 -0.016023 42 33 32
-0.105469 0.472656 -0.060858 82 71 71
-0.101562 0.472656 -0.050764 50 46 47
-0.097656 0.472656 -0.046134 47 40 35
-0.093750 0.472656 -0.041195 121 91 75
-0.089844 0.472656 -0.034185 138 101 85
-0.085938 0.472656 -0.022888 132 95 81
-0.082031 0.472656 0.047088 164 122 105
-0.078125 0.472656 0.072773 167 123 105
-0.074219 0.472656 0.081100 172 128 108
-0.070312 0.472656 0.086281 175 130 111
-0.066406 0.472656 0.091917 170 125 108
-0.062500 0.472656 0.097157 172 127 110
-0.058594 0.472656 0.102401 175 129 112
-0.054688 0.472656 0.106722 178 131 113
-0.050781 0.472656 0.110314 172 122 103
-0.046875 0.472656 0.113544 151 101 84
-0.042969 0.472656 0.116371 121 78 67
