ply
    format ascii 1.0
    element vertex 62546
    property float x
    property float y
    property float z
    property uchar red
    property uchar green
    property uchar blue
    end_header
-0.039062 0.250000 -0.128659 118 92 87
-0.035156 0.250000 -0.128759 126 100 93
-0.031250 0.250000 -0.129056 108 87 80
-0.027344 0.250000 -0.129536 151 136 131
-0.023438 0.250000 -0.130194 159 151 149
-0.019531 0.250000 -0.130992 108 106 111
-0.015625 0.250000 -0.131801 132 132 144
-0.011719 0.250000 -0.132680 165 168 187
-0.007812 0.250000 -0.133525 119 124 144
-0.003906 0.250000 -0.134422 94 97 116
0.000000 0.250000 -0.135193 164 167 184
0.003906 0.250000 -0.135904 159 162 179
0.007812 0.250000 -0.136480 133 137 149
0.011719 0.250000 -0.136890 121 123 135
0.015625 0.250000 -0.137159 150 150 158
0.019531 0.250000 -0.137339 87 85 90
0.023438 0.250000 -0.137387 105 100 104
0.027344 0.250000 -0.137261 106 97 100
0.031250 0.250000 -0.136994 105 96 99
0.035156 0.250000 -0.136503 108 99 102
0.039062 0.250000 -0.135782 146 140 144
0.042969 0.250000 -0.134955 140 134 144
0.046875 0.250000 -0.134003 166 164 175
0.050781 0.250000 -0.132852 181 183 195
0.054688 0.250000 -0.131316 171 177 191
0.058594 0.250000 -0.129668 170 177 196
0.062500 0.250000 -0.127618 179 187 207
0.066406 0.250000 -0.124688 176 184 206
0.070312 0.250000 -0.121200 175 183 206
0.074219 0.250000 -0.117315 164 172 195
0.078125 0.250000 -0.113172 166 174 194
0.082031 0.250000 -0.108458 184 191 209
0.085938 0.250000 -0.103014 171 178 196
0.089844 0.250000 -0.096830 182 185 200
0.093750 0.250000 -0.090116 131 131 143
0.097656 0.250000 -0.082715 139 136 145
0.101562 0.250000 -0.075806 177 170 177
0.105469 0.250000 -0.070165 165 154 158
0.109375 0.250000 -0.067284 114 100 100
0.113281 0.250000 -0.068096 90 74 72
0.117188 0.250000 -0.071010 77 63 60
0.121094 0.250000 -0.074196 69 60 59
0.125000 0.250000 -0.076369 116 104 110
0.128906 0.250000 -0.077228 111 90 111
0.132812 0.250000 -0.077048 100 73 97
0.136719 0.250000 -0.076763 140 110 129
0.140625 0.250000 -0.076139 181 158 169
0.144531 0.250000 -0.074554 199 182 187
0.148438 0.250000 -0.072008 218 207 209
0.152344 0.250000 -0.069291 220 214 215
0.156250 0.250000 -0.066164 216 213 213
0.160156 0.250000 -0.062230 211 209 210
0.164062 0.250000 -0.057200 208 206 207
0.167969 0.250000 -0.051586 209 204 205
0.171875 0.250000 -0.044776 212 204 203
0.175781 0.250000 -0.036950 221 211 212
0.179688 0.250000 -0.026259 235 222 224
-0.257812 0.246094 -0.002935 135 103 90
-0.253906 0.246094 -0.011382 130 107 99
-0.250000 0.246094 -0.017048 92 77 72
-0.246094 0.246094 -0.022053 145 131 128
-0.242188 0.246094 -0.026418 165 155 153
-0.238281 0.246094 -0.030285 86 80 80
-0.234375 0.246094 -0.033527 80 78 79
-0.230469 0.246094 -0.035401 191 192 196
-0.226562 0.246094 -0.036457 144 145 150
-0.222656 0.246094 -0.037405 138 138 146
-0.218750 0.246094 -0.038255 91 91 99
-0.214844 0.246094 -0.038214 126 124 135
-0.210938 0.246094 -0.037496 164 161 172
-0.207031 0.246094 -0.036794 154 146 159
-0.203125 0.246094 -0.036022 169 159 170
-0.199219 0.246094 -0.035102 166 152 165
-0.195312 0.246094 -0.035328 118 102 112
-0.191406 0.246094 -0.036747 95 81 81
-0.187500 0.246094 -0.040688 148 133 130
-0.183594 0.246094 -0.060236 112 97 94
-0.179688 0.246094 -0.076010 173 158 155
-0.175781 0.246094 -0.087357 178 160 160
-0.171875 0.246094 -0.095830 70 51 51
-0.167969 0.246094 -0.102152 91 71 73
-0.164062 0.246094 -0.106646 107 88 92
-0.160156 0.246094 -0.110533 84 65 71
-0.156250 0.246094 -0.114317 86 64 76
-0.152344 0.246094 -0.117152 123 101 114
-0.148438 0.246094 -0.119440 195 174 190
-0.144531 0.246094 -0.121496 164 143 162
-0.140625 0.246094 -0.123444 177 156 177
-0.136719 0.246094 -0.124427 178 156 179
-0.132812 0.246094 -0.124858 200 178 200
-0.128906 0.246094 -0.125360 167 143 163
-0.125000 0.246094 -0.125957 145 123 140
-0.121094 0.246094 -0.126518 199 181 199
-0.117188 0.246094 -0.127264 180 168 183
-0.113281 0.246094 -0.127995 171 160 175
-0.109375 0.246094 -0.128578 173 163 180
-0.105469 0.246094 -0.129185 174 164 182
-0.101562 0.246094 -0.129727 176 166 186
-0.097656 0.246094 -0.130285 166 155 178
-0.093750 0.246094 -0.130728 175 163 187
-0.089844 0.246094 -0.131143 169 159 185
-0.085938 0.246094 -0.131337 156 150 175
-0.082031 0.246094 -0.131498 159 159 182
-0.078125 0.246094 -0.131588 174 179 202
-0.074219 0.246094 -0.131428 176 187 208
-0.070312 0.246094 -0.131142 168 178 197
-0.066406 0.246094 -0.130685 137 142 163
-0.062500 0.246094 -0.130206 151 155 174
-0.058594 0.246094 -0.129771 175 175 195
-0.054688 0.246094 -0.129429 179 178 197
-0.050781 0.246094 -0.129058 184 179 196
-0.046875 0.246094 -0.128799 187 180 192
-0.042969 0.246094 -0.128687 102 91 97
-0.039062 0.246094 -0.128721 96 79 80
-0.035156 0.246094 -0.128872 100 80 76
-0.031250 0.246094 -0.129219 141 118 112
-0.027344 0.246094 -0.129737 118 95 87
-0.023438 0.246094 -0.130419 113 93 84
-0.019531 0.246094 -0.131228 140 123 116
-0.015625 0.246094 -0.132037 121 105 105
-0.011719 0.246094 -0.132923 158 146 148
-0.007812 0.246094 -0.133783 130 117 124
-0.003906 0.246094 -0.134680 90 70 81
0.000000 0.246094 -0.135428 106 88 100
0.003906 0.246094 -0.136118 163 151 163
0.007812 0.246094 -0.136690 125 122 133
0.011719 0.246094 -0.137077 138 141 150
0.015625 0.246094 -0.137297 101 106 112
0.019531 0.246094 -0.137440 84 85 90
0.023438 0.246094 -0.137454 78 76 79
0.027344 0.246094 -0.137292 91 82 85
0.031250 0.246094 -0.136995 96 84 84
0.035156 0.246094 -0.136491 91 75 76
0.039062 0.246094 -0.135763 154 138 139
0.042969 0.246094 -0.134935 188 177 183
0.046875 0.246094 -0.133993 134 127 135
0.050781 0.246094 -0.132798 188 186 197
0.054688 0.246094 -0.131268 182 185 197
0.058594 0.246094 -0.129606 166 173 191
0.062500 0.246094 -0.127529 173 184 204
0.066406 0.246094 -0.124588 177 188 207
0.070312 0.246094 -0.121081 172 183 203
0.074219 0.246094 -0.117140 173 184 204
0.078125 0.246094 -0.112896 179 190 210
0.082031 0.246094 -0.108080 170 178 197
0.085938 0.246094 -0.102449 153 160 178
0.089844 0.246094 -0.095891 157 160 177
0.093750 0.246094 -0.088851 143 145 160
0.097656 0.246094 -0.081104 143 141 154
0.101562 0.246094 -0.073773 193 187 197
0.105469 0.246094 -0.068437 138 128 136
0.109375 0.246094 -0.066590 155 144 150
0.113281 0.246094 -0.067976 96 83 88
0.117188 0.246094 -0.070914 79 65 65
0.121094 0.246094 -0.074164 90 75 73
0.125000 0.246094 -0.076368 84 67 66
0.128906 0.246094 -0.077224 126 102 117
0.132812 0.246094 -0.077022 103 73 96
0.136719 0.246094 -0.076715 135 101 121
0.140625 0.246094 -0.076099 171 147 157
0.144531 0.246094 -0.074514 199 184 188
0.148438 0.246094 -0.071993 212 204 206
0.152344 0.246094 -0.069318 213 211 212
0.156250 0.246094 -0.066247 210 211 211
0.160156 0.246094 -0.062419 207 208 207
0.164062 0.246094 -0.057519 204 205 205
0.167969 0.246094 -0.052101 206 204 202
0.171875 0.246094 -0.045475 210 204 201
0.175781 0.246094 -0.037928 221 211 209
0.179688 0.246094 -0.026915 235 221 222
-0.257812 0.242188 -0.004103 119 86 71
-0.253906 0.242188 -0.011224 80 57 49
-0.250000 0.242188 -0.016653 106 91 86
-0.246094 0.242188 -0.021633 151 137 134
-0.242188 0.242188 -0.025904 144 134 132
-0.238281 0.242188 -0.029698 108 104 103
-0.234375 0.242188 -0.032898 80 80 80
-0.230469 0.242188 -0.034732 162 163 167
-0.226562 0.242188 -0.035698 150 153 158
-0.222656 0.242188 -0.036580 148 151 158
-0.218750 0.242188 -0.037352 94 97 104
-0.214844 0.242188 -0.037205 122 120 131
-0.210938 0.242188 -0.036449 162 159 170
-0.207031 0.242188 -0.035735 157 149 162
-0.203125 0.242188 -0.035111 171 159 173
-0.199219 0.242188 -0.033785 171 157 170
-0.195312 0.242188 -0.033595 128 112 122
-0.191406 0.242188 -0.034299 103 87 88
-0.187500 0.242188 -0.035627 144 129 126
-0.183594 0.242188 -0.053962 99 84 81
-0.179688 0.242188 -0.072602 143 128 125
-0.175781 0.242188 -0.085282 174 156 156
-0.171875 0.242188 -0.094504 97 79 79
-0.167969 0.242188 -0.101391 85 66 68
-0.164062 0.242188 -0.106227 80 61 65
-0.160156 0.242188 -0.110299 69 50 56
-0.156250 0.242188 -0.114169 86 66 77
-0.152344 0.242188 -0.116999 127 104 120
-0.148438 0.242188 -0.119226 195 173 192
-0.144531 0.242188 -0.121276 175 154 174
-0.140625 0.242188 -0.123242 187 166 188
-0.136719 0.242188 -0.124179 183 161 187
-0.132812 0.242188 -0.124534 208 184 209
-0.128906 0.242188 -0.124982 149 123 140
-0.125000 0.242188 -0.125527 126 103 116
-0.121094 0.242188 -0.126052 176 159 172
-0.117188 0.242188 -0.126780 170 159 172
-0.113281 0.242188 -0.127476 167 159 174
-0.109375 0.242188 -0.128047 165 160 178
-0.105469 0.242188 -0.128659 155 151 170
-0.101562 0.242188 -0.129233 149 144 165
-0.097656 0.242188 -0.129843 157 149 175
-0.093750 0.242188 -0.130337 165 156 183
-0.089844 0.242188 -0.130795 161 153 180
-0.085938 0.242188 -0.131016 150 146 172
-0.082031 0.242188 -0.131221 152 154 178
-0.078125 0.242188 -0.131356 166 172 193
-0.074219 0.242188 -0.131226 168 181 199
-0.070312 0.242188 -0.130950 163 173 191
-0.066406 0.242188 -0.130510 136 136 154
-0.062500 0.242188 -0.130049 139 135 154
-0.058594 0.242188 -0.129633 166 164 184
-0.054688 0.242188 -0.129316 176 175 192
-0.050781 0.242188 -0.128977 190 189 206
-0.046875 0.242188 -0.128759 197 195 209
-0.042969 0.242188 -0.128686 120 114 124
-0.039062 0.242188 -0.128764 86 74 78
-0.035156 0.242188 -0.128968 106 87 85
-0.031250 0.242188 -0.129351 134 111 105
-0.027344 0.242188 -0.129906 132 105 94
-0.023438 0.242188 -0.130620 126 98 86
-0.019531 0.242188 -0.131450 174 147 138
-0.015625 0.242188 -0.132268 153 128 121
-0.011719 0.242188 -0.133154 130 109 104
-0.007812 0.242188 -0.134024 132 111 110
-0.003906 0.242188 -0.134931 124 95 100
0.000000 0.242188 -0.135660 103 77 86
0.003906 0.242188 -0.136307 125 108 118
0.007812 0.242188 -0.136861 124 116 127
0.011719 0.242188 -0.137228 134 137 146
0.015625 0.242188 -0.137419 85 91 99
0.019531 0.242188 -0.137524 71 76 82
0.023438 0.242188 -0.137506 84 85 89
0.027344 0.242188 -0.137328 76 70 72
0.031250 0.242188 -0.137015 122 110 110
0.035156 0.242188 -0.136496 113 95 95
0.039062 0.242188 -0.135755 176 158 158
0.042969 0.242188 -0.134930 178 166 168
0.046875 0.242188 -0.133979 120 111 116
0.050781 0.242188 -0.132781 181 180 188
0.054688 0.242188 -0.131246 178 182 194
0.058594 0.242188 -0.129570 172 179 197
0.062500 0.242188 -0.127463 175 186 206
0.066406 0.242188 -0.124495 160 171 191
0.070312 0.242188 -0.120948 166 177 197
0.074219 0.242188 -0.116943 179 190 210
0.078125 0.242188 -0.112626 178 189 208
0.082031 0.242188 -0.107729 158 166 185
0.085938 0.242188 -0.101948 110 117 135
0.089844 0.242188 -0.095048 121 126 145
0.093750 0.242188 -0.087647 166 168 183
0.097656 0.242188 -0.079538 128 127 141
0.101562 0.242188 -0.071814 150 147 158
0.105469 0.242188 -0.066863 108 100 111
0.109375 0.242188 -0.066072 130 120 129
0.113281 0.242188 -0.067981 124 112 120
0.117188 0.242188 -0.070858 69 54 57
0.121094 0.242188 -0.074113 78 58 55
0.125000 0.242188 -0.076343 86 67 63
0.128906 0.242188 -0.077191 119 96 105
0.132812 0.242188 -0.076958 94 64 84
0.136719 0.242188 -0.076629 121 83 105
0.140625 0.242188 -0.076029 164 139 148
0.144531 0.242188 -0.074462 191 177 181
0.148438 0.242188 -0.071987 206 200 201
0.152344 0.242188 -0.069374 209 208 209
0.156250 0.242188 -0.066373 206 209 209
0.160156 0.242188 -0.062647 205 207 206
0.164062 0.242188 -0.057881 203 204 202
0.167969 0.242188 -0.052663 205 204 202
0.171875 0.242188 -0.046280 211 205 202
0.175781 0.242188 -0.038991 223 213 211
0.179688 0.242188 -0.027846 236 223 223
-0.261719 0.238281 0.003964 114 99 94
-0.257812 0.238281 -0.004826 107 75 60
-0.253906 0.238281 -0.011225 119 96 88
-0.250000 0.238281 -0.016321 114 99 94
-0.246094 0.238281 -0.021150 128 114 111
-0.242188 0.238281 -0.025354 137 127 125
-0.238281 0.238281 -0.029085 122 116 116
-0.234375 0.238281 -0.032223 57 55 56
-0.230469 0.238281 -0.034018 119 118 123
-0.226562 0.238281 -0.034907 168 169 174
-0.222656 0.238281 -0.035721 170 173 180
-0.218750 0.238281 -0.036424 109 112 121
-0.214844 0.238281 -0.036206 120 118 129
-0.210938 0.238281 -0.035406 162 159 170
-0.207031 0.238281 -0.034673 157 149 162
-0.203125 0.238281 -0.034040 156 144 158
-0.199219 0.238281 -0.032613 148 134 147
-0.195312 0.238281 -0.032162 104 88 98
-0.191406 0.238281 -0.031976 101 85 86
-0.187500 0.238281 -0.032923 156 141 138
-0.183594 0.238281 -0.047380 122 107 104
-0.179688 0.238281 -0.069175 130 115 112
-0.175781 0.238281 -0.083206 159 141 141
-0.171875 0.238281 -0.093135 119 101 101
-0.167969 0.238281 -0.100565 86 67 69
-0.164062 0.238281 -0.105786 88 69 73
-0.160156 0.238281 -0.110073 93 72 79
-0.156250 0.238281 -0.114022 124 102 114
-0.152344 0.238281 -0.116869 153 129 143
-0.148438 0.238281 -0.119051 201 177 194
-0.144531 0.238281 -0.121101 191 168 187
-0.140625 0.238281 -0.123088 202 178 202
-0.136719 0.238281 -0.123981 193 170 196
-0.132812 0.238281 -0.124255 213 188 212
-0.128906 0.238281 -0.124645 173 149 167
-0.125000 0.238281 -0.125127 146 124 137
-0.121094 0.238281 -0.125598 181 163 177
-0.117188 0.238281 -0.126296 182 169 186
-0.113281 0.238281 -0.126949 181 174 189
-0.109375 0.238281 -0.127517 179 176 194
-0.105469 0.238281 -0.128140 166 164 183
-0.101562 0.238281 -0.128745 161 157 177
-0.097656 0.238281 -0.129394 154 146 172
-0.093750 0.238281 -0.129917 160 152 179
-0.089844 0.238281 -0.130410 158 150 179
-0.085938 0.238281 -0.130659 148 144 170
-0.082031 0.238281 -0.130903 148 150 174
-0.078125 0.238281 -0.131083 160 165 187
-0.074219 0.238281 -0.130974 161 174 193
-0.070312 0.238281 -0.130729 158 169 186
-0.066406 0.238281 -0.130327 142 143 161
-0.062500 0.238281 -0.129901 130 127 144
-0.058594 0.238281 -0.129519 170 168 186
-0.054688 0.238281 -0.129248 180 178 195
-0.050781 0.238281 -0.128953 196 196 213
-0.046875 0.238281 -0.128775 207 205 218
-0.042969 0.238281 -0.128735 159 153 163
-0.039062 0.238281 -0.128852 107 96 100
-0.035156 0.238281 -0.129085 99 80 76
-0.031250 0.238281 -0.129463 132 107 100
-0.027344 0.238281 -0.130029 147 119 108
-0.023438 0.238281 -0.130757 109 80 68
-0.019531 0.238281 -0.131594 156 127 119
-0.015625 0.238281 -0.132432 156 129 122
-0.011719 0.238281 -0.133336 94 70 66
-0.007812 0.238281 -0.134207 117 96 95
-0.003906 0.238281 -0.135100 127 102 108
0.000000 0.238281 -0.135853 108 86 95
0.003906 0.238281 -0.136496 85 71 81
0.007812 0.238281 -0.136995 97 90 100
0.011719 0.238281 -0.137317 112 116 125
0.015625 0.238281 -0.137480 114 121 129
0.019531 0.238281 -0.137561 130 137 143
0.023438 0.238281 -0.137516 137 141 144
0.027344 0.238281 -0.137317 91 87 88
0.031250 0.238281 -0.136985 80 70 69
0.035156 0.238281 -0.136442 99 88 86
0.039062 0.238281 -0.135673 130 118 118
0.042969 0.238281 -0.134841 134 123 127
0.046875 0.238281 -0.133884 130 125 131
0.050781 0.238281 -0.132707 117 117 125
0.054688 0.238281 -0.131194 167 171 183
0.058594 0.238281 -0.129539 169 176 194
0.062500 0.238281 -0.127416 177 184 203
0.066406 0.238281 -0.124420 158 166 185
0.070312 0.238281 -0.120821 166 174 193
0.074219 0.238281 -0.116741 183 191 209
0.078125 0.238281 -0.112339 181 189 208
0.082031 0.238281 -0.107385 161 168 187
0.085938 0.238281 -0.101477 107 114 132
0.089844 0.238281 -0.094244 115 120 139
0.093750 0.238281 -0.086548 155 157 172
0.097656 0.238281 -0.078181 103 102 116
0.101562 0.238281 -0.070067 93 90 101
0.105469 0.238281 -0.065576 83 77 87
0.109375 0.238281 -0.065903 114 104 113
0.113281 0.238281 -0.068170 124 113 121
0.117188 0.238281 -0.070909 72 57 62
0.121094 0.238281 -0.074132 78 57 57
0.125000 0.238281 -0.076387 96 77 72
0.128906 0.238281 -0.077240 96 76 79
0.132812 0.238281 -0.076981 82 56 72
0.136719 0.238281 -0.076638 101 65 86
0.140625 0.238281 -0.076051 151 125 136
0.144531 0.238281 -0.074512 182 167 172
0.148438 0.238281 -0.072079 201 195 196
0.152344 0.238281 -0.069521 204 204 204
0.156250 0.238281 -0.066593 205 207 207
0.160156 0.238281 -0.062949 203 205 205
0.164062 0.238281 -0.058259 201 203 201
0.167969 0.238281 -0.053184 204 203 201
0.171875 0.238281 -0.047028 209 205 202
0.175781 0.238281 -0.040202 222 214 211
0.179688 0.238281 -0.029106 236 224 225
-0.261719 0.234375 0.002740 93 78 75
-0.257812 0.234375 -0.004998 99 67 54
-0.253906 0.234375 -0.011257 133 110 104
-0.250000 0.234375 -0.016033 93 78 75
-0.246094 0.234375 -0.020630 107 93 92
-0.242188 0.234375 -0.024796 177 167 166
-0.238281 0.234375 -0.028419 162 156 158
-0.234375 0.234375 -0.031479 105 100 104
-0.230469 0.234375 -0.033237 124 123 129
-0.226562 0.234375 -0.034056 168 168 176
-0.222656 0.234375 -0.034811 150 150 160
-0.218750 0.234375 -0.035435 93 93 103
-0.214844 0.234375 -0.035147 100 98 109
-0.210938 0.234375 -0.034294 157 154 165
-0.207031 0.234375 -0.033525 167 159 172
-0.203125 0.234375 -0.032804 160 149 163
-0.199219 0.234375 -0.031489 149 137 149
-0.195312 0.234375 -0.030707 103 90 99
-0.191406 0.234375 -0.029903 80 66 66
-0.187500 0.234375 -0.030571 145 130 127
-0.183594 0.234375 -0.041744 126 111 108
-0.179688 0.234375 -0.065852 101 86 83
-0.175781 0.234375 -0.081015 118 100 100
-0.171875 0.234375 -0.091702 113 95 95
-0.167969 0.234375 -0.099716 74 55 57
-0.164062 0.234375 -0.105352 97 78 82
-0.160156 0.234375 -0.109856 154 133 140
-0.156250 0.234375 -0.113880 178 156 168
-0.152344 0.234375 -0.116752 184 159 172
-0.148438 0.234375 -0.118910 204 179 197
-0.144531 0.234375 -0.120949 202 177 197
-0.140625 0.234375 -0.122944 211 184 208
-0.136719 0.234375 -0.123804 195 167 194
-0.132812 0.234375 -0.124013 200 175 199
-0.128906 0.234375 -0.124334 200 176 194
-0.125000 0.234375 -0.124750 164 143 158
-0.121094 0.234375 -0.125157 174 158 173
-0.117188 0.234375 -0.125824 176 166 181
-0.113281 0.234375 -0.126449 173 169 184
-0.109375 0.234375 -0.127023 175 172 190
-0.105469 0.234375 -0.127661 171 168 188
-0.101562 0.234375 -0.128300 175 172 192
-0.097656 0.234375 -0.128991 157 151 176
-0.093750 0.234375 -0.129548 162 156 181
-0.089844 0.234375 -0.130074 162 155 184
-0.085938 0.234375 -0.130346 153 150 178
-0.082031 0.234375 -0.130633 151 152 177
-0.078125 0.234375 -0.130837 157 165 187
-0.074219 0.234375 -0.130744 158 172 191
-0.070312 0.234375 -0.130515 158 169 187
-0.066406 0.234375 -0.130143 152 153 171
-0.062500 0.234375 -0.129757 136 132 149
-0.058594 0.234375 -0.129403 182 179 196
-0.054688 0.234375 -0.129159 183 181 197
-0.050781 0.234375 -0.128890 187 188 203
-0.046875 0.234375 -0.128744 195 194 206
-0.042969 0.234375 -0.128728 189 184 191
-0.039062 0.234375 -0.128872 146 136 137
-0.035156 0.234375 -0.129134 96 77 73
-0.031250 0.234375 -0.129517 144 119 112
-0.027344 0.234375 -0.130105 163 133 123
-0.023438 0.234375 -0.130852 96 63 53
-0.019531 0.234375 -0.131692 106 75 65
-0.015625 0.234375 -0.132537 134 104 98
-0.011719 0.234375 -0.133453 96 67 64
-0.007812 0.234375 -0.134325 108 83 83
-0.003906 0.234375 -0.135195 91 67 73
0.000000 0.234375 -0.135944 102 85 93
0.003906 0.234375 -0.136591 99 87 97
0.007812 0.234375 -0.137069 151 148 159
0.011719 0.234375 -0.137364 165 169 180
0.015625 0.234375 -0.137508 174 183 192
0.019531 0.234375 -0.137572 183 189 197
0.023438 0.234375 -0.137514 170 173 178
0.027344 0.234375 -0.137295 182 180 183
0.031250 0.234375 -0.136943 111 105 105
0.035156 0.234375 -0.136382 89 79 78
0.039062 0.234375 -0.135595 93 83 82
0.042969 0.234375 -0.134733 89 83 85
0.046875 0.234375 -0.133768 121 119 124
0.050781 0.234375 -0.132577 81 84 91
0.054688 0.234375 -0.131055 161 168 178
0.058594 0.234375 -0.129392 152 159 175
0.062500 0.234375 -0.127245 165 172 190
0.066406 0.234375 -0.124226 175 182 201
0.070312 0.234375 -0.120591 166 174 193
0.074219 0.234375 -0.116467 170 177 196
0.078125 0.234375 -0.112021 182 189 208
0.082031 0.234375 -0.107042 169 176 195
0.085938 0.234375 -0.101030 154 161 179
0.089844 0.234375 -0.093544 156 159 176
0.093750 0.234375 -0.085528 161 163 178
0.097656 0.234375 -0.076869 130 129 143
0.101562 0.234375 -0.068605 74 72 83
0.105469 0.234375 -0.064763 97 91 101
0.109375 0.234375 -0.066013 154 147 155
0.113281 0.234375 -0.068503 131 121 130
0.117188 0.234375 -0.071079 87 74 78
0.121094 0.234375 -0.074211 92 74 72
0.125000 0.234375 -0.076482 111 92 86
0.128906 0.234375 -0.077327 78 59 58
0.132812 0.234375 -0.077036 78 57 67
0.136719 0.234375 -0.076678 89 59 77
0.140625 0.234375 -0.076113 139 114 124
0.144531 0.234375 -0.074609 177 164 167
0.148438 0.234375 -0.072233 196 190 191
0.152344 0.234375 -0.069750 200 200 200
0.156250 0.234375 -0.066906 204 206 206
0.160156 0.234375 -0.063354 205 207 206
0.164062 0.234375 -0.058776 203 206 203
0.167969 0.234375 -0.053856 207 206 203
0.171875 0.234375 -0.047950 212 209 206
0.175781 0.234375 -0.041510 227 220 217
0.179688 0.234375 -0.031426 240 231 231
-0.261719 0.230469 0.001669 82 62 53
-0.257812 0.230469 -0.005225 84 56 45
-0.253906 0.230469 -0.011181 117 93 91
-0.250000 0.230469 -0.015783 114 95 97
-0.246094 0.230469 -0.020125 91 74 75
-0.242188 0.230469 -0.024217 144 132 134
-0.238281 0.230469 -0.027728 139 130 135
-0.234375 0.230469 -0.030700 132 125 132
-0.230469 0.230469 -0.032399 110 107 114
-0.226562 0.230469 -0.033145 146 145 153
-0.222656 0.230469 -0.033838 146 146 156
-0.218750 0.230469 -0.034374 94 94 104
-0.214844 0.230469 -0.034025 89 87 98
-0.210938 0.230469 -0.033152 150 147 158
-0.207031 0.230469 -0.032318 169 161 172
-0.203125 0.230469 -0.031490 159 149 160
-0.199219 0.230469 -0.030353 151 139 151
-0.195312 0.230469 -0.029300 104 91 100
-0.191406 0.230469 -0.028034 84 68 71
-0.187500 0.230469 -0.028367 130 116 115
-0.183594 0.230469 -0.037235 113 98 95
-0.179688 0.230469 -0.062328 84 69 66
-0.175781 0.230469 -0.078786 93 75 75
-0.171875 0.230469 -0.090277 112 94 94
-0.167969 0.230469 -0.098798 78 58 60
-0.164062 0.230469 -0.104877 119 98 103
-0.160156 0.230469 -0.109619 201 178 186
-0.156250 0.230469 -0.113717 205 182 191
-0.152344 0.230469 -0.116636 193 166 180
-0.148438 0.230469 -0.118804 194 167 184
-0.144531 0.230469 -0.120823 194 166 187
-0.140625 0.230469 -0.122814 204 175 200
-0.136719 0.230469 -0.123656 191 161 188
-0.132812 0.230469 -0.123813 188 160 185
-0.128906 0.230469 -0.124056 200 178 195
-0.125000 0.230469 -0.124397 164 146 160
-0.121094 0.230469 -0.124763 157 143 158
-0.117188 0.230469 -0.125412 164 156 171
-0.113281 0.230469 -0.126006 158 154 169
-0.109375 0.230469 -0.126581 156 155 173
-0.105469 0.230469 -0.127231 160 158 178
-0.101562 0.230469 -0.127895 177 175 196
-0.097656 0.230469 -0.128616 167 161 186
-0.093750 0.230469 -0.129207 169 163 188
-0.089844 0.230469 -0.129764 170 164 192
-0.085938 0.230469 -0.130064 160 157 185
-0.082031 0.230469 -0.130378 153 154 179
-0.078125 0.230469 -0.130568 154 162 184
-0.074219 0.230469 -0.130494 153 168 189
-0.070312 0.230469 -0.130276 156 167 185
-0.066406 0.230469 -0.129923 148 147 163
-0.062500 0.230469 -0.129575 124 120 135
-0.058594 0.230469 -0.129254 166 163 180
-0.054688 0.230469 -0.129038 172 171 187
-0.050781 0.230469 -0.128815 173 175 190
-0.046875 0.230469 -0.128717 183 182 194
-0.042969 0.230469 -0.128745 198 193 200
-0.039062 0.230469 -0.128944 165 153 155
-0.035156 0.230469 -0.129235 109 88 85
-0.031250 0.230469 -0.129610 148 121 112
-0.027344 0.230469 -0.130215 157 125 114
-0.023438 0.230469 -0.130990 117 82 73
-0.019531 0.230469 -0.131822 94 59 51
-0.015625 0.230469 -0.132639 118 84 79
-0.011719 0.230469 -0.133537 117 85 83
-0.007812 0.230469 -0.134400 99 72 73
-0.003906 0.230469 -0.135254 82 60 65
0.000000 0.230469 -0.135972 86 71 78
0.003906 0.230469 -0.136593 104 94 105
0.007812 0.230469 -0.137059 192 189 200
0.011719 0.230469 -0.137348 180 184 196
0.015625 0.230469 -0.137486 153 158 170
0.019531 0.230469 -0.137542 148 154 164
0.023438 0.230469 -0.137478 152 157 163
0.027344 0.230469 -0.137242 207 207 209
0.031250 0.230469 -0.136877 188 184 183
0.035156 0.230469 -0.136303 73 68 65
0.039062 0.230469 -0.135487 86 81 78
0.042969 0.230469 -0.134620 82 78 79
0.046875 0.230469 -0.133665 105 105 107
0.050781 0.230469 -0.132465 129 132 137
0.054688 0.230469 -0.130930 161 165 176
0.058594 0.230469 -0.129241 151 157 171
0.062500 0.230469 -0.127054 152 158 174
0.066406 0.230469 -0.124003 190 195 214
0.070312 0.230469 -0.120330 165 172 190
0.074219 0.230469 -0.116177 159 164 183
0.078125 0.230469 -0.111704 179 186 204
0.082031 0.230469 -0.106693 160 167 185
0.085938 0.230469 -0.100609 179 186 204
0.089844 0.230469 -0.092933 167 170 187
0.093750 0.230469 -0.084676 181 183 198
0.097656 0.230469 -0.075845 163 162 176
0.101562 0.230469 -0.067582 102 100 113
0.105469 0.230469 -0.064441 122 119 130
0.109375 0.230469 -0.066327 166 161 168
0.113281 0.230469 -0.068851 134 127 135
0.117188 0.230469 -0.071284 77 66 72
0.121094 0.230469 -0.074354 97 79 79
0.125000 0.230469 -0.076617 111 92 88
0.128906 0.230469 -0.077457 76 58 57
0.132812 0.230469 -0.077174 87 69 75
0.136719 0.230469 -0.076822 95 68 84
0.140625 0.230469 -0.076279 137 112 124
0.144531 0.230469 -0.074815 177 165 168
0.148438 0.230469 -0.072494 193 187 187
0.152344 0.230469 -0.070078 199 199 198
0.156250 0.230469 -0.067323 205 207 207
0.160156 0.230469 -0.063858 206 209 208
0.164062 0.230469 -0.059392 205 207 205
0.167969 0.230469 -0.054627 209 208 204
0.171875 0.230469 -0.049007 215 213 209
0.175781 0.230469 -0.042761 231 225 223
0.179688 0.230469 -0.033650 244 237 236
-0.261719 0.226562 0.000710 138 121 114
-0.257812 0.226562 -0.005722 81 53 44
-0.253906 0.226562 -0.011160 115 94 93
-0.250000 0.226562 -0.015440 152 133 137
-0.246094 0.226562 -0.019611 83 66 69
-0.242188 0.226562 -0.023607 95 82 86
-0.238281 0.226562 -0.026999 120 109 117
-0.234375 0.226562 -0.029874 117 110 118
-0.230469 0.226562 -0.031498 73 67 77
-0.226562 0.226562 -0.032167 155 152 161
-0.222656 0.226562 -0.032792 161 159 170
-0.218750 0.226562 -0.033241 112 110 121
-0.214844 0.226562 -0.032836 87 84 95
-0.210938 0.226562 -0.031936 137 131 141
-0.207031 0.226562 -0.031053 155 147 158
-0.203125 0.226562 -0.030135 143 135 146
-0.199219 0.226562 -0.029028 141 131 142
-0.195312 0.226562 -0.027870 93 81 89
-0.191406 0.226562 -0.026274 93 80 82
-0.187500 0.226562 -0.026321 126 112 111
-0.183594 0.226562 -0.033898 120 105 102
-0.179688 0.226562 -0.058873 104 89 86
-0.175781 0.226562 -0.076620 82 64 64
-0.171875 0.226562 -0.088852 97 79 79
-0.167969 0.226562 -0.097867 92 72 74
-0.164062 0.226562 -0.104392 168 146 149
-0.160156 0.226562 -0.109389 212 190 195
-0.156250 0.226562 -0.113576 202 176 185
-0.152344 0.226562 -0.116541 189 162 175
-0.148438 0.226562 -0.118725 184 154 171
-0.144531 0.226562 -0.120735 184 152 174
-0.140625 0.226562 -0.122714 199 168 191
-0.136719 0.226562 -0.123533 202 169 195
-0.132812 0.226562 -0.123649 193 163 187
-0.128906 0.226562 -0.123827 190 168 185
-0.125000 0.226562 -0.124096 161 143 157
-0.121094 0.226562 -0.124407 143 131 145
-0.117188 0.226562 -0.125036 165 157 172
-0.113281 0.226562 -0.125604 160 158 172
-0.109375 0.226562 -0.126180 154 153 169
-0.105469 0.226562 -0.126839 153 154 174
-0.101562 0.226562 -0.127521 179 177 197
-0.097656 0.226562 -0.128260 176 172 194
-0.093750 0.226562 -0.128868 177 171 197
-0.089844 0.226562 -0.129449 175 171 196
-0.085938 0.226562 -0.129776 161 158 187
-0.082031 0.226562 -0.130090 146 147 172
-0.078125 0.226562 -0.130282 140 148 171
-0.074219 0.226562 -0.130228 141 153 175
-0.070312 0.226562 -0.130013 145 156 174
-0.066406 0.226562 -0.129702 132 131 147
-0.062500 0.226562 -0.129392 103 99 113
-0.058594 0.226562 -0.129113 129 127 141
-0.054688 0.226562 -0.128941 161 160 176
-0.050781 0.226562 -0.128774 175 174 188
-0.046875 0.226562 -0.128738 190 187 198
-0.042969 0.226562 -0.128809 200 192 200
-0.039062 0.226562 -0.129038 166 154 156
-0.035156 0.226562 -0.129338 111 90 85
-0.031250 0.226562 -0.129704 120 91 83
-0.027344 0.226562 -0.130302 117 83 73
-0.023438 0.226562 -0.131063 136 99 90
-0.019531 0.226562 -0.131875 112 74 67
-0.015625 0.226562 -0.132664 110 71 69
-0.011719 0.226562 -0.133532 120 85 84
-0.007812 0.226562 -0.134375 96 66 68
-0.003906 0.226562 -0.135225 108 87 92
0.000000 0.226562 -0.135940 111 98 105
0.003906 0.226562 -0.136536 134 124 135
0.007812 0.226562 -0.136968 183 177 191
0.011719 0.226562 -0.137219 151 150 164
0.015625 0.226562 -0.137343 135 136 151
0.019531 0.226562 -0.137395 132 134 146
0.023438 0.226562 -0.137326 134 134 144
0.027344 0.226562 -0.137083 186 183 188
0.031250 0.226562 -0.136702 199 195 196
0.035156 0.226562 -0.136120 98 92 92
0.039062 0.226562 -0.135293 91 86 83
0.042969 0.226562 -0.134418 114 110 109
0.046875 0.226562 -0.133459 164 162 165
0.050781 0.226562 -0.132240 147 148 153
0.054688 0.226562 -0.130679 119 122 131
0.058594 0.226562 -0.128963 175 177 190
0.062500 0.226562 -0.126742 160 162 177
0.066406 0.226562 -0.123662 186 189 204
0.070312 0.226562 -0.119958 168 171 188
0.074219 0.226562 -0.115773 162 165 182
0.078125 0.226562 -0.111288 170 175 194
0.082031 0.226562 -0.106261 145 150 169
0.085938 0.226562 -0.100128 166 171 190
0.089844 0.226562 -0.092300 159 162 179
0.093750 0.226562 -0.083825 175 178 193
0.097656 0.226562 -0.074971 150 152 167
0.101562 0.226562 -0.067154 161 161 173
0.105469 0.226562 -0.064730 152 150 161
0.109375 0.226562 -0.066856 115 112 121
0.113281 0.226562 -0.069298 120 114 124
0.117188 0.226562 -0.071635 83 72 78
0.121094 0.226562 -0.074613 84 66 66
0.125000 0.226562 -0.076832 97 78 74
0.128906 0.226562 -0.077681 86 68 66
0.132812 0.226562 -0.077421 94 80 81
0.136719 0.226562 -0.077077 107 87 96
0.140625 0.226562 -0.076564 136 117 126
0.144531 0.226562 -0.075150 170 159 162
0.148438 0.226562 -0.072886 185 180 180
0.152344 0.226562 -0.070545 197 196 195
0.156250 0.226562 -0.067876 203 205 204
0.160156 0.226562 -0.064475 204 207 204
0.164062 0.226562 -0.060061 204 205 203
0.167969 0.226562 -0.055416 207 207 203
0.171875 0.226562 -0.050123 214 213 209
0.175781 0.226562 -0.043940 232 228 225
0.179688 0.226562 -0.035544 245 240 240
-0.261719 0.222656 0.000187 187 170 166
-0.257812 0.222656 -0.006350 84 60 54
-0.253906 0.222656 -0.011030 86 66 67
-0.250000 0.222656 -0.015056 141 122 128
-0.246094 0.222656 -0.019100 109 91 97
-0.242188 0.222656 -0.022974 112 98 105
-0.238281 0.222656 -0.026244 169 158 166
-0.234375 0.222656 -0.029011 153 143 152
-0.230469 0.222656 -0.030548 101 93 104
-0.226562 0.222656 -0.031136 163 160 169
-0.222656 0.222656 -0.031690 147 144 155
-0.218750 0.222656 -0.032057 110 107 118
-0.214844 0.222656 -0.031588 80 76 85
-0.210938 0.222656 -0.030641 127 121 131
-0.207031 0.222656 -0.029730 152 144 155
-0.203125 0.222656 -0.028748 147 140 148
-0.199219 0.222656 -0.027632 152 142 151
-0.195312 0.222656 -0.026434 103 91 97
-0.191406 0.222656 -0.024591 103 90 90
-0.187500 0.222656 -0.024484 116 101 100
-0.183594 0.222656 -0.031288 115 100 99
-0.179688 0.222656 -0.055478 126 110 110
-0.175781 0.222656 -0.074560 78 59 59
-0.171875 0.222656 -0.087472 74 56 56
-0.167969 0.222656 -0.096932 98 78 79
-0.164062 0.222656 -0.103888 197 175 178
-0.160156 0.222656 -0.109147 210 185 191
-0.156250 0.222656 -0.113436 192 165 173
-0.152344 0.222656 -0.116461 192 162 175
-0.148438 0.222656 -0.118673 185 154 169
-0.144531 0.222656 -0.120674 175 142 163
-0.140625 0.222656 -0.122617 190 157 181
-0.136719 0.222656 -0.123401 209 174 199
-0.132812 0.222656 -0.123475 200 168 192
-0.128906 0.222656 -0.123600 177 152 171
-0.125000 0.222656 -0.123805 148 130 144
-0.121094 0.222656 -0.124076 121 109 123
-0.117188 0.222656 -0.124694 158 150 165
-0.113281 0.222656 -0.125243 161 159 173
-0.109375 0.222656 -0.125814 153 152 168
-0.105469 0.222656 -0.126471 151 150 168
-0.101562 0.222656 -0.127172 177 175 195
-0.097656 0.222656 -0.127938 182 177 198
-0.093750 0.222656 -0.128573 184 178 202
-0.089844 0.222656 -0.129174 177 171 198
-0.085938 0.222656 -0.129488 156 152 179
-0.082031 0.222656 -0.129804 134 134 160
-0.078125 0.222656 -0.130004 123 129 153
-0.074219 0.222656 -0.129959 123 135 159
-0.070312 0.222656 -0.129740 131 139 160
-0.066406 0.222656 -0.129460 121 119 133
-0.062500 0.222656 -0.129182 95 89 103
-0.058594 0.222656 -0.128945 105 101 116
-0.054688 0.222656 -0.128813 158 157 171
-0.050781 0.222656 -0.128696 176 175 189
-0.046875 0.222656 -0.128727 194 192 203
-0.042969 0.222656 -0.128827 198 191 199
-0.039062 0.222656 -0.129063 178 166 168
-0.035156 0.222656 -0.129396 99 78 75
-0.031250 0.222656 -0.129797 102 73 67
-0.027344 0.222656 -0.130391 90 56 47
-0.023438 0.222656 -0.131127 124 86 77
-0.019531 0.222656 -0.131925 115 75 68
-0.015625 0.222656 -0.132713 112 71 69
-0.011719 0.222656 -0.133563 120 81 84
-0.007812 0.222656 -0.134369 128 96 101
-0.003906 0.222656 -0.135196 160 137 143
0.000000 0.222656 -0.135906 172 155 163
0.003906 0.222656 -0.136450 212 197 210
0.007812 0.222656 -0.136825 223 212 228
0.011719 0.222656 -0.137043 192 183 202
0.015625 0.222656 -0.137118 195 188 205
0.019531 0.222656 -0.137148 179 172 188
0.023438 0.222656 -0.137089 158 152 163
0.027344 0.222656 -0.136850 216 206 214
0.031250 0.222656 -0.136462 202 193 196
0.035156 0.222656 -0.135894 139 129 130
0.039062 0.222656 -0.135087 98 88 87
0.042969 0.222656 -0.134205 138 129 130
0.046875 0.222656 -0.133233 207 201 203
0.050781 0.222656 -0.131990 137 132 138
0.054688 0.222656 -0.130386 112 109 118
0.058594 0.222656 -0.128635 190 188 201
0.062500 0.222656 -0.126385 173 171 185
0.066406 0.222656 -0.123283 158 157 171
0.070312 0.222656 -0.119546 161 163 178
0.074219 0.222656 -0.115342 158 160 175
0.078125 0.222656 -0.110876 143 146 163
0.082031 0.222656 -0.105843 145 148 165
0.085938 0.222656 -0.099695 152 155 172
0.089844 0.222656 -0.091798 164 167 184
0.093750 0.222656 -0.083128 170 173 188
0.097656 0.222656 -0.074344 154 156 171
0.101562 0.222656 -0.067213 188 188 200
0.105469 0.222656 -0.065323 158 158 168
0.109375 0.222656 -0.067424 120 119 127
0.113281 0.222656 -0.069726 137 134 143
0.117188 0.222656 -0.071992 120 110 118
0.121094 0.222656 -0.074899 74 58 59
0.125000 0.222656 -0.077063 87 67 66
0.128906 0.222656 -0.077923 97 79 77
0.132812 0.222656 -0.077690 91 78 76
0.136719 0.222656 -0.077364 121 107 111
0.140625 0.222656 -0.076906 136 123 129
0.144531 0.222656 -0.075552 157 146 149
0.148438 0.222656 -0.073337 178 174 172
0.152344 0.222656 -0.071064 193 190 189
0.156250 0.222656 -0.068468 201 202 199
0.160156 0.222656 -0.065123 203 204 202
0.164062 0.222656 -0.060804 202 203 201
0.167969 0.222656 -0.056291 206 205 204
0.171875 0.222656 -0.051303 215 213 212
0.175781 0.222656 -0.045113 233 230 229
0.179688 0.222656 -0.037488 246 241 240
-0.261719 0.218750 -0.000475 82 62 53
-0.257812 0.218750 -0.006718 85 65 59
-0.253906 0.218750 -0.010796 85 65 67
-0.250000 0.218750 -0.014662 131 113 119
-0.246094 0.218750 -0.018578 133 117 124
-0.242188 0.218750 -0.022340 92 78 85
-0.238281 0.218750 -0.025496 145 133 143
-0.234375 0.218750 -0.028160 164 154 163
-0.230469 0.218750 -0.029606 141 133 144
-0.226562 0.218750 -0.030099 122 116 126
-0.222656 0.218750 -0.030559 158 152 162
-0.218750 0.218750 -0.030830 129 123 133
-0.214844 0.218750 -0.030295 96 89 99
-0.210938 0.218750 -0.029307 139 131 139
-0.207031 0.218750 -0.028373 160 152 160
-0.203125 0.218750 -0.027344 152 141 149
-0.199219 0.218750 -0.026184 149 139 144
-0.195312 0.218750 -0.024978 92 80 84
-0.191406 0.218750 -0.022935 141 128 128
-0.187500 0.218750 -0.022663 118 103 102
-0.183594 0.218750 -0.028992 105 90 89
-0.179688 0.218750 -0.052296 145 131 130
-0.175781 0.218750 -0.072523 103 84 84
-0.171875 0.218750 -0.086064 95 75 76
-0.167969 0.218750 -0.095978 119 97 99
-0.164062 0.218750 -0.103355 210 185 188
-0.160156 0.218750 -0.108862 215 187 193
-0.156250 0.218750 -0.113270 195 165 174
-0.152344 0.218750 -0.116367 200 168 180
-0.148438 0.218750 -0.118601 191 157 173
-0.144531 0.218750 -0.120588 167 132 154
-0.140625 0.218750 -0.122494 178 140 165
-0.136719 0.218750 -0.123253 207 167 193
-0.132812 0.218750 -0.123286 197 162 186
-0.128906 0.218750 -0.123351 184 157 176
-0.125000 0.218750 -0.123494 149 131 145
-0.121094 0.218750 -0.123723 114 100 115
-0.117188 0.218750 -0.124322 158 150 163
-0.113281 0.218750 -0.124845 169 165 179
-0.109375 0.218750 -0.125400 165 163 177
-0.105469 0.218750 -0.126042 163 160 177
-0.101562 0.218750 -0.126757 191 188 206
-0.097656 0.218750 -0.127554 188 182 203
-0.093750 0.218750 -0.128211 190 182 205
-0.089844 0.218750 -0.128817 179 170 197
-0.085938 0.218750 -0.129145 152 146 172
-0.082031 0.218750 -0.129484 127 124 151
-0.078125 0.218750 -0.129704 114 116 141
-0.074219 0.218750 -0.129674 114 121 147
-0.070312 0.218750 -0.129480 121 127 149
-0.066406 0.218750 -0.129226 115 111 126
-0.062500 0.218750 -0.128981 96 88 103
-0.058594 0.218750 -0.128787 96 92 107
-0.054688 0.218750 -0.128692 158 156 170
-0.050781 0.218750 -0.128624 167 166 180
-0.046875 0.218750 -0.128705 187 184 197
-0.042969 0.218750 -0.128846 195 187 195
-0.039062 0.218750 -0.129130 194 182 184
-0.035156 0.218750 -0.129494 94 73 70
-0.031250 0.218750 -0.129911 115 88 81
-0.027344 0.218750 -0.130507 97 63 54
-0.023438 0.218750 -0.131219 103 64 57
-0.019531 0.218750 -0.131986 105 64 60
-0.015625 0.218750 -0.132753 123 83 83
-0.011719 0.218750 -0.133593 133 94 97
-0.007812 0.218750 -0.134369 180 145 151
-0.003906 0.218750 -0.135149 238 213 219
0.000000 0.218750 -0.135821 203 183 192
0.003906 0.218750 -0.136313 236 215 230
0.007812 0.218750 -0.136631 244 225 244
0.011719 0.218750 -0.136815 221 203 225
0.015625 0.218750 -0.136860 224 205 227
0.019531 0.218750 -0.136870 216 198 220
0.023438 0.218750 -0.136808 223 206 221
0.027344 0.218750 -0.136578 207 191 202
0.031250 0.218750 -0.136186 198 183 188
0.035156 0.218750 -0.135604 102 88 88
0.039062 0.218750 -0.134783 80 66 66
0.042969 0.218750 -0.133888 118 106 106
0.046875 0.218750 -0.132895 166 154 156
0.050781 0.218750 -0.131627 175 164 170
0.054688 0.218750 -0.129989 189 179 187
0.058594 0.218750 -0.128193 184 176 187
0.062500 0.218750 -0.125919 173 169 183
0.066406 0.218750 -0.122809 124 122 135
0.070312 0.218750 -0.119053 149 147 161
0.074219 0.218750 -0.114837 144 143 157
0.078125 0.218750 -0.110384 109 111 126
0.082031 0.218750 -0.105342 150 151 169
0.085938 0.218750 -0.099165 151 154 171
0.089844 0.218750 -0.091249 146 149 166
0.093750 0.218750 -0.082570 165 168 185
0.097656 0.218750 -0.074093 174 176 191
0.101562 0.218750 -0.067649 139 141 154
0.105469 0.218750 -0.066096 109 111 123
0.109375 0.218750 -0.068042 170 170 180
0.113281 0.218750 -0.070151 167 165 176
0.117188 0.218750 -0.072360 125 118 125
0.121094 0.218750 -0.075184 79 63 64
0.125000 0.218750 -0.077258 88 70 68
0.128906 0.218750 -0.078130 103 85 83
0.132812 0.218750 -0.077954 80 67 64
0.136719 0.218750 -0.077669 132 120 120
0.140625 0.218750 -0.077268 141 133 136
0.144531 0.218750 -0.075985 140 131 133
0.148438 0.218750 -0.073830 172 168 166
0.152344 0.218750 -0.071626 186 184 181
0.156250 0.218750 -0.069095 195 195 193
0.160156 0.218750 -0.065775 197 197 196
0.164062 0.218750 -0.061466 196 197 194
0.167969 0.218750 -0.057025 199 199 198
0.171875 0.218750 -0.052137 208 207 206
0.175781 0.218750 -0.046358 227 223 222
0.179688 0.218750 -0.039863 239 233 233
0.183594 0.218750 -0.025983 208 207 206
-0.261719 0.214844 -0.001416 138 121 114
-0.257812 0.214844 -0.006900 68 49 45
-0.253906 0.214844 -0.010644 72 55 56
-0.250000 0.214844 -0.014263 69 53 58
-0.246094 0.214844 -0.018058 117 101 108
-0.242188 0.214844 -0.021711 95 81 88
-0.238281 0.214844 -0.024762 88 75 85
-0.234375 0.214844 -0.027318 149 139 148
-0.230469 0.214844 -0.028672 139 131 142
-0.226562 0.214844 -0.029075 100 91 102
-0.222656 0.214844 -0.029444 161 153 164
-0.218750 0.214844 -0.029624 154 147 155
-0.214844 0.214844 -0.029037 114 106 114
-0.210938 0.214844 -0.028028 130 119 127
-0.207031 0.214844 -0.027067 160 150 155
-0.203125 0.214844 -0.025996 164 152 156
-0.199219 0.214844 -0.024775 98 87 88
-0.195312 0.214844 -0.023527 76 63 63
-0.191406 0.214844 -0.021364 93 80 80
-0.187500 0.214844 -0.021027 139 127 125
-0.183594 0.214844 -0.027040 79 64 63
-0.179688 0.214844 -0.049405 97 82 81
-0.175781 0.214844 -0.070527 152 134 134
-0.171875 0.214844 -0.084590 78 57 58
-0.167969 0.214844 -0.095001 125 103 105
-0.164062 0.214844 -0.102791 195 169 172
-0.160156 0.214844 -0.108544 203 175 181
-0.156250 0.214844 -0.113076 212 181 190
-0.152344 0.214844 -0.116240 217 182 196
-0.148438 0.214844 -0.118476 226 189 205
-0.144531 0.214844 -0.120445 186 147 168
-0.140625 0.214844 -0.122304 203 163 187
-0.136719 0.214844 -0.123033 219 176 203
-0.132812 0.214844 -0.123025 202 164 189
-0.128906 0.214844 -0.123053 195 166 186
-0.125000 0.214844 -0.123155 187 166 181
-0.121094 0.214844 -0.123338 151 135 148
-0.117188 0.214844 -0.123912 140 129 143
-0.113281 0.214844 -0.124417 172 166 178
-0.109375 0.214844 -0.124965 172 168 182
-0.105469 0.214844 -0.125612 162 158 171
-0.101562 0.214844 -0.126351 188 181 196
-0.097656 0.214844 -0.127156 186 177 195
-0.093750 0.214844 -0.127823 195 184 205
-0.089844 0.214844 -0.128444 180 168 192
-0.085938 0.214844 -0.128799 140 130 155
-0.082031 0.214844 -0.129175 131 125 151
-0.078125 0.214844 -0.129420 107 105 129
-0.074219 0.214844 -0.129410 126 130 155
-0.070312 0.214844 -0.129245 128 130 151
-0.066406 0.214844 -0.129024 148 139 156
-0.062500 0.214844 -0.128816 130 119 135
-0.058594 0.214844 -0.128652 144 137 153
-0.054688 0.214844 -0.128583 175 172 189
-0.050781 0.214844 -0.128547 178 177 191
-0.046875 0.214844 -0.128640 177 175 188
-0.042969 0.214844 -0.128836 186 181 188
-0.039062 0.214844 -0.129194 188 177 181
-0.035156 0.214844 -0.129570 144 124 123
-0.031250 0.214844 -0.129987 97 69 65
-0.027344 0.214844 -0.130585 113 78 72
-0.023438 0.214844 -0.131277 100 63 57
-0.019531 0.214844 -0.132021 111 71 71
-0.015625 0.214844 -0.132762 212 172 173
-0.011719 0.214844 -0.133580 209 170 175
-0.007812 0.214844 -0.134340 222 187 194
-0.003906 0.214844 -0.135079 239 209 217
0.000000 0.214844 -0.135708 207 181 190
0.003906 0.214844 -0.136162 220 193 208
0.007812 0.214844 -0.136429 207 180 199
0.011719 0.214844 -0.136579 218 187 213
0.015625 0.214844 -0.136607 225 195 221
0.019531 0.214844 -0.136601 236 208 233
0.023438 0.214844 -0.136535 236 209 227
0.027344 0.214844 -0.136298 212 188 202
0.031250 0.214844 -0.135897 111 90 97
0.035156 0.214844 -0.135288 94 74 76
0.039062 0.214844 -0.134452 80 60 61
0.042969 0.214844 -0.133551 78 60 60
0.046875 0.214844 -0.132530 119 101 101
0.050781 0.214844 -0.131222 185 164 169
0.054688 0.214844 -0.129550 186 169 177
0.058594 0.214844 -0.127714 169 157 167
0.062500 0.214844 -0.125439 200 192 203
0.066406 0.214844 -0.122318 124 118 130
0.070312 0.214844 -0.118536 138 134 148
0.074219 0.214844 -0.114320 163 161 175
0.078125 0.214844 -0.109868 77 76 90
0.082031 0.214844 -0.104812 137 139 154
0.085938 0.214844 -0.098625 175 177 192
0.089844 0.214844 -0.090719 162 165 182
0.093750 0.214844 -0.082025 163 166 183
0.097656 0.214844 -0.073856 171 174 189
0.101562 0.214844 -0.068118 156 160 172
0.105469 0.214844 -0.066714 174 178 190
0.109375 0.214844 -0.068379 134 136 148
0.113281 0.214844 -0.070414 138 140 152
0.117188 0.214844 -0.072622 91 86 93
0.121094 0.214844 -0.075420 92 77 80
0.125000 0.214844 -0.077455 85 67 67
0.128906 0.214844 -0.078333 72 54 54
0.132812 0.214844 -0.078207 81 67 66
0.136719 0.214844 -0.077963 128 117 116
0.140625 0.214844 -0.077607 156 147 148
0.144531 0.214844 -0.076403 135 128 128
0.148438 0.214844 -0.074345 162 160 158
0.152344 0.214844 -0.072237 178 176 173
0.156250 0.214844 -0.069757 188 188 184
0.160156 0.214844 -0.066454 190 191 187
0.164062 0.214844 -0.062143 190 190 187
0.167969 0.214844 -0.057765 192 192 190
0.171875 0.214844 -0.052897 199 198 197
0.175781 0.214844 -0.047725 217 215 215
0.179688 0.214844 -0.041122 232 226 228
0.183594 0.214844 -0.032516 199 198 197
-0.261719 0.210938 -0.002078 187 170 166
-0.257812 0.210938 -0.006998 158 142 140
-0.253906 0.210938 -0.010445 79 66 68
-0.250000 0.210938 -0.013840 77 64 68
-0.246094 0.210938 -0.017521 118 106 112
-0.242188 0.210938 -0.021073 96 84 90
-0.238281 0.210938 -0.024045 78 67 75
-0.234375 0.210938 -0.026511 114 103 112
-0.230469 0.210938 -0.027779 110 102 110
-0.226562 0.210938 -0.028105 104 96 104
-0.222656 0.210938 -0.028384 143 132 141
-0.218750 0.210938 -0.028482 176 165 173
-0.214844 0.210938 -0.027865 118 106 112
-0.210938 0.210938 -0.026827 91 79 83
-0.207031 0.210938 -0.025824 122 109 113
-0.203125 0.210938 -0.024721 152 139 139
-0.199219 0.210938 -0.023464 129 114 114
-0.195312 0.210938 -0.022193 67 55 53
-0.191406 0.210938 -0.019931 115 103 101
-0.187500 0.210938 -0.019525 158 146 144
-0.183594 0.210938 -0.025237 105 90 89
-0.179688 0.210938 -0.046713 90 75 74
-0.175781 0.210938 -0.068637 147 131 131
-0.171875 0.210938 -0.083118 109 89 90
-0.167969 0.210938 -0.093998 103 81 83
-0.164062 0.210938 -0.102166 177 151 154
-0.160156 0.210938 -0.108157 204 175 179
-0.156250 0.210938 -0.112822 203 171 179
-0.152344 0.210938 -0.116070 201 165 176
-0.148438 0.210938 -0.118300 211 173 188
-0.144531 0.210938 -0.120249 207 165 185
-0.140625 0.210938 -0.122067 218 174 196
-0.136719 0.210938 -0.122774 229 184 209
-0.132812 0.210938 -0.122720 232 190 214
-0.128906 0.210938 -0.122703 187 156 174
-0.125000 0.210938 -0.122761 193 169 183
-0.121094 0.210938 -0.122904 195 177 191
-0.117188 0.210938 -0.123441 153 139 152
-0.113281 0.210938 -0.123911 161 153 164
-0.109375 0.210938 -0.124458 186 180 190
-0.105469 0.210938 -0.125099 166 159 171
-0.101562 0.210938 -0.125831 187 177 190
-0.097656 0.210938 -0.126637 201 187 205
-0.093750 0.210938 -0.127321 180 165 185
-0.089844 0.210938 -0.127961 153 138 161
-0.085938 0.210938 -0.128351 148 134 159
-0.082031 0.210938 -0.128765 119 106 132
-0.078125 0.210938 -0.129040 108 102 128
-0.074219 0.210938 -0.129066 147 145 169
-0.070312 0.210938 -0.128928 176 172 195
-0.066406 0.210938 -0.128733 209 198 215
-0.062500 0.210938 -0.128551 203 190 207
-0.058594 0.210938 -0.128414 197 188 207
-0.054688 0.210938 -0.128386 193 189 206
-0.050781 0.210938 -0.128390 191 188 205
-0.046875 0.210938 -0.128508 195 193 206
-0.042969 0.210938 -0.128755 191 185 195
-0.039062 0.210938 -0.129176 176 165 171
-0.035156 0.210938 -0.129590 164 146 146
-0.031250 0.210938 -0.130038 99 74 70
-0.027344 0.210938 -0.130656 103 69 67
-0.023438 0.210938 -0.131360 94 59 55
-0.019531 0.210938 -0.132120 152 113 114
-0.015625 0.210938 -0.132862 226 188 193
-0.011719 0.210938 -0.133654 217 178 186
-0.007812 0.210938 -0.134382 228 193 203
-0.003906 0.210938 -0.135081 229 198 206
0.000000 0.210938 -0.135675 204 174 184
0.003906 0.210938 -0.136084 175 143 158
0.007812 0.210938 -0.136296 143 108 130
0.011719 0.210938 -0.136409 198 159 186
0.015625 0.210938 -0.136409 231 190 220
0.019531 0.210938 -0.136378 236 197 224
0.023438 0.210938 -0.136296 241 206 227
0.027344 0.210938 -0.136032 225 194 209
0.031250 0.210938 -0.135613 155 128 135
0.035156 0.210938 -0.134982 95 70 73
0.039062 0.210938 -0.134122 85 61 59
0.042969 0.210938 -0.133202 91 67 65
0.046875 0.210938 -0.132141 99 75 75
0.050781 0.210938 -0.130781 167 141 144
0.054688 0.210938 -0.129056 157 134 140
0.058594 0.210938 -0.127159 157 142 149
0.062500 0.210938 -0.124864 176 164 174
0.066406 0.210938 -0.121733 142 132 143
0.070312 0.210938 -0.117937 147 139 152
0.074219 0.210938 -0.113719 132 128 142
0.078125 0.210938 -0.109267 72 70 84
0.082031 0.210938 -0.104211 145 144 158
0.085938 0.210938 -0.098018 167 169 184
0.089844 0.210938 -0.090185 175 178 195
0.093750 0.210938 -0.081629 170 173 190
0.097656 0.210938 -0.073728 162 165 180
0.101562 0.210938 -0.068361 164 167 182
0.105469 0.210938 -0.067025 157 161 173
0.109375 0.210938 -0.068532 56 60 72
0.113281 0.210938 -0.070531 71 75 87
0.117188 0.210938 -0.072754 88 85 94
0.121094 0.210938 -0.075546 98 83 88
0.125000 0.210938 -0.077530 100 82 82
0.128906 0.210938 -0.078434 95 79 79
0.132812 0.210938 -0.078367 89 73 73
0.136719 0.210938 -0.078154 117 103 102
0.140625 0.210938 -0.077868 170 160 159
0.144531 0.210938 -0.076739 150 144 143
0.148438 0.210938 -0.074750 158 154 152
0.152344 0.210938 -0.072713 176 173 169
0.156250 0.210938 -0.070280 185 184 181
0.160156 0.210938 -0.066997 188 187 184
0.164062 0.210938 -0.062703 186 186 183
0.167969 0.210938 -0.058367 187 186 185
0.171875 0.210938 -0.053536 192 192 190
0.175781 0.210938 -0.048754 213 210 211
0.179688 0.210938 -0.042077 237 231 232
