ply
    format ascii 1.0
    element vertex 59776
    property float x
    property float y
    property float z
    property uchar red
    property uchar green
    property uchar blue
    end_header
0.160156 0.128906 -0.070708 90 86 100
0.164062 0.128906 -0.065912 109 107 120
0.167969 0.128906 -0.060802 82 82 94
0.171875 0.128906 -0.055215 80 80 92
0.175781 0.128906 -0.049023 156 158 170
0.179688 0.128906 -0.042530 146 144 157
0.183594 0.128906 -0.035306 175 163 177
0.187500 0.128906 -0.028041 148 132 143
0.191406 0.128906 -0.021898 132 121 127
0.195312 0.128906 -0.017032 161 152 153
0.199219 0.128906 -0.013200 153 149 146
0.203125 0.128906 -0.010420 167 166 164
0.207031 0.128906 -0.008839 94 92 97
0.210938 0.128906 -0.008322 165 162 173
0.214844 0.128906 -0.008152 174 170 187
0.218750 0.128906 -0.008075 160 151 172
0.222656 0.128906 -0.007746 158 145 165
0.226562 0.128906 -0.007164 91 74 87
0.230469 0.128906 -0.006626 130 109 111
0.234375 0.128906 -0.006012 95 73 62
0.238281 0.128906 -0.005361 91 66 44
0.242188 0.128906 -0.004658 82 61 40
0.246094 0.128906 -0.003937 78 66 61
0.250000 0.128906 -0.003164 194 165 181
0.253906 0.128906 -0.002381 136 95 122
0.257812 0.128906 -0.001561 150 122 140
0.261719 0.128906 -0.000642 179 159 171
0.265625 0.128906 0.000357 183 170 176
0.269531 0.128906 0.001567 192 184 187
0.273438 0.128906 0.002896 187 182 184
0.277344 0.128906 0.004336 181 179 180
0.281250 0.128906 0.005789 159 159 159
0.285156 0.128906 0.007487 133 133 133
0.289062 0.128906 0.009328 110 110 111
0.292969 0.128906 0.011218 99 100 100
0.296875 0.128906 0.013041 105 106 106
0.300781 0.128906 0.014919 117 118 118
0.304688 0.128906 0.017490 128 125 127
0.308594 0.128906 0.019960 141 131 138
0.312500 0.128906 0.023156 177 154 171
0.316406 0.128906 0.027073 184 162 170
0.320312 0.128906 0.033112 85 73 71
0.324219 0.128906 0.027471 5 5 4
-0.156250 0.125000 -0.085218 189 187 187
-0.152344 0.125000 -0.093782 225 211 214
-0.148438 0.125000 -0.100391 195 189 190
-0.144531 0.125000 -0.106329 189 187 187
-0.140625 0.125000 -0.110777 206 205 205
-0.136719 0.125000 -0.114755 224 224 224
-0.132812 0.125000 -0.118178 234 234 234
-0.128906 0.125000 -0.121566 240 240 240
-0.125000 0.125000 -0.124688 241 241 241
-0.121094 0.125000 -0.127066 240 240 240
-0.117188 0.125000 -0.129166 237 237 237
-0.113281 0.125000 -0.131209 234 234 234
-0.109375 0.125000 -0.132967 233 233 233
-0.105469 0.125000 -0.133744 232 232 232
-0.101562 0.125000 -0.133937 232 232 232
-0.097656 0.125000 -0.133535 234 234 234
-0.093750 0.125000 -0.133910 236 236 236
-0.089844 0.125000 -0.133864 239 238 238
-0.085938 0.125000 -0.133826 239 239 239
-0.082031 0.125000 -0.133260 238 237 237
-0.078125 0.125000 -0.132363 233 233 233
-0.074219 0.125000 -0.132088 227 227 227
-0.070312 0.125000 -0.132600 223 221 222
-0.066406 0.125000 -0.134073 223 221 220
-0.062500 0.125000 -0.135756 226 225 223
-0.058594 0.125000 -0.138173 228 228 226
-0.054688 0.125000 -0.140933 228 230 228
-0.050781 0.125000 -0.143661 229 231 231
-0.046875 0.125000 -0.146120 229 233 233
-0.042969 0.125000 -0.147865 234 235 235
-0.039062 0.125000 -0.149209 238 238 238
-0.035156 0.125000 -0.150384 235 233 235
-0.031250 0.125000 -0.151359 246 242 244
-0.027344 0.125000 -0.152113 247 242 245
-0.023438 0.125000 -0.152610 248 243 246
-0.019531 0.125000 -0.152964 243 240 245
-0.015625 0.125000 -0.153125 245 244 246
-0.011719 0.125000 -0.153092 234 238 242
-0.007812 0.125000 -0.152845 238 237 239
-0.003906 0.125000 -0.152463 239 233 236
0.000000 0.125000 -0.151932 240 228 231
0.003906 0.125000 -0.151113 250 246 247
0.007812 0.125000 -0.150112 251 240 240
0.011719 0.125000 -0.148929 186 176 175
0.015625 0.125000 -0.147636 97 86 86
0.019531 0.125000 -0.146244 85 75 74
0.023438 0.125000 -0.144853 77 67 66
0.027344 0.125000 -0.143366 95 85 84
0.031250 0.125000 -0.141851 159 149 148
0.035156 0.125000 -0.140426 134 124 125
0.039062 0.125000 -0.139142 82 73 74
0.042969 0.125000 -0.137792 118 109 112
0.046875 0.125000 -0.136477 132 126 130
0.050781 0.125000 -0.135239 182 176 180
0.054688 0.125000 -0.134060 160 153 160
0.058594 0.125000 -0.132862 158 148 157
0.062500 0.125000 -0.131644 165 153 165
0.066406 0.125000 -0.130293 142 131 139
0.070312 0.125000 -0.128744 164 151 158
0.074219 0.125000 -0.127198 179 164 167
0.078125 0.125000 -0.125513 154 140 140
0.082031 0.125000 -0.123760 96 84 84
0.085938 0.125000 -0.121853 103 92 90
0.089844 0.125000 -0.119867 132 122 120
0.093750 0.125000 -0.117815 130 120 119
0.097656 0.125000 -0.115440 161 152 153
0.101562 0.125000 -0.112888 144 138 140
0.105469 0.125000 -0.110268 116 110 112
0.109375 0.125000 -0.107538 105 99 101
0.113281 0.125000 -0.104932 181 172 177
0.117188 0.125000 -0.102439 141 133 131
0.121094 0.125000 -0.099890 86 77 68
0.125000 0.125000 -0.097245 148 140 127
0.128906 0.125000 -0.094634 141 133 122
0.132812 0.125000 -0.091990 169 160 153
0.136719 0.125000 -0.089452 94 84 82
0.140625 0.125000 -0.086937 120 110 111
0.144531 0.125000 -0.084181 157 146 150
0.148438 0.125000 -0.081213 189 179 187
0.152344 0.125000 -0.078076 197 187 196
0.156250 0.125000 -0.074553 176 168 179
0.160156 0.125000 -0.070385 174 168 178
0.164062 0.125000 -0.065572 198 195 206
0.167969 0.125000 -0.060403 178 175 186
0.171875 0.125000 -0.054700 117 115 126
0.175781 0.125000 -0.048157 173 171 182
0.179688 0.125000 -0.041130 188 185 194
0.183594 0.125000 -0.033147 167 155 165
0.187500 0.125000 -0.025016 109 96 105
0.191406 0.125000 -0.018235 113 101 105
0.195312 0.125000 -0.012959 132 120 120
0.199219 0.125000 -0.009167 119 109 107
0.203125 0.125000 -0.006924 145 135 134
0.207031 0.125000 -0.005915 78 67 71
0.210938 0.125000 -0.006009 164 153 161
0.214844 0.125000 -0.006393 166 154 168
0.218750 0.125000 -0.006792 150 137 154
0.222656 0.125000 -0.006837 149 135 150
0.226562 0.125000 -0.006532 84 66 76
0.230469 0.125000 -0.006203 143 122 123
0.234375 0.125000 -0.005760 113 93 84
0.238281 0.125000 -0.005266 98 75 59
0.242188 0.125000 -0.004667 69 50 35
0.246094 0.125000 -0.004033 67 56 52
0.250000 0.125000 -0.003337 172 154 162
0.253906 0.125000 -0.002630 165 119 144
0.257812 0.125000 -0.001889 150 117 137
0.261719 0.125000 -0.001064 165 141 154
0.265625 0.125000 -0.000192 178 165 171
0.269531 0.125000 0.000846 187 179 183
0.273438 0.125000 0.001927 188 184 185
0.277344 0.125000 0.003096 182 180 181
0.281250 0.125000 0.004249 169 168 169
0.285156 0.125000 0.005654 153 153 153
0.289062 0.125000 0.007206 134 135 135
0.292969 0.125000 0.008606 122 123 124
0.296875 0.125000 0.009970 115 116 116
0.300781 0.125000 0.011513 108 109 110
0.304688 0.125000 0.013285 105 105 106
0.308594 0.125000 0.015374 110 106 109
0.312500 0.125000 0.018411 134 119 129
0.316406 0.125000 0.020938 167 141 157
0.320312 0.125000 0.024916 192 164 175
0.324219 0.125000 0.031059 163 148 137
0.328125 0.125000 0.017883 30 32 24
-0.156250 0.121094 -0.086157 185 183 183
-0.152344 0.121094 -0.094441 223 210 213
-0.148438 0.121094 -0.101056 191 186 186
-0.144531 0.121094 -0.106976 185 183 183
-0.140625 0.121094 -0.111421 204 203 203
-0.136719 0.121094 -0.115391 222 222 222
-0.132812 0.121094 -0.118812 233 233 233
-0.128906 0.121094 -0.122218 239 239 239
-0.125000 0.121094 -0.125336 241 241 241
-0.121094 0.121094 -0.127665 239 239 239
-0.117188 0.121094 -0.129751 237 237 237
-0.113281 0.121094 -0.131712 234 234 234
-0.109375 0.121094 -0.133285 233 233 233
-0.105469 0.121094 -0.134047 232 232 232
-0.101562 0.121094 -0.134113 231 231 231
-0.097656 0.121094 -0.133576 232 232 232
-0.093750 0.121094 -0.133717 234 234 234
-0.089844 0.121094 -0.133495 236 236 236
-0.085938 0.121094 -0.133293 238 238 238
-0.082031 0.121094 -0.132445 237 237 237
-0.078125 0.121094 -0.131323 235 235 235
-0.074219 0.121094 -0.130643 231 231 231
-0.070312 0.121094 -0.130788 227 227 227
-0.066406 0.121094 -0.132053 226 225 226
-0.062500 0.121094 -0.133618 227 227 227
-0.058594 0.121094 -0.136137 228 228 228
-0.054688 0.121094 -0.139150 228 229 229
-0.050781 0.121094 -0.142122 230 231 231
-0.046875 0.121094 -0.144775 233 233 233
-0.042969 0.121094 -0.146689 236 237 237
-0.039062 0.121094 -0.148068 240 240 240
-0.035156 0.121094 -0.149308 244 242 242
-0.031250 0.121094 -0.150349 246 244 244
-0.027344 0.121094 -0.151140 247 245 245
-0.023438 0.121094 -0.151653 248 246 246
-0.019531 0.121094 -0.152018 247 245 246
-0.015625 0.121094 -0.152191 245 243 244
-0.011719 0.121094 -0.152157 242 241 242
-0.007812 0.121094 -0.151906 237 236 237
-0.003906 0.121094 -0.151520 235 232 234
0.000000 0.121094 -0.150987 237 234 237
0.003906 0.121094 -0.150166 244 238 241
0.007812 0.121094 -0.149160 246 240 242
0.011719 0.121094 -0.147986 253 248 250
0.015625 0.121094 -0.146721 236 232 233
0.019531 0.121094 -0.145390 172 168 167
0.023438 0.121094 -0.144060 106 99 100
0.027344 0.121094 -0.142546 80 75 72
0.031250 0.121094 -0.141018 97 89 87
0.035156 0.121094 -0.139611 107 97 95
0.039062 0.121094 -0.138335 67 56 54
0.042969 0.121094 -0.137018 118 104 101
0.046875 0.121094 -0.135726 136 121 116
0.050781 0.121094 -0.134508 129 111 107
0.054688 0.121094 -0.133345 190 176 173
0.058594 0.121094 -0.132155 168 162 166
0.062500 0.121094 -0.130936 140 135 141
0.066406 0.121094 -0.129601 159 150 153
0.070312 0.121094 -0.128057 193 181 181
0.074219 0.121094 -0.126531 109 94 91
0.078125 0.121094 -0.124882 133 115 113
0.082031 0.121094 -0.123135 134 116 114
0.085938 0.121094 -0.121196 96 81 78
0.089844 0.121094 -0.119212 88 76 76
0.093750 0.121094 -0.117195 172 163 164
0.097656 0.121094 -0.114796 120 114 118
0.101562 0.121094 -0.112207 104 99 103
0.105469 0.121094 -0.109572 168 164 165
0.109375 0.121094 -0.106812 157 153 152
0.113281 0.121094 -0.104201 104 99 96
0.117188 0.121094 -0.101698 169 160 155
0.121094 0.121094 -0.099135 171 156 149
0.125000 0.121094 -0.096480 156 139 131
0.128906 0.121094 -0.093892 156 139 131
0.132812 0.121094 -0.091305 139 122 115
0.136719 0.121094 -0.088781 107 89 85
0.140625 0.121094 -0.086291 148 130 128
0.144531 0.121094 -0.083606 101 85 85
0.148438 0.121094 -0.080669 151 135 135
0.152344 0.121094 -0.077532 206 192 192
0.156250 0.121094 -0.073960 108 96 98
0.160156 0.121094 -0.069818 168 157 161
0.164062 0.121094 -0.065002 118 109 114
0.167969 0.121094 -0.059794 110 104 108
0.171875 0.121094 -0.053931 119 114 120
0.175781 0.121094 -0.046752 163 158 164
0.179688 0.121094 -0.038602 144 139 145
0.183594 0.121094 -0.028852 196 190 194
0.187500 0.121094 -0.020363 115 106 109
0.191406 0.121094 -0.013050 131 119 121
0.195312 0.121094 -0.007342 96 80 81
0.199219 0.121094 -0.004370 122 100 102
0.203125 0.121094 -0.002719 161 137 137
0.207031 0.121094 -0.002576 88 63 66
0.210938 0.121094 -0.003322 105 80 83
0.214844 0.121094 -0.004301 140 120 122
0.218750 0.121094 -0.005214 122 103 107
0.222656 0.121094 -0.005650 156 137 141
0.226562 0.121094 -0.005687 114 94 96
0.230469 0.121094 -0.005602 148 129 129
0.234375 0.121094 -0.005368 123 102 102
0.238281 0.121094 -0.005041 85 64 59
0.242188 0.121094 -0.004573 82 63 59
0.246094 0.121094 -0.004045 83 71 71
0.250000 0.121094 -0.003445 84 69 75
0.253906 0.121094 -0.002815 188 147 169
0.257812 0.121094 -0.002135 158 118 140
0.261719 0.121094 -0.001399 164 138 150
0.265625 0.121094 -0.000628 176 163 169
0.269531 0.121094 0.000270 178 170 173
0.273438 0.121094 0.001172 186 182 184
0.277344 0.121094 0.002111 182 180 181
0.281250 0.121094 0.003039 173 173 173
0.285156 0.121094 0.004137 162 164 164
0.289062 0.121094 0.005350 151 153 153
0.292969 0.121094 0.006501 141 144 144
0.296875 0.121094 0.007545 127 130 130
0.300781 0.121094 0.008830 109 112 112
0.304688 0.121094 0.010240 100 101 101
0.308594 0.121094 0.011715 100 99 100
0.312500 0.121094 0.013743 113 105 110
0.316406 0.121094 0.015730 145 126 139
0.320312 0.121094 0.018324 199 168 184
0.324219 0.121094 0.022862 223 205 206
0.328125 0.121094 0.028492 206 199 187
-0.156250 0.117188 -0.087194 182 181 181
-0.152344 0.117188 -0.095023 223 212 214
-0.148438 0.117188 -0.101737 189 185 185
-0.144531 0.117188 -0.107706 182 181 181
-0.140625 0.117188 -0.112109 201 201 201
-0.136719 0.117188 -0.116050 220 220 220
-0.132812 0.117188 -0.119449 232 231 231
-0.128906 0.117188 -0.122860 238 238 238
-0.125000 0.117188 -0.125960 240 240 240
-0.121094 0.117188 -0.128249 239 239 239
-0.117188 0.117188 -0.130330 236 236 236
-0.113281 0.117188 -0.132254 235 235 235
-0.109375 0.117188 -0.133699 234 234 234
-0.105469 0.117188 -0.134477 233 233 233
-0.101562 0.117188 -0.134342 233 233 233
-0.097656 0.117188 -0.133774 233 233 233
-0.093750 0.117188 -0.133747 234 234 234
-0.089844 0.117188 -0.133355 236 236 236
-0.085938 0.117188 -0.132979 238 238 238
-0.082031 0.117188 -0.131849 238 238 238
-0.078125 0.117188 -0.130364 237 237 237
-0.074219 0.117188 -0.129224 236 235 235
-0.070312 0.117188 -0.128838 234 234 234
-0.066406 0.117188 -0.129789 234 234 234
-0.062500 0.117188 -0.131249 234 234 234
-0.058594 0.117188 -0.133913 234 234 234
-0.054688 0.117188 -0.137205 234 234 234
-0.050781 0.117188 -0.140441 235 235 235
-0.046875 0.117188 -0.143289 237 237 237
-0.042969 0.117188 -0.145372 239 239 239
-0.039062 0.117188 -0.146805 241 241 241
-0.035156 0.117188 -0.148090 243 243 243
-0.031250 0.117188 -0.149178 245 244 244
-0.027344 0.117188 -0.149998 246 245 245
-0.023438 0.117188 -0.150529 246 246 246
-0.019531 0.117188 -0.150908 246 245 245
-0.015625 0.117188 -0.151107 245 244 244
-0.011719 0.117188 -0.151079 244 242 242
-0.007812 0.117188 -0.150828 241 239 240
-0.003906 0.117188 -0.150444 233 231 232
0.000000 0.117188 -0.149914 241 240 241
0.003906 0.117188 -0.149109 244 243 244
0.007812 0.117188 -0.148130 243 242 243
0.011719 0.117188 -0.147004 250 249 250
0.015625 0.117188 -0.145764 251 250 251
0.019531 0.117188 -0.144423 251 248 250
0.023438 0.117188 -0.143097 233 230 232
0.027344 0.117188 -0.141606 163 157 157
0.031250 0.117188 -0.140108 91 83 81
0.035156 0.117188 -0.138701 61 51 49
0.039062 0.117188 -0.137446 84 70 64
0.042969 0.117188 -0.136137 139 122 115
0.046875 0.117188 -0.134849 136 117 110
0.050781 0.117188 -0.133650 107 87 78
0.054688 0.117188 -0.132504 140 123 116
0.058594 0.117188 -0.131340 134 128 130
0.062500 0.117188 -0.130139 115 113 116
0.066406 0.117188 -0.128818 160 151 152
0.070312 0.117188 -0.127276 98 86 86
0.074219 0.117188 -0.125769 160 145 142
0.078125 0.117188 -0.124148 113 95 91
0.082031 0.117188 -0.122391 151 131 130
0.085938 0.117188 -0.120441 117 101 101
0.089844 0.117188 -0.118459 80 68 70
0.093750 0.117188 -0.116448 117 108 111
0.097656 0.117188 -0.114034 134 129 133
0.101562 0.117188 -0.111415 101 99 102
0.105469 0.117188 -0.108731 87 85 86
0.109375 0.117188 -0.105934 154 153 151
0.113281 0.117188 -0.103329 120 117 112
0.117188 0.117188 -0.100813 126 117 112
0.121094 0.117188 -0.098222 108 93 88
0.125000 0.117188 -0.095559 102 83 77
0.128906 0.117188 -0.092995 109 90 84
0.132812 0.117188 -0.090455 95 76 70
0.136719 0.117188 -0.087958 114 95 91
0.140625 0.117188 -0.085510 174 155 151
0.144531 0.117188 -0.082897 141 123 119
0.148438 0.117188 -0.080012 124 106 104
0.152344 0.117188 -0.076882 210 195 192
0.156250 0.117188 -0.073318 206 192 191
0.160156 0.117188 -0.069301 69 57 57
0.164062 0.117188 -0.064583 135 125 126
0.167969 0.117188 -0.059233 104 95 98
0.171875 0.117188 -0.053113 147 138 141
0.175781 0.117188 -0.045531 186 180 184
0.179688 0.117188 -0.036076 112 106 108
0.183594 0.117188 -0.025064 122 118 117
0.187500 0.117188 -0.015575 127 122 119
0.191406 0.117188 -0.005892 104 90 90
0.195312 0.117188 -0.000198 108 88 89
0.199219 0.117188 0.001502 102 73 75
0.203125 0.117188 0.002138 182 152 152
0.207031 0.117188 0.001178 104 72 73
0.210938 0.117188 -0.000377 85 55 55
0.214844 0.117188 -0.001942 98 72 71
0.218750 0.117188 -0.003406 152 131 128
0.222656 0.117188 -0.004208 161 143 141
0.226562 0.117188 -0.004596 110 95 92
0.230469 0.117188 -0.004772 110 91 91
0.234375 0.117188 -0.004762 123 104 104
0.238281 0.117188 -0.004605 96 76 78
0.242188 0.117188 -0.004277 62 43 47
0.246094 0.117188 -0.003885 61 49 53
0.250000 0.117188 -0.003387 73 59 64
0.253906 0.117188 -0.002858 198 153 174
0.257812 0.117188 -0.002265 177 135 155
0.261719 0.117188 -0.001630 175 151 162
0.265625 0.117188 -0.000959 178 166 171
0.269531 0.117188 -0.000188 172 165 168
0.273438 0.117188 0.000554 181 179 180
0.277344 0.117188 0.001313 178 177 177
0.281250 0.117188 0.002025 172 172 172
0.285156 0.117188 0.002899 167 169 169
0.289062 0.117188 0.003846 163 165 165
0.292969 0.117188 0.004775 159 162 162
0.296875 0.117188 0.005624 146 149 149
0.300781 0.117188 0.006561 127 130 130
0.304688 0.117188 0.007655 115 116 117
0.308594 0.117188 0.008803 113 112 113
0.312500 0.117188 0.010145 117 113 115
0.316406 0.117188 0.011263 133 121 128
0.320312 0.117188 0.013836 161 138 150
0.324219 0.117188 0.014703 184 157 169
0.328125 0.117188 0.019866 209 189 194
0.332031 0.117188 0.022269 176 170 147
-0.156250 0.113281 -0.088323 181 179 180
-0.152344 0.113281 -0.095685 225 215 217
-0.148438 0.113281 -0.102398 190 186 187
-0.144531 0.113281 -0.108436 181 179 180
-0.140625 0.113281 -0.112795 200 199 199
-0.136719 0.113281 -0.116711 219 218 218
-0.132812 0.113281 -0.120070 230 230 230
-0.128906 0.113281 -0.123476 237 237 237
-0.125000 0.113281 -0.126563 239 239 239
-0.121094 0.113281 -0.128828 238 238 238
-0.117188 0.113281 -0.130890 237 237 237
-0.113281 0.113281 -0.132812 236 236 236
-0.109375 0.113281 -0.134174 235 235 235
-0.105469 0.113281 -0.134870 235 235 235
-0.101562 0.113281 -0.134631 235 235 235
-0.097656 0.113281 -0.134071 235 235 235
-0.093750 0.113281 -0.133898 236 236 236
-0.089844 0.113281 -0.133312 237 237 237
-0.085938 0.113281 -0.132756 238 238 238
-0.082031 0.113281 -0.131316 238 238 238
-0.078125 0.113281 -0.129444 238 238 238
-0.074219 0.113281 -0.127869 239 239 239
-0.070312 0.113281 -0.126808 239 238 238
-0.066406 0.113281 -0.127334 238 238 238
-0.062500 0.113281 -0.128656 238 238 238
-0.058594 0.113281 -0.131462 238 238 238
-0.054688 0.113281 -0.135077 238 238 238
-0.050781 0.113281 -0.138561 238 238 238
-0.046875 0.113281 -0.141588 239 239 239
-0.042969 0.113281 -0.143825 240 240 240
-0.039062 0.113281 -0.145359 242 242 242
-0.035156 0.113281 -0.146709 243 243 243
-0.031250 0.113281 -0.147863 244 244 244
-0.027344 0.113281 -0.148723 245 245 245
-0.023438 0.113281 -0.149278 245 245 245
-0.019531 0.113281 -0.149670 245 245 245
-0.015625 0.113281 -0.149894 245 244 244
-0.011719 0.113281 -0.149874 244 243 243
-0.007812 0.113281 -0.149617 243 241 242
-0.003906 0.113281 -0.149234 241 240 239
0.000000 0.113281 -0.148714 243 242 240
0.003906 0.113281 -0.147950 245 243 244
0.007812 0.113281 -0.147008 242 241 242
0.011719 0.113281 -0.145884 236 235 238
0.015625 0.113281 -0.144657 235 233 237
0.019531 0.113281 -0.143352 235 231 234
0.023438 0.113281 -0.142058 233 229 232
0.027344 0.113281 -0.140596 234 230 232
0.031250 0.113281 -0.139111 232 223 223
0.035156 0.113281 -0.137728 195 184 183
0.039062 0.113281 -0.136492 128 115 109
0.042969 0.113281 -0.135203 96 81 74
0.046875 0.113281 -0.133935 111 92 85
0.050781 0.113281 -0.132762 120 100 91
0.054688 0.113281 -0.131637 111 94 87
0.058594 0.113281 -0.130506 84 78 80
0.062500 0.113281 -0.129320 119 114 120
0.066406 0.113281 -0.128004 177 168 171
0.070312 0.113281 -0.126479 172 160 162
0.074219 0.113281 -0.124985 182 166 166
0.078125 0.113281 -0.123361 101 86 83
0.082031 0.113281 -0.121574 124 106 106
0.085938 0.113281 -0.119622 184 168 169
0.089844 0.113281 -0.117639 87 75 79
0.093750 0.113281 -0.115595 68 59 64
0.097656 0.113281 -0.113146 133 128 134
0.101562 0.113281 -0.110504 143 141 146
0.105469 0.113281 -0.107765 106 104 107
0.109375 0.113281 -0.104910 182 180 181
0.113281 0.113281 -0.102282 150 146 143
0.117188 0.113281 -0.099739 141 133 130
0.121094 0.113281 -0.097156 70 56 53
0.125000 0.113281 -0.094530 106 91 88
0.128906 0.113281 -0.091966 113 98 95
0.132812 0.113281 -0.089443 117 102 99
0.136719 0.113281 -0.086988 93 78 75
0.140625 0.113281 -0.084565 152 137 134
0.144531 0.113281 -0.081974 157 142 139
0.148438 0.113281 -0.079077 136 122 121
0.152344 0.113281 -0.075979 149 135 134
0.156250 0.113281 -0.072447 191 179 179
0.160156 0.113281 -0.068465 97 85 85
0.164062 0.113281 -0.063793 64 54 55
0.167969 0.113281 -0.058065 116 107 110
0.171875 0.113281 -0.051247 128 119 122
0.175781 0.113281 -0.042956 166 157 162
0.179688 0.113281 -0.032650 141 135 137
0.183594 0.113281 -0.017949 133 129 126
0.187500 0.113281 0.001925 147 142 138
0.191406 0.113281 0.014415 90 76 75
0.195312 0.113281 0.012447 145 125 124
0.199219 0.113281 0.009713 125 96 98
0.203125 0.113281 0.007677 151 119 120
0.207031 0.113281 0.005474 89 57 58
0.210938 0.113281 0.003161 85 55 53
0.214844 0.113281 0.000833 97 73 69
0.218750 0.113281 -0.001144 140 121 117
0.222656 0.113281 -0.002440 115 100 97
0.226562 0.113281 -0.003283 122 108 105
0.230469 0.113281 -0.003745 100 83 83
0.234375 0.113281 -0.004010 99 82 83
0.238281 0.113281 -0.004015 79 60 64
0.242188 0.113281 -0.003815 78 62 65
0.246094 0.113281 -0.003569 63 52 56
0.250000 0.113281 -0.003186 104 84 91
0.253906 0.113281 -0.002774 189 143 163
0.257812 0.113281 -0.002262 182 141 159
0.261719 0.113281 -0.001734 180 159 168
0.265625 0.113281 -0.001170 174 163 167
0.269531 0.113281 -0.000520 170 164 167
0.273438 0.113281 0.000073 175 173 173
0.277344 0.113281 0.000691 171 170 171
0.281250 0.113281 0.001232 168 168 168
0.285156 0.113281 0.001907 168 170 170
0.289062 0.113281 0.002656 171 172 173
0.292969 0.113281 0.003353 172 174 174
0.296875 0.113281 0.003991 164 167 167
0.300781 0.113281 0.004698 147 150 150
0.304688 0.113281 0.005439 133 134 135
0.308594 0.113281 0.006229 128 127 127
0.312500 0.113281 0.007052 125 122 123
0.316406 0.113281 0.007394 131 125 128
0.320312 0.113281 0.008544 142 129 135
0.324219 0.113281 0.009087 154 132 143
0.328125 0.113281 0.009086 200 171 181
0.332031 0.113281 0.014271 214 201 186
0.335938 0.113281 0.019237 84 81 51
-0.156250 0.109375 -0.089022 182 180 181
-0.152344 0.109375 -0.096242 229 221 223
-0.148438 0.109375 -0.103151 194 190 191
-0.144531 0.109375 -0.109239 182 180 181
-0.140625 0.109375 -0.113556 199 198 198
-0.136719 0.109375 -0.117438 218 217 217
-0.132812 0.109375 -0.120750 230 230 230
-0.128906 0.109375 -0.124124 236 236 236
-0.125000 0.109375 -0.127179 239 239 239
-0.121094 0.109375 -0.129410 239 239 239
-0.117188 0.109375 -0.131442 237 237 237
-0.113281 0.109375 -0.133335 237 237 237
-0.109375 0.109375 -0.134667 237 237 237
-0.105469 0.109375 -0.135339 237 237 237
-0.101562 0.109375 -0.134986 237 237 237
-0.097656 0.109375 -0.134504 237 237 237
-0.093750 0.109375 -0.134217 237 237 237
-0.089844 0.109375 -0.133432 238 238 238
-0.085938 0.109375 -0.132715 239 239 239
-0.082031 0.109375 -0.130984 239 239 239
-0.078125 0.109375 -0.128699 240 240 240
-0.074219 0.109375 -0.126572 240 240 240
-0.070312 0.109375 -0.124780 240 240 240
-0.066406 0.109375 -0.124858 240 240 240
-0.062500 0.109375 -0.126045 240 240 240
-0.058594 0.109375 -0.128994 240 240 240
-0.054688 0.109375 -0.132873 240 240 240
-0.050781 0.109375 -0.136606 240 240 240
-0.046875 0.109375 -0.139827 240 240 240
-0.042969 0.109375 -0.142202 241 241 241
-0.039062 0.109375 -0.143855 241 241 241
-0.035156 0.109375 -0.145285 242 242 242
-0.031250 0.109375 -0.146511 243 243 243
-0.027344 0.109375 -0.147414 243 243 243
-0.023438 0.109375 -0.147989 243 243 243
-0.019531 0.109375 -0.148390 243 243 243
-0.015625 0.109375 -0.148625 243 243 243
-0.011719 0.109375 -0.148610 243 242 242
-0.007812 0.109375 -0.148370 242 241 241
-0.003906 0.109375 -0.148013 242 241 239
0.000000 0.109375 -0.147509 241 240 239
0.003906 0.109375 -0.146745 242 241 241
0.007812 0.109375 -0.145817 243 242 243
0.011719 0.109375 -0.144731 242 241 242
0.015625 0.109375 -0.143544 235 234 237
0.019531 0.109375 -0.142284 226 222 225
0.023438 0.109375 -0.141042 214 210 213
0.027344 0.109375 -0.139593 199 193 196
0.031250 0.109375 -0.138140 195 191 193
0.035156 0.109375 -0.136785 205 200 201
0.039062 0.109375 -0.135561 225 214 211
0.042969 0.109375 -0.134286 210 195 190
0.046875 0.109375 -0.133038 121 104 97
0.050781 0.109375 -0.131890 96 77 70
0.054688 0.109375 -0.130777 87 72 67
0.058594 0.109375 -0.129667 104 95 98
0.062500 0.109375 -0.128500 137 132 138
0.066406 0.109375 -0.127188 170 161 166
0.070312 0.109375 -0.125667 142 131 135
0.074219 0.109375 -0.124165 139 124 127
0.078125 0.109375 -0.122528 138 124 124
0.082031 0.109375 -0.120721 155 140 143
0.085938 0.109375 -0.118743 149 134 139
0.089844 0.109375 -0.116725 130 119 125
0.093750 0.109375 -0.114645 110 100 108
0.097656 0.109375 -0.112152 126 121 127
0.101562 0.109375 -0.109466 156 154 159
0.105469 0.109375 -0.106687 159 157 162
0.109375 0.109375 -0.103786 163 161 164
0.113281 0.109375 -0.101126 137 135 136
0.117188 0.109375 -0.098552 131 125 125
0.121094 0.109375 -0.095981 138 128 129
0.125000 0.109375 -0.093381 124 112 112
0.128906 0.109375 -0.090805 100 88 90
0.132812 0.109375 -0.088293 106 94 94
0.136719 0.109375 -0.085877 116 104 106
0.140625 0.109375 -0.083492 132 120 120
0.144531 0.109375 -0.080921 158 146 146
0.148438 0.109375 -0.077962 101 89 89
0.152344 0.109375 -0.074960 116 106 107
0.156250 0.109375 -0.071473 85 75 76
0.160156 0.109375 -0.067453 127 117 118
0.164062 0.109375 -0.062750 129 120 123
0.167969 0.109375 -0.056920 179 170 173
0.171875 0.109375 -0.050012 169 160 163
0.175781 0.109375 -0.040447 128 119 124
0.179688 0.109375 -0.026684 173 164 167
0.183594 0.109375 -0.001511 141 136 132
0.187500 0.109375 0.029500 117 110 104
0.191406 0.109375 0.036675 80 65 62
0.195312 0.109375 0.030306 136 115 112
0.199219 0.109375 0.019319 156 128 127
0.203125 0.109375 0.013385 117 86 84
0.207031 0.109375 0.010935 104 73 71
0.210938 0.109375 0.007341 131 103 100
0.214844 0.109375 0.004138 96 72 68
0.218750 0.109375 0.001551 145 128 121
0.222656 0.109375 -0.000233 127 113 110
0.226562 0.109375 -0.001561 112 101 97
0.230469 0.109375 -0.002361 75 62 62
0.234375 0.109375 -0.002944 86 73 73
0.238281 0.109375 -0.003159 69 52 55
0.242188 0.109375 -0.003083 79 63 66
0.246094 0.109375 -0.002982 116 100 105
0.250000 0.109375 -0.002738 149 120 129
0.253906 0.109375 -0.002471 172 127 144
0.257812 0.109375 -0.002078 175 139 153
0.261719 0.109375 -0.001717 185 168 174
0.265625 0.109375 -0.001293 182 172 176
0.269531 0.109375 -0.000766 180 175 177
0.273438 0.109375 -0.000305 174 172 173
0.277344 0.109375 0.000181 170 169 169
0.281250 0.109375 0.000591 164 164 165
0.285156 0.109375 0.001088 164 166 166
0.289062 0.109375 0.001644 168 170 170
0.292969 0.109375 0.002167 170 173 173
0.296875 0.109375 0.002604 166 168 169
0.300781 0.109375 0.003119 153 156 157
0.304688 0.109375 0.003660 140 141 141
0.308594 0.109375 0.004014 133 132 132
0.312500 0.109375 0.004255 130 129 129
0.316406 0.109375 0.004351 137 134 135
0.320312 0.109375 0.004544 141 133 137
0.324219 0.109375 0.004298 141 126 134
0.328125 0.109375 0.005033 188 159 169
0.332031 0.109375 0.004785 226 213 199
0.335938 0.109375 0.008628 227 223 193
0.339844 0.109375 0.012262 107 120 62
0.343750 0.109375 0.004450 238 212 181
-0.156250 0.105469 -0.089716 183 181 181
-0.152344 0.105469 -0.097047 233 226 227
-0.148438 0.105469 -0.103934 197 194 194
-0.144531 0.105469 -0.110071 183 181 181
-0.140625 0.105469 -0.114363 199 198 198
-0.136719 0.105469 -0.118224 218 217 217
-0.132812 0.105469 -0.121458 230 230 230
-0.128906 0.105469 -0.124774 236 236 236
-0.125000 0.105469 -0.127807 239 239 239
-0.121094 0.105469 -0.129999 239 239 239
-0.117188 0.105469 -0.131962 238 238 238
-0.113281 0.105469 -0.133841 238 238 238
-0.109375 0.105469 -0.135197 238 238 238
-0.105469 0.105469 -0.135835 238 238 238
-0.101562 0.105469 -0.135334 238 238 238
-0.097656 0.105469 -0.135019 238 238 238
-0.093750 0.105469 -0.134653 238 238 238
-0.089844 0.105469 -0.133679 238 238 238
-0.085938 0.105469 -0.132795 239 239 239
-0.082031 0.105469 -0.130806 240 240 240
-0.078125 0.105469 -0.128158 240 240 240
-0.074219 0.105469 -0.125429 240 240 240
-0.070312 0.105469 -0.122742 241 241 241
-0.066406 0.105469 -0.122254 241 241 241
-0.062500 0.105469 -0.123203 241 241 241
-0.058594 0.105469 -0.126362 241 241 241
-0.054688 0.105469 -0.130588 241 241 241
-0.050781 0.105469 -0.134566 241 241 241
-0.046875 0.105469 -0.137997 241 241 241
-0.042969 0.105469 -0.140494 241 241 241
-0.039062 0.105469 -0.142240 241 241 241
-0.035156 0.105469 -0.143760 241 241 241
-0.031250 0.105469 -0.145067 241 241 241
-0.027344 0.105469 -0.146020 242 242 242
-0.023438 0.105469 -0.146623 242 242 242
-0.019531 0.105469 -0.147049 242 242 242
-0.015625 0.105469 -0.147310 241 241 241
-0.011719 0.105469 -0.147319 241 241 241
-0.007812 0.105469 -0.147095 240 240 240
-0.003906 0.105469 -0.146738 240 240 238
0.000000 0.105469 -0.146251 237 237 235
0.003906 0.105469 -0.145522 234 233 233
0.007812 0.105469 -0.144637 239 238 238
0.011719 0.105469 -0.143598 239 239 239
0.015625 0.105469 -0.142451 235 234 235
0.019531 0.105469 -0.141244 228 227 228
0.023438 0.105469 -0.140048 215 213 215
0.027344 0.105469 -0.138626 197 194 196
0.031250 0.105469 -0.137187 176 169 171
0.035156 0.105469 -0.135846 180 170 172
0.039062 0.105469 -0.134629 205 194 192
0.042969 0.105469 -0.133360 244 236 231
0.046875 0.105469 -0.132112 114 97 90
0.050781 0.105469 -0.130984 101 82 75
0.054688 0.105469 -0.129890 160 145 140
0.058594 0.105469 -0.128799 122 113 116
0.062500 0.105469 -0.127645 142 137 143
0.066406 0.105469 -0.126339 128 118 126
0.070312 0.105469 -0.124824 138 127 133
0.074219 0.105469 -0.123306 127 116 122
0.078125 0.105469 -0.121661 171 158 165
0.082031 0.105469 -0.119840 147 134 141
0.085938 0.105469 -0.117831 126 115 121
0.089844 0.105469 -0.115757 187 176 184
0.093750 0.105469 -0.113632 186 176 185
0.097656 0.105469 -0.111101 119 114 121
0.101562 0.105469 -0.108365 128 123 129
0.105469 0.105469 -0.105535 148 146 151
0.109375 0.105469 -0.102595 111 109 114
0.113281 0.105469 -0.099927 160 158 161
0.117188 0.105469 -0.097335 147 145 148
0.121094 0.105469 -0.094749 180 174 178
0.125000 0.105469 -0.092154 152 146 150
0.128906 0.105469 -0.089584 144 137 144
0.132812 0.105469 -0.087082 110 104 108
0.136719 0.105469 -0.084679 148 141 148
0.140625 0.105469 -0.082309 105 99 103
0.144531 0.105469 -0.079722 176 170 174
0.148438 0.105469 -0.076692 106 100 104
0.152344 0.105469 -0.073698 102 93 98
0.156250 0.105469 -0.070265 104 95 100
0.160156 0.105469 -0.066190 148 139 144
0.164062 0.105469 -0.061184 120 111 116
0.167969 0.105469 -0.055162 91 82 87
0.171875 0.105469 -0.047436 147 138 141
0.175781 0.105469 -0.036928 186 180 184
0.179688 0.105469 -0.017988 112 106 108
0.195312 0.105469 0.039078 108 88 89
0.199219 0.105469 0.035150 128 100 97
0.203125 0.105469 0.024006 109 78 75
0.207031 0.105469 0.016913 111 82 78
0.210938 0.105469 0.011597 124 96 92
0.214844 0.105469 0.007669 123 102 97
0.218750 0.105469 0.004834 108 93 86
0.222656 0.105469 0.002655 105 94 90
0.226562 0.105469 0.000906 86 77 72
0.230469 0.105469 -0.000308 82 74 72
0.234375 0.105469 -0.001301 85 77 75
0.238281 0.105469 -0.001832 67 54 56
0.242188 0.105469 -0.001958 104 90 92
0.246094 0.105469 -0.002052 137 116 120
0.250000 0.105469 -0.001989 135 105 113
0.253906 0.105469 -0.001905 148 112 123
0.257812 0.105469 -0.001712 168 139 149
0.261719 0.105469 -0.001551 184 169 174
0.265625 0.105469 -0.001298 183 174 177
0.269531 0.105469 -0.000922 181 177 179
0.273438 0.105469 -0.000589 172 170 171
0.277344 0.105469 -0.000232 168 166 167
0.281250 0.105469 0.000057 160 159 160
0.285156 0.105469 0.000423 157 158 159
0.289062 0.105469 0.000804 160 161 162
0.292969 0.105469 0.001178 161 163 163
0.296875 0.105469 0.001462 158 159 160
0.300781 0.105469 0.001793 149 151 151
0.304688 0.105469 0.002126 139 139 140
0.308594 0.105469 0.002163 134 133 133
0.312500 0.105469 0.001882 135 134 134
0.316406 0.105469 0.001642 148 145 146
0.320312 0.105469 0.001256 150 143 145
0.324219 0.105469 0.000016 133 113 122
0.328125 0.105469 -0.000538 174 130 138
0.332031 0.105469 -0.001211 214 183 163
0.335938 0.105469 -0.001571 235 221 197
0.339844 0.105469 0.001863 215 203 165
0.343750 0.105469 0.007041 13 11 8
0.347656 0.105469 0.010036 231 189 154
-0.156250 0.101562 -0.090778 183 180 180
-0.152344 0.101562 -0.098063 234 228 229
-0.148438 0.101562 -0.104901 198 194 195
-0.144531 0.101562 -0.111049 183 180 180
-0.140625 0.101562 -0.115260 198 197 197
-0.136719 0.101562 -0.119049 218 217 217
-0.132812 0.101562 -0.122169 231 230 230
-0.128906 0.101562 -0.125420 236 236 236
-0.125000 0.101562 -0.128419 239 239 239
-0.121094 0.101562 -0.130563 239 239 239
-0.117188 0.101562 -0.132471 238 238 238
-0.113281 0.101562 -0.134316 238 238 238
-0.109375 0.101562 -0.135689 238 238 238
-0.105469 0.101562 -0.136256 238 238 238
-0.101562 0.101562 -0.135704 238 238 238
-0.097656 0.101562 -0.135496 237 237 237
-0.093750 0.101562 -0.135082 237 237 237
-0.089844 0.101562 -0.133915 238 238 238
-0.085938 0.101562 -0.132860 238 238 238
-0.082031 0.101562 -0.130648 239 239 239
-0.078125 0.101562 -0.127685 239 239 239
-0.074219 0.101562 -0.124352 240 240 240
-0.070312 0.101562 -0.120824 240 240 240
-0.066406 0.101562 -0.119675 241 241 241
-0.062500 0.101562 -0.120710 241 241 241
-0.058594 0.101562 -0.123969 241 241 241
-0.054688 0.101562 -0.128418 241 241 241
-0.050781 0.101562 -0.132552 241 241 241
-0.046875 0.101562 -0.136139 241 241 241
-0.042969 0.101562 -0.138782 241 241 241
-0.039062 0.101562 -0.140633 241 241 241
-0.035156 0.101562 -0.142255 241 241 241
-0.031250 0.101562 -0.143651 241 241 241
-0.027344 0.101562 -0.144664 241 241 241
-0.023438 0.101562 -0.145306 241 241 241
-0.019531 0.101562 -0.145761 241 240 240
-0.015625 0.101562 -0.146044 240 240 240
-0.011719 0.101562 -0.146054 239 239 239
-0.007812 0.101562 -0.145831 238 238 238
-0.003906 0.101562 -0.145496 238 238 236
0.000000 0.101562 -0.145051 237 237 235
0.003906 0.101562 -0.144367 238 237 237
0.007812 0.101562 -0.143533 238 238 238
0.011719 0.101562 -0.142542 231 230 232
0.015625 0.101562 -0.141446 223 222 224
0.019531 0.101562 -0.140284 221 221 223
0.023438 0.101562 -0.139134 221 219 222
0.027344 0.101562 -0.137756 207 204 207
0.031250 0.101562 -0.136347 209 205 208
0.035156 0.101562 -0.135029 206 202 203
0.039062 0.101562 -0.133826 210 200 200
0.042969 0.101562 -0.132567 235 231 228
0.046875 0.101562 -0.131318 140 125 120
0.050781 0.101562 -0.130211 102 85 78
0.054688 0.101562 -0.129144 137 122 119
0.058594 0.101562 -0.128081 101 92 95
0.062500 0.101562 -0.126934 133 126 133
0.066406 0.101562 -0.125615 122 115 123
0.070312 0.101562 -0.124093 179 169 178
0.074219 0.101562 -0.122550 160 150 159
0.078125 0.101562 -0.120869 156 146 155
0.082031 0.101562 -0.119005 115 105 116
0.085938 0.101562 -0.116949 168 158 167
0.089844 0.101562 -0.114812 134 124 135
0.093750 0.101562 -0.112631 139 132 140
0.097656 0.101562 -0.110047 120 113 121
0.101562 0.101562 -0.107254 188 183 190
0.105469 0.101562 -0.104355 177 174 181
0.109375 0.101562 -0.101360 83 80 87
0.113281 0.101562 -0.098670 126 125 131
0.117188 0.101562 -0.096054 103 102 108
0.121094 0.101562 -0.093457 188 187 195
0.125000 0.101562 -0.090863 179 176 185
0.128906 0.101562 -0.088285 128 125 134
0.132812 0.101562 -0.085770 138 137 145
0.136719 0.101562 -0.083353 156 153 162
0.140625 0.101562 -0.080961 158 155 164
0.144531 0.101562 -0.078309 180 177 186
0.148438 0.101562 -0.075276 111 108 115
0.152344 0.101562 -0.072289 142 137 144
0.156250 0.101562 -0.068751 162 157 164
0.160156 0.101562 -0.064492 167 162 168
0.164062 0.101562 -0.059613 182 175 182
0.167969 0.101562 -0.053144 158 152 156
0.171875 0.101562 -0.043599 128 119 122
0.199219 0.101562 0.039904 125 96 98
0.203125 0.101562 0.035892 151 119 120
0.207031 0.101562 0.024910 95 66 62
0.210938 0.101562 0.016555 91 66 61
0.214844 0.101562 0.012162 93 74 68
0.218750 0.101562 0.008675 57 43 35
0.222656 0.101562 0.006096 88 79 74
0.226562 0.101562 0.003889 79 74 70
0.230469 0.101562 0.002317 85 79 76
0.234375 0.101562 0.001037 74 66 66
0.238281 0.101562 0.000215 99 87 88
0.242188 0.101562 -0.000265 120 108 108
0.246094 0.101562 -0.000617 84 69 71
0.250000 0.101562 -0.000836 94 76 80
0.253906 0.101562 -0.001059 121 99 105
0.257812 0.101562 -0.001138 150 132 138
0.261719 0.101562 -0.001230 168 157 162
0.265625 0.101562 -0.001170 168 160 163
0.269531 0.101562 -0.000956 174 169 171
0.273438 0.101562 -0.000734 173 171 172
0.277344 0.101562 -0.000474 167 165 166
0.281250 0.101562 -0.000275 160 158 159
0.285156 0.101562 -0.000020 159 158 159
0.289062 0.101562 0.000238 161 161 162
0.292969 0.101562 0.000447 163 164 164
0.296875 0.101562 0.000579 161 162 162
0.300781 0.101562 0.000755 155 156 156
0.304688 0.101562 0.000883 149 149 149
0.308594 0.101562 0.000663 144 144 144
0.312500 0.101562 0.000081 144 143 143
0.316406 0.101562 -0.000582 158 156 156
0.320312 0.101562 -0.001423 157 149 151
0.324219 0.101562 -0.002717 136 105 113
0.328125 0.101562 -0.003862 191 138 133
0.332031 0.101562 -0.005107 217 173 151
0.335938 0.101562 -0.004626 233 202 177
0.339844 0.101562 -0.005073 236 215 188
0.343750 0.101562 -0.003181 198 171 127
0.347656 0.101562 0.002336 35 26 14
0.351562 0.101562 0.007341 239 208 169
-0.156250 0.097656 -0.091691 184 181 181
-0.152344 0.097656 -0.098924 236 230 232
-0.148438 0.097656 -0.105818 200 196 196
-0.144531 0.097656 -0.111971 184 181 181
-0.140625 0.097656 -0.116115 199 197 197
-0.136719 0.097656 -0.119865 219 218 218
-0.132812 0.097656 -0.122907 231 231 231
-0.128906 0.097656 -0.126093 237 237 237
-0.125000 0.097656 -0.129058 239 238 238
-0.121094 0.097656 -0.131148 239 238 238
-0.117188 0.097656 -0.132959 238 238 238
-0.113281 0.097656 -0.134771 238 238 238
-0.109375 0.097656 -0.136211 238 237 237
-0.105469 0.097656 -0.136712 237 237 237
-0.101562 0.097656 -0.136071 237 237 237
-0.097656 0.097656 -0.136011 236 236 236
-0.093750 0.097656 -0.135582 236 236 236
-0.089844 0.097656 -0.134239 236 236 236
-0.085938 0.097656 -0.133013 237 237 237
-0.082031 0.097656 -0.130621 237 237 237
-0.078125 0.097656 -0.127372 238 238 238
-0.074219 0.097656 -0.123405 239 239 239
-0.070312 0.097656 -0.119023 239 239 239
-0.066406 0.097656 -0.117187 240 240 240
-0.062500 0.097656 -0.118573 240 240 240
-0.058594 0.097656 -0.121792 240 240 240
-0.054688 0.097656 -0.126270 240 240 240
-0.050781 0.097656 -0.130567 240 240 240
-0.046875 0.097656 -0.134270 241 241 241
-0.042969 0.097656 -0.137012 241 241 241
-0.039062 0.097656 -0.138967 241 241 241
-0.035156 0.097656 -0.140698 241 241 241
-0.031250 0.097656 -0.142189 241 241 241
-0.027344 0.097656 -0.143268 241 241 241
-0.023438 0.097656 -0.143944 241 241 241
-0.019531 0.097656 -0.144424 240 240 240
-0.015625 0.097656 -0.144743 239 239 239
-0.011719 0.097656 -0.144783 238 238 238
-0.007812 0.097656 -0.144586 237 237 237
-0.003906 0.097656 -0.144277 228 227 225
0.000000 0.097656 -0.143861 236 236 234
0.003906 0.097656 -0.143224 236 236 236
0.007812 0.097656 -0.142457 237 236 236
0.011719 0.097656 -0.141532 236 236 236
0.015625 0.097656 -0.140506 235 235 235
0.019531 0.097656 -0.139396 233 232 233
0.023438 0.097656 -0.138294 229 228 229
0.027344 0.097656 -0.136960 224 221 223
0.031250 0.097656 -0.135586 210 204 205
0.035156 0.097656 -0.134293 217 208 209
0.039062 0.097656 -0.133089 215 206 205
0.042969 0.097656 -0.131832 224 221 218
0.046875 0.097656 -0.130586 191 179 173
0.050781 0.097656 -0.129488 101 86 81
0.054688 0.097656 -0.128417 90 76 73
0.058594 0.097656 -0.127361 109 98 102
0.062500 0.097656 -0.126216 110 100 108
0.066406 0.097656 -0.124868 150 142 153
0.070312 0.097656 -0.123324 105 99 111
0.074219 0.097656 -0.121745 166 160 174
0.078125 0.097656 -0.120016 139 135 149
0.082031 0.097656 -0.118111 166 159 175
0.085938 0.097656 -0.116012 126 120 134
0.089844 0.097656 -0.113803 174 166 179
0.093750 0.097656 -0.111573 137 129 140
0.097656 0.097656 -0.108928 129 122 130
0.101562 0.097656 -0.106075 205 198 206
0.105469 0.097656 -0.103107 177 172 179
0.109375 0.097656 -0.100053 119 118 126
0.113281 0.097656 -0.097326 119 119 129
0.117188 0.097656 -0.094686 155 158 167
0.121094 0.097656 -0.092100 121 123 135
0.125000 0.097656 -0.089535 157 159 172
0.128906 0.097656 -0.086953 120 122 135
0.132812 0.097656 -0.084392 164 168 180
0.136719 0.097656 -0.081949 125 127 140
0.140625 0.097656 -0.079466 131 133 145
0.144531 0.097656 -0.076737 147 149 161
0.148438 0.097656 -0.073649 156 156 168
0.152344 0.097656 -0.070532 184 182 193
0.156250 0.097656 -0.066666 211 209 220
0.160156 0.097656 -0.062203 140 137 146
0.164062 0.097656 -0.057172 119 114 121
0.167969 0.097656 -0.049746 179 170 173
0.171875 0.097656 -0.040424 169 160 163
0.203125 0.097656 0.044543 117 86 84
0.207031 0.097656 0.035826 104 73 71
0.210938 0.097656 0.026389 96 71 66
0.214844 0.097656 0.018389 95 78 71
0.218750 0.097656 0.013195 79 69 60
0.222656 0.097656 0.010161 78 71 66
0.226562 0.097656 0.007872 77 71 67
0.230469 0.097656 0.006121 134 127 123
0.234375 0.097656 0.004575 148 138 135
0.238281 0.097656 0.003319 109 97 97
0.242188 0.097656 0.002243 77 66 68
0.246094 0.097656 0.001384 70 61 62
0.250000 0.097656 0.000736 88 77 79
0.253906 0.097656 0.000149 114 101 105
0.257812 0.097656 -0.000264 141 129 133
0.261719 0.097656 -0.000638 158 148 152
0.265625 0.097656 -0.000822 164 156 159
0.269531 0.097656 -0.000793 170 163 166
0.273438 0.097656 -0.000693 172 167 170
0.277344 0.097656 -0.000571 167 162 165
0.281250 0.097656 -0.000473 160 156 159
0.285156 0.097656 -0.000341 159 155 158
0.289062 0.097656 -0.000194 161 159 161
0.292969 0.097656 -0.000064 166 164 166
0.296875 0.097656 -0.000035 168 165 167
0.300781 0.097656 -0.000025 165 163 164
0.304688 0.097656 -0.000099 162 161 161
0.308594 0.097656 -0.000548 159 158 158
0.312500 0.097656 -0.001380 150 149 149
0.316406 0.097656 -0.002337 148 144 144
0.320312 0.097656 -0.003564 142 127 126
0.324219 0.097656 -0.004980 148 104 104
0.328125 0.097656 -0.006534 201 145 133
0.332031 0.097656 -0.008225 221 170 148
0.335938 0.097656 -0.009045 231 185 159
0.339844 0.097656 -0.010019 238 203 175
0.343750 0.097656 -0.010324 238 212 181
0.347656 0.097656 -0.008666 212 178 129
0.351562 0.097656 -0.004830 20 10 7
0.355469 0.097656 0.005118 228 188 149
-0.156250 0.093750 -0.093142 179 176 176
-0.152344 0.093750 -0.100467 233 227 229
-0.148438 0.093750 -0.107014 195 190 191
-0.144531 0.093750 -0.113017 179 176 176
-0.140625 0.093750 -0.117103 197 194 194
-0.136719 0.093750 -0.120724 218 216 216
-0.132812 0.093750 -0.123639 231 230 230
-0.128906 0.093750 -0.126742 236 236 236
-0.125000 0.093750 -0.129642 238 238 238
-0.121094 0.093750 -0.131672 238 238 238
-0.117188 0.093750 -0.133403 238 237 237
-0.113281 0.093750 -0.135163 237 237 237
-0.109375 0.093750 -0.136653 237 237 237
-0.105469 0.093750 -0.137166 236 236 236
-0.101562 0.093750 -0.136448 235 235 235
-0.097656 0.093750 -0.136438 234 234 234
-0.093750 0.093750 -0.136004 234 234 234
-0.089844 0.093750 -0.134529 234 234 234
-0.085938 0.093750 -0.133147 234 234 234
-0.082031 0.093750 -0.130579 235 235 235
-0.078125 0.093750 -0.127099 236 236 236
-0.074219 0.093750 -0.122575 237 237 237
-0.070312 0.093750 -0.117358 238 238 238
-0.066406 0.093750 -0.115159 239 239 239
-0.062500 0.093750 -0.116761 240 240 240
-0.058594 0.093750 -0.119931 240 240 240
-0.054688 0.093750 -0.124403 240 240 240
-0.050781 0.093750 -0.128770 241 241 241
-0.046875 0.093750 -0.132548 241 241 241
-0.042969 0.093750 -0.135373 242 242 242
-0.039062 0.093750 -0.137435 242 242 242
-0.035156 0.093750 -0.139257 242 242 242
-0.031250 0.093750 -0.140838 242 242 242
-0.027344 0.093750 -0.141992 242 242 242
-0.023438 0.093750 -0.142723 241 241 241
-0.019531 0.093750 -0.143256 241 241 241
-0.015625 0.093750 -0.143625 240 240 240
-0.011719 0.093750 -0.143694 239 239 239
-0.007812 0.093750 -0.143523 238 238 238
-0.003906 0.093750 -0.143244 237 237 235
0.000000 0.093750 -0.142863 236 236 234
0.003906 0.093750 -0.142269 234 234 234
0.007812 0.093750 -0.141555 229 229 229
0.011719 0.093750 -0.140687 232 231 233
0.015625 0.093750 -0.139713 234 234 234
0.019531 0.093750 -0.138657 232 232 232
0.023438 0.093750 -0.137606 228 227 229
0.027344 0.093750 -0.136305 226 224 226
0.031250 0.093750 -0.134959 219 215 217
0.035156 0.093750 -0.133699 218 214 216
0.039062 0.093750 -0.132509 214 211 210
0.042969 0.093750 -0.131260 206 198 196
0.046875 0.093750 -0.130008 222 212 208
0.050781 0.093750 -0.128905 122 108 105
0.054688 0.093750 -0.127821 72 58 57
0.058594 0.093750 -0.126758 123 111 113
0.062500 0.093750 -0.125604 88 77 85
0.066406 0.093750 -0.124217 154 146 157
0.070312 0.093750 -0.122628 161 157 171
0.074219 0.093750 -0.120990 159 156 173
0.078125 0.093750 -0.119204 152 151 169
0.082031 0.093750 -0.117232 172 169 188
0.085938 0.093750 -0.115056 86 82 99
0.089844 0.093750 -0.112779 86 80 94
0.093750 0.093750 -0.110497 79 71 82
0.097656 0.093750 -0.107787 98 88 97
0.101562 0.093750 -0.104867 154 147 155
0.105469 0.093750 -0.101835 156 150 160
0.109375 0.093750 -0.098737 178 176 187
0.113281 0.093750 -0.095978 86 88 100
0.117188 0.093750 -0.093307 141 147 159
0.121094 0.093750 -0.090719 120 126 140
0.125000 0.093750 -0.088151 102 108 124
0.128906 0.093750 -0.085524 102 108 124
0.132812 0.093750 -0.082883 129 136 152
0.136719 0.093750 -0.080397 176 183 199
0.140625 0.093750 -0.077814 118 125 141
0.144531 0.093750 -0.075080 162 168 182
0.148438 0.093750 -0.071863 174 180 194
0.152344 0.093750 -0.068458 191 193 206
0.156250 0.093750 -0.064356 177 177 189
0.160156 0.093750 -0.059812 194 192 203
0.164062 0.093750 -0.053522 120 111 116
0.167969 0.093750 -0.046226 91 82 87
0.210938 0.093750 0.038081 124 96 92
0.214844 0.093750 0.024544 81 65 59
0.218750 0.093750 0.018197 123 111 108
0.222656 0.093750 0.014492 131 119 119
0.226562 0.093750 0.012212 130 116 116
0.230469 0.093750 0.010249 116 101 99
0.234375 0.093750 0.008434 101 84 82
0.238281 0.093750 0.006729 91 76 78
0.242188 0.093750 0.005127 92 81 83
0.246094 0.093750 0.003757 104 94 96
0.250000 0.093750 0.002626 120 109 111
0.253906 0.093750 0.001696 133 123 126
0.257812 0.093750 0.000908 142 131 135
0.261719 0.093750 0.000252 146 136 139
0.265625 0.093750 -0.000190 155 146 150
0.269531 0.093750 -0.000361 159 151 155
0.273438 0.093750 -0.000351 158 150 154
0.277344 0.093750 -0.000361 159 151 155
0.281250 0.093750 -0.000378 156 148 152
0.285156 0.093750 -0.000389 156 149 153
0.289062 0.093750 -0.000395 160 154 157
0.292969 0.093750 -0.000419 166 160 163
0.296875 0.093750 -0.000539 171 165 168
0.300781 0.093750 -0.000692 172 167 169
0.304688 0.093750 -0.000975 175 171 172
0.308594 0.093750 -0.001602 176 173 174
0.312500 0.093750 -0.002605 157 153 154
0.316406 0.093750 -0.003797 131 120 120
0.320312 0.093750 -0.005270 157 128 114
0.324219 0.093750 -0.006985 182 133 117
0.328125 0.093750 -0.008779 208 148 128
0.332031 0.093750 -0.010338 223 164 138
0.335938 0.093750 -0.011532 228 171 143
0.339844 0.093750 -0.013247 234 183 152
0.343750 0.093750 -0.013368 237 195 165
0.347656 0.093750 -0.013897 231 189 154
0.351562 0.093750 -0.012446 204 158 112
0.355469 0.093750 -0.007291 88 62 29
0.359375 0.093750 0.001212 218 171 135
-0.156250 0.089844 -0.094967 173 170 170
-0.152344 0.089844 -0.101848 229 223 225
-0.148438 0.089844 -0.108171 188 184 185
-0.144531 0.089844 -0.114052 173 170 170
-0.140625 0.089844 -0.118043 192 189 189
-0.136719 0.089844 -0.121403 214 212 212
-0.132812 0.089844 -0.124229 227 226 227
-0.128906 0.089844 -0.127298 234 233 233
-0.125000 0.089844 -0.130157 236 236 236
-0.121094 0.089844 -0.132121 237 237 237
-0.117188 0.089844 -0.133760 237 237 237
-0.113281 0.089844 -0.135508 237 237 237
-0.109375 0.089844 -0.137097 237 236 236
-0.105469 0.089844 -0.137591 235 235 235
-0.101562 0.089844 -0.136751 234 234 234
-0.097656 0.089844 -0.136926 232 232 232
-0.093750 0.089844 -0.136458 231 231 231
-0.089844 0.089844 -0.134832 231 231 231
-0.085938 0.089844 -0.133321 232 232 232
-0.082031 0.089844 -0.130607 233 233 233
-0.078125 0.089844 -0.126899 234 234 234
-0.074219 0.089844 -0.121830 236 235 235
-0.070312 0.089844 -0.115738 237 237 237
-0.066406 0.089844 -0.113390 238 238 238
-0.062500 0.089844 -0.115132 239 239 239
-0.058594 0.089844 -0.118264 240 240 240
-0.054688 0.089844 -0.122698 241 241 241
