ply
    format ascii 1.0
    element vertex 40074
    property float x
    property float y
    property float z
    property uchar red
    property uchar green
    property uchar blue
    end_header
0.058594 -0.058594 0.106368 165 172 190
0.062500 -0.058594 0.108664 167 176 191
0.066406 -0.058594 0.110292 178 187 204
0.070312 -0.058594 0.111071 180 189 206
0.074219 -0.058594 0.111514 169 181 197
0.078125 -0.058594 0.112007 166 178 194
0.082031 -0.058594 0.112157 156 168 184
0.085938 -0.058594 0.112020 180 193 210
0.089844 -0.058594 0.111868 159 172 189
0.093750 -0.058594 0.111676 173 186 203
0.097656 -0.058594 0.111341 169 182 201
0.101562 -0.058594 0.110956 175 190 209
0.105469 -0.058594 0.110375 137 152 171
0.109375 -0.058594 0.109690 176 191 210
0.113281 -0.058594 0.108921 160 175 196
0.117188 -0.058594 0.108087 130 143 162
0.121094 -0.058594 0.107144 187 195 214
0.125000 -0.058594 0.105956 183 190 208
0.128906 -0.058594 0.104682 191 199 212
0.132812 -0.058594 0.103328 204 213 222
0.136719 -0.058594 0.101749 196 207 211
0.140625 -0.058594 0.099970 170 181 185
0.144531 -0.058594 0.098196 151 162 166
0.148438 -0.058594 0.096314 146 157 163
0.152344 -0.058594 0.094402 211 221 233
0.156250 -0.058594 0.092682 237 247 252
0.160156 -0.058594 0.090940 244 251 252
0.164062 -0.058594 0.089214 237 245 251
0.167969 -0.058594 0.087769 243 248 249
0.171875 -0.058594 0.086743 239 241 244
0.175781 -0.058594 0.085769 231 230 234
0.179688 -0.058594 0.084866 221 219 220
0.183594 -0.058594 0.083319 223 214 222
0.187500 -0.058594 0.079543 208 195 205
0.191406 -0.058594 0.074241 184 160 177
0.195312 -0.058594 0.069375 180 155 155
0.199219 -0.058594 0.067425 205 169 159
0.203125 -0.058594 0.067083 219 170 151
0.207031 -0.058594 0.066242 229 172 146
0.210938 -0.058594 0.061922 231 172 144
0.214844 -0.058594 0.056083 220 165 137
0.218750 -0.058594 0.050223 197 160 140
0.222656 -0.058594 0.041176 118 115 126
-0.062500 -0.062500 0.029526 194 186 202
-0.058594 -0.062500 0.039761 204 191 199
-0.054688 -0.062500 0.047015 155 136 145
-0.050781 -0.062500 0.064635 132 113 120
-0.046875 -0.062500 0.117548 128 113 117
-0.042969 -0.062500 0.127446 126 113 117
-0.039062 -0.062500 0.130250 125 116 118
-0.035156 -0.062500 0.133179 129 124 125
-0.031250 -0.062500 0.136723 129 125 127
-0.027344 -0.062500 0.140267 109 103 108
-0.023438 -0.062500 0.143693 95 76 80
-0.019531 -0.062500 0.146676 123 86 72
-0.015625 -0.062500 0.149846 163 109 85
-0.011719 -0.062500 0.152683 194 129 103
-0.007812 -0.062500 0.155245 205 139 108
-0.003906 -0.062500 0.157484 206 140 109
0.000000 -0.062500 0.160324 203 142 116
0.003906 -0.062500 0.157564 204 159 133
0.007812 -0.062500 0.155229 193 155 131
0.011719 -0.062500 0.072276 124 105 104
0.015625 -0.062500 0.080724 142 149 159
0.019531 -0.062500 0.082385 154 160 169
0.023438 -0.062500 0.085676 128 133 140
0.027344 -0.062500 0.088415 106 110 119
0.031250 -0.062500 0.091243 117 120 130
0.035156 -0.062500 0.093603 150 153 165
0.039062 -0.062500 0.095958 186 188 202
0.042969 -0.062500 0.098310 190 189 204
0.046875 -0.062500 0.100502 175 174 192
0.050781 -0.062500 0.102943 173 172 190
0.054688 -0.062500 0.105154 175 176 193
0.058594 -0.062500 0.107421 168 174 185
0.062500 -0.062500 0.109632 160 170 180
0.066406 -0.062500 0.111101 157 167 177
0.070312 -0.062500 0.111652 174 184 194
0.074219 -0.062500 0.111901 176 186 198
0.078125 -0.062500 0.112238 188 200 214
0.082031 -0.062500 0.112246 169 178 193
0.085938 -0.062500 0.112036 188 200 214
0.089844 -0.062500 0.111855 176 188 204
0.093750 -0.062500 0.111655 188 200 216
0.097656 -0.062500 0.111344 184 196 212
0.101562 -0.062500 0.111018 187 199 215
0.105469 -0.062500 0.110497 135 148 164
0.109375 -0.062500 0.109865 183 196 212
0.113281 -0.062500 0.109144 170 183 199
0.117188 -0.062500 0.108352 124 136 150
0.121094 -0.062500 0.107417 170 176 190
0.125000 -0.062500 0.106209 194 198 210
0.128906 -0.062500 0.104937 189 196 204
0.132812 -0.062500 0.103628 165 172 178
0.136719 -0.062500 0.102101 157 165 168
0.140625 -0.062500 0.100349 174 184 185
0.144531 -0.062500 0.098522 212 220 223
0.148438 -0.062500 0.096483 244 250 250
0.152344 -0.062500 0.094429 242 247 247
0.156250 -0.062500 0.092535 241 246 247
0.160156 -0.062500 0.090671 235 239 247
0.164062 -0.062500 0.088889 239 241 246
0.167969 -0.062500 0.087425 240 241 243
0.171875 -0.062500 0.086488 229 231 233
0.175781 -0.062500 0.085445 222 219 220
0.179688 -0.062500 0.084509 227 218 223
0.183594 -0.062500 0.082872 223 212 219
0.187500 -0.062500 0.078519 207 190 202
0.191406 -0.062500 0.072664 178 150 164
0.195312 -0.062500 0.067866 185 158 151
0.199219 -0.062500 0.066409 208 169 156
0.203125 -0.062500 0.066228 221 170 150
0.207031 -0.062500 0.065516 230 172 144
0.210938 -0.062500 0.061189 231 171 142
0.214844 -0.062500 0.055392 220 163 135
0.218750 -0.062500 0.049659 195 153 137
0.222656 -0.062500 0.040939 99 90 107
-0.062500 -0.066406 0.029061 168 157 185
-0.058594 -0.066406 0.039801 194 176 190
-0.054688 -0.066406 0.048651 151 128 140
-0.050781 -0.066406 0.062509 132 107 117
-0.046875 -0.066406 0.113728 128 104 112
-0.042969 -0.066406 0.132957 129 108 114
-0.039062 -0.066406 0.134567 128 114 118
-0.035156 -0.066406 0.136679 131 122 125
-0.031250 -0.066406 0.139670 126 119 122
-0.027344 -0.066406 0.142055 100 89 94
-0.023438 -0.066406 0.145044 83 60 62
-0.019531 -0.066406 0.147843 127 89 69
-0.015625 -0.066406 0.151262 167 113 87
-0.011719 -0.066406 0.154524 192 127 102
-0.007812 -0.066406 0.156875 203 136 107
-0.003906 -0.066406 0.159000 205 138 108
0.000000 -0.066406 0.161761 201 138 112
0.003906 -0.066406 0.158204 206 160 132
0.007812 -0.066406 0.160720 202 169 143
0.011719 -0.066406 0.085139 131 107 91
0.015625 -0.066406 0.079701 140 137 139
0.019531 -0.066406 0.082748 151 149 154
0.023438 -0.066406 0.085896 129 127 130
0.027344 -0.066406 0.088812 133 131 136
0.031250 -0.066406 0.091702 156 154 161
0.035156 -0.066406 0.094606 169 169 176
0.039062 -0.066406 0.096937 174 174 181
0.042969 -0.066406 0.099230 176 175 183
0.046875 -0.066406 0.101321 169 168 175
0.050781 -0.066406 0.103761 156 155 162
0.054688 -0.066406 0.105904 141 144 151
0.058594 -0.066406 0.108115 89 97 99
0.062500 -0.066406 0.110222 101 111 112
0.066406 -0.066406 0.111549 122 132 134
0.070312 -0.066406 0.112020 146 154 159
0.074219 -0.066406 0.112282 166 175 182
0.078125 -0.066406 0.112651 180 190 199
0.082031 -0.066406 0.112706 190 198 209
0.085938 -0.066406 0.112580 193 203 215
0.089844 -0.066406 0.112504 171 180 195
0.093750 -0.066406 0.112388 176 185 200
0.097656 -0.066406 0.112157 180 190 202
0.101562 -0.066406 0.111888 180 190 202
0.105469 -0.066406 0.111417 177 187 199
0.109375 -0.066406 0.110816 177 187 197
0.113281 -0.066406 0.110071 181 191 200
0.117188 -0.066406 0.109243 187 196 203
0.121094 -0.066406 0.108263 180 183 188
0.125000 -0.066406 0.106989 149 150 154
0.128906 -0.066406 0.105692 144 145 149
0.132812 -0.066406 0.104395 187 188 190
0.136719 -0.066406 0.102853 232 233 235
0.140625 -0.066406 0.101083 241 245 246
0.144531 -0.066406 0.099201 232 233 235
0.148438 -0.066406 0.097100 221 224 225
0.152344 -0.066406 0.095062 233 233 233
0.156250 -0.066406 0.093123 233 234 235
0.160156 -0.066406 0.091192 237 235 237
0.164062 -0.066406 0.089291 238 233 237
0.167969 -0.066406 0.087691 236 231 235
0.171875 -0.066406 0.086713 233 227 231
0.175781 -0.066406 0.085445 231 222 226
0.179688 -0.066406 0.084272 228 217 223
0.183594 -0.066406 0.082320 224 209 217
0.187500 -0.066406 0.077187 208 185 198
0.191406 -0.066406 0.070800 183 153 162
0.195312 -0.066406 0.066215 199 172 159
0.199219 -0.066406 0.065281 214 175 159
0.203125 -0.066406 0.065245 223 172 150
0.207031 -0.066406 0.064577 230 173 144
0.210938 -0.066406 0.060400 232 172 142
0.214844 -0.066406 0.054679 222 165 138
0.218750 -0.066406 0.048544 198 157 142
0.222656 -0.066406 0.039134 93 83 98
-0.062500 -0.070312 0.027842 178 171 193
-0.058594 -0.070312 0.039717 201 187 200
-0.054688 -0.070312 0.049376 156 136 149
-0.050781 -0.070312 0.059442 129 104 115
-0.046875 -0.070312 0.094354 121 93 103
-0.042969 -0.070312 0.133661 123 98 105
-0.039062 -0.070312 0.137160 127 110 116
-0.035156 -0.070312 0.138448 126 115 119
-0.031250 -0.070312 0.142538 106 97 100
-0.027344 -0.070312 0.144440 66 54 59
-0.023438 -0.070312 0.147144 65 41 43
-0.019531 -0.070312 0.149802 122 83 62
-0.015625 -0.070312 0.153118 165 112 81
-0.011719 -0.070312 0.156338 186 124 94
-0.007812 -0.070312 0.158299 198 131 101
-0.003906 -0.070312 0.160335 203 136 106
0.000000 -0.070312 0.162890 199 134 108
0.003906 -0.070312 0.159700 204 152 126
0.007812 -0.070312 0.161787 203 166 143
0.011719 -0.070312 0.108032 131 106 86
0.015625 -0.070312 0.077775 125 116 110
0.019531 -0.070312 0.083367 156 148 150
0.023438 -0.070312 0.085730 111 105 107
0.027344 -0.070312 0.088669 90 87 89
0.031250 -0.070312 0.091464 123 120 123
0.035156 -0.070312 0.095106 155 153 157
0.039062 -0.070312 0.097595 168 166 171
0.042969 -0.070312 0.100089 179 178 182
0.046875 -0.070312 0.102298 187 186 190
0.050781 -0.070312 0.104837 191 190 194
0.054688 -0.070312 0.106936 193 194 194
0.058594 -0.070312 0.109167 197 200 200
0.062500 -0.070312 0.111219 209 219 214
0.066406 -0.070312 0.112441 219 227 225
0.070312 -0.070312 0.112855 213 223 222
0.074219 -0.070312 0.113038 200 208 211
0.078125 -0.070312 0.113291 181 189 194
0.082031 -0.070312 0.113275 165 172 182
0.085938 -0.070312 0.113095 155 163 174
0.089844 -0.070312 0.112988 156 162 174
0.093750 -0.070312 0.112823 161 169 180
0.097656 -0.070312 0.112569 169 175 187
0.101562 -0.070312 0.112282 172 181 190
0.105469 -0.070312 0.111863 175 182 192
0.109375 -0.070312 0.111358 178 187 193
0.113281 -0.070312 0.110680 185 192 198
0.117188 -0.070312 0.109932 192 197 201
0.121094 -0.070312 0.109047 235 236 238
0.125000 -0.070312 0.107872 232 232 232
0.128906 -0.070312 0.106684 238 237 237
0.132812 -0.070312 0.105473 244 244 244
0.136719 -0.070312 0.103957 238 237 238
0.140625 -0.070312 0.102203 225 224 224
0.144531 -0.070312 0.100299 225 225 225
0.148438 -0.070312 0.098152 222 221 221
0.152344 -0.070312 0.096066 223 222 222
0.156250 -0.070312 0.094016 228 226 227
0.160156 -0.070312 0.091946 231 227 230
0.164062 -0.070312 0.089827 231 225 229
0.167969 -0.070312 0.088069 231 224 228
0.171875 -0.070312 0.087059 230 223 226
0.175781 -0.070312 0.085479 230 221 224
0.179688 -0.070312 0.083963 230 219 224
0.183594 -0.070312 0.081464 225 210 218
0.187500 -0.070312 0.075244 200 174 188
0.191406 -0.070312 0.067866 178 145 152
0.195312 -0.070312 0.064164 203 172 158
0.199219 -0.070312 0.064058 217 177 158
0.203125 -0.070312 0.064334 224 173 150
0.207031 -0.070312 0.063653 231 175 145
0.210938 -0.070312 0.059470 233 175 144
0.214844 -0.070312 0.053186 224 169 142
0.218750 -0.070312 0.046436 203 162 149
0.222656 -0.070312 0.037529 93 81 97
-0.062500 -0.074219 0.024841 111 106 129
-0.058594 -0.074219 0.040165 175 168 179
-0.054688 -0.074219 0.050849 157 146 155
-0.050781 -0.074219 0.052362 141 119 129
-0.046875 -0.074219 0.065368 141 104 117
-0.042969 -0.074219 0.108643 148 109 120
-0.039062 -0.074219 0.135907 154 128 136
-0.035156 -0.074219 0.142698 147 131 137
-0.031250 -0.074219 0.146119 108 94 99
-0.027344 -0.074219 0.147417 61 43 50
-0.023438 -0.074219 0.150084 71 47 44
-0.019531 -0.074219 0.152240 116 81 59
-0.015625 -0.074219 0.154776 152 102 72
-0.011719 -0.074219 0.157643 171 113 83
-0.007812 -0.074219 0.159293 184 120 89
-0.003906 -0.074219 0.161382 193 128 96
0.000000 -0.074219 0.163741 190 126 99
0.003906 -0.074219 0.161467 196 141 115
0.007812 -0.074219 0.160248 196 156 135
0.011719 -0.074219 0.134374 122 100 83
0.015625 -0.074219 0.075030 95 85 76
0.019531 -0.074219 0.084016 134 125 124
0.023438 -0.074219 0.085096 90 84 84
0.027344 -0.074219 0.087807 67 64 64
0.031250 -0.074219 0.090329 92 90 91
0.035156 -0.074219 0.095473 143 139 141
0.039062 -0.074219 0.098470 182 179 181
0.042969 -0.074219 0.100690 187 184 186
0.046875 -0.074219 0.102664 159 158 159
0.050781 -0.074219 0.104966 129 129 130
0.054688 -0.074219 0.106712 114 114 115
0.058594 -0.074219 0.108634 115 118 117
0.062500 -0.074219 0.110319 144 150 147
0.066406 -0.074219 0.111228 188 193 191
0.070312 -0.074219 0.111457 215 221 221
0.074219 -0.074219 0.111439 232 235 235
0.078125 -0.074219 0.111560 234 241 242
0.082031 -0.074219 0.111544 238 242 245
0.085938 -0.074219 0.111479 236 243 247
0.089844 -0.074219 0.111566 227 231 241
0.093750 -0.074219 0.111618 230 236 246
0.097656 -0.074219 0.111555 237 241 250
0.101562 -0.074219 0.111411 237 244 250
0.105469 -0.074219 0.111154 239 242 249
0.109375 -0.074219 0.110797 238 244 247
0.113281 -0.074219 0.110236 240 244 244
0.117188 -0.074219 0.109519 237 240 240
0.121094 -0.074219 0.108620 236 237 237
0.125000 -0.074219 0.107451 236 236 236
0.128906 -0.074219 0.106330 234 234 234
0.132812 -0.074219 0.105184 230 230 230
0.136719 -0.074219 0.103778 221 221 221
0.140625 -0.074219 0.102180 207 207 207
0.144531 -0.074219 0.100449 203 202 202
0.148438 -0.074219 0.098413 206 205 205
0.152344 -0.074219 0.096313 211 209 210
0.156250 -0.074219 0.094248 218 216 217
0.160156 -0.074219 0.092057 223 218 221
0.164062 -0.074219 0.089840 223 217 220
0.167969 -0.074219 0.088060 225 217 221
0.171875 -0.074219 0.087017 228 220 224
0.175781 -0.074219 0.085173 233 224 227
0.179688 -0.074219 0.083286 235 225 229
0.183594 -0.074219 0.080114 228 213 221
0.187500 -0.074219 0.072206 195 168 178
0.191406 -0.074219 0.063683 179 146 146
0.195312 -0.074219 0.061612 205 172 155
0.199219 -0.074219 0.062615 219 177 156
0.203125 -0.074219 0.063387 226 175 150
0.207031 -0.074219 0.062693 232 178 147
0.210938 -0.074219 0.058368 234 178 147
0.214844 -0.074219 0.051329 226 174 147
0.218750 -0.074219 0.044049 207 168 155
0.222656 -0.074219 0.036421 96 83 101
-0.062500 -0.078125 0.025686 102 100 122
-0.058594 -0.078125 0.041004 144 140 153
-0.054688 -0.078125 0.052433 130 123 132
-0.050781 -0.078125 0.057199 118 104 113
-0.046875 -0.078125 0.058428 117 91 101
-0.042969 -0.078125 0.067459 128 96 105
-0.039062 -0.078125 0.095592 143 120 128
-0.035156 -0.078125 0.134375 141 127 132
-0.031250 -0.078125 0.149734 99 85 89
-0.027344 -0.078125 0.149184 63 46 47
-0.023438 -0.078125 0.153220 77 56 47
-0.019531 -0.078125 0.155042 95 68 49
-0.015625 -0.078125 0.156414 117 78 56
-0.011719 -0.078125 0.159015 143 93 71
-0.007812 -0.078125 0.160431 158 102 77
-0.003906 -0.078125 0.162440 166 107 79
0.000000 -0.078125 0.164482 166 108 83
0.003906 -0.078125 0.163077 175 123 98
0.007812 -0.078125 0.158715 179 142 119
0.011719 -0.078125 0.151632 107 93 77
0.015625 -0.078125 0.073938 74 65 57
0.019531 -0.078125 0.083129 134 124 124
0.023438 -0.078125 0.083461 117 108 110
0.027344 -0.078125 0.086020 93 87 88
0.031250 -0.078125 0.088582 103 98 98
0.035156 -0.078125 0.092924 136 128 129
0.039062 -0.078125 0.098405 169 159 160
0.042969 -0.078125 0.101298 173 166 166
0.046875 -0.078125 0.103623 149 146 146
0.050781 -0.078125 0.106335 125 125 125
0.054688 -0.078125 0.108417 111 112 111
0.058594 -0.078125 0.110525 112 113 112
0.062500 -0.078125 0.112315 137 139 138
0.066406 -0.078125 0.113274 175 177 177
0.070312 -0.078125 0.113575 202 205 205
0.074219 -0.078125 0.113617 217 220 221
0.078125 -0.078125 0.113812 222 226 229
0.082031 -0.078125 0.113972 225 227 233
0.085938 -0.078125 0.114252 226 229 236
0.089844 -0.078125 0.114626 233 236 239
0.093750 -0.078125 0.114995 237 240 241
0.097656 -0.078125 0.115106 240 243 243
0.101562 -0.078125 0.115025 240 243 244
0.105469 -0.078125 0.114815 237 240 244
0.109375 -0.078125 0.114438 233 237 241
0.113281 -0.078125 0.113843 230 233 237
0.117188 -0.078125 0.112984 227 230 232
0.121094 -0.078125 0.111967 227 228 229
0.125000 -0.078125 0.110683 224 224 224
0.128906 -0.078125 0.109567 221 221 221
0.132812 -0.078125 0.108491 222 222 222
0.136719 -0.078125 0.107302 225 224 224
0.140625 -0.078125 0.105983 217 217 217
0.144531 -0.078125 0.104588 211 210 211
0.148438 -0.078125 0.102907 200 200 200
0.152344 -0.078125 0.100975 208 207 208
0.156250 -0.078125 0.098910 213 211 212
0.160156 -0.078125 0.096344 217 212 215
0.164062 -0.078125 0.093512 216 209 212
0.167969 -0.078125 0.090897 217 210 213
0.171875 -0.078125 0.089222 226 218 221
0.175781 -0.078125 0.086596 236 228 231
0.179688 -0.078125 0.083176 238 230 234
0.183594 -0.078125 0.078728 225 210 217
0.187500 -0.078125 0.067741 183 154 160
0.191406 -0.078125 0.058864 182 150 143
0.195312 -0.078125 0.058862 208 170 150
0.199219 -0.078125 0.061040 221 174 153
0.203125 -0.078125 0.061981 228 175 149
0.207031 -0.078125 0.061295 233 179 147
0.210938 -0.078125 0.057443 235 180 149
0.214844 -0.078125 0.050620 228 179 151
0.218750 -0.078125 0.040461 214 179 164
-0.062500 -0.082031 0.031210 65 71 88
-0.058594 -0.082031 0.043151 74 79 97
-0.054688 -0.082031 0.053727 61 57 70
-0.050781 -0.082031 0.060205 59 52 61
-0.046875 -0.082031 0.067739 62 51 59
-0.042969 -0.082031 0.067515 77 62 70
-0.039062 -0.082031 0.064405 102 90 96
-0.035156 -0.082031 0.082282 101 92 95
-0.031250 -0.082031 0.141964 64 54 54
-0.027344 -0.082031 0.153923 56 43 39
-0.023438 -0.082031 0.156171 75 56 48
-0.019531 -0.082031 0.157678 79 58 46
-0.015625 -0.082031 0.157942 90 63 50
-0.011719 -0.082031 0.160294 118 80 65
-0.007812 -0.082031 0.161541 130 86 69
-0.003906 -0.082031 0.163455 129 83 67
0.000000 -0.082031 0.165563 130 84 70
0.003906 -0.082031 0.165065 141 96 80
0.007812 -0.082031 0.159768 151 118 98
0.011719 -0.082031 0.159779 88 78 67
0.015625 -0.082031 0.081466 48 39 36
0.019531 -0.082031 0.079757 113 100 100
0.023438 -0.082031 0.081301 139 128 129
0.027344 -0.082031 0.083103 122 112 114
0.031250 -0.082031 0.085145 120 111 113
0.035156 -0.082031 0.085689 142 129 132
0.039062 -0.082031 0.093212 171 152 156
0.042969 -0.082031 0.100793 175 160 163
0.046875 -0.082031 0.105432 164 156 158
0.050781 -0.082031 0.109002 157 153 153
0.054688 -0.082031 0.111951 153 151 151
0.058594 -0.082031 0.114013 161 161 160
0.062500 -0.082031 0.116201 185 187 183
0.066406 -0.082031 0.117899 212 213 211
0.070312 -0.082031 0.118910 226 229 228
0.074219 -0.082031 0.119593 235 235 236
0.078125 -0.082031 0.120117 237 239 239
0.082031 -0.082031 0.120382 241 241 241
0.085938 -0.082031 0.120347 240 242 242
0.089844 -0.082031 0.120331 240 239 243
0.093750 -0.082031 0.120422 241 243 245
0.097656 -0.082031 0.120344 245 244 246
0.101562 -0.082031 0.120254 244 246 247
0.105469 -0.082031 0.120154 245 246 247
0.109375 -0.082031 0.120026 242 245 245
0.113281 -0.082031 0.119762 242 242 243
0.117188 -0.082031 0.119331 239 239 239
0.121094 -0.082031 0.118750 232 231 231
0.125000 -0.082031 0.117947 238 237 237
0.128906 -0.082031 0.117270 239 239 239
0.132812 -0.082031 0.116632 240 239 239
0.136719 -0.082031 0.115875 237 236 237
0.140625 -0.082031 0.114711 235 234 234
0.144531 -0.082031 0.113153 231 230 231
0.148438 -0.082031 0.111024 229 228 228
0.152344 -0.082031 0.108348 227 225 226
0.156250 -0.082031 0.105140 227 223 225
0.160156 -0.082031 0.101227 226 220 223
0.164062 -0.082031 0.096830 222 214 218
0.167969 -0.082031 0.092762 222 212 216
0.171875 -0.082031 0.090266 232 222 226
0.175781 -0.082031 0.086981 243 237 239
0.179688 -0.082031 0.082710 246 240 243
0.183594 -0.082031 0.075510 228 214 220
0.187500 -0.082031 0.061093 177 149 149
0.191406 -0.082031 0.054281 187 155 144
0.195312 -0.082031 0.056461 209 165 145
0.199219 -0.082031 0.059580 223 171 148
0.203125 -0.082031 0.060168 230 175 148
0.207031 -0.082031 0.059993 234 179 147
0.210938 -0.082031 0.057106 234 179 147
0.214844 -0.082031 0.050439 227 178 149
0.218750 -0.082031 0.040252 213 179 164
-0.062500 -0.085938 0.035993 20 24 36
-0.058594 -0.085938 0.045972 32 44 57
-0.054688 -0.085938 0.056492 29 37 47
-0.050781 -0.085938 0.061833 30 36 42
-0.046875 -0.085938 0.067719 34 33 39
-0.042969 -0.085938 0.072623 43 37 43
-0.039062 -0.085938 0.072578 58 53 57
-0.035156 -0.085938 0.061102 49 46 46
-0.031250 -0.085938 0.117511 37 34 29
-0.027344 -0.085938 0.160627 46 38 34
-0.023438 -0.085938 0.158522 65 51 45
-0.019531 -0.085938 0.159825 68 54 46
-0.015625 -0.085938 0.159141 73 56 47
-0.011719 -0.085938 0.161182 88 64 53
-0.007812 -0.085938 0.162361 89 64 54
-0.003906 -0.085938 0.164250 88 62 53
0.000000 -0.085938 0.166362 90 64 56
0.003906 -0.085938 0.166361 99 73 62
0.007812 -0.085938 0.161697 109 90 74
0.011719 -0.085938 0.160632 64 60 54
0.015625 -0.085938 0.108352 36 27 27
0.019531 -0.085938 0.073674 75 58 61
0.023438 -0.085938 0.079409 134 121 123
0.027344 -0.085938 0.079620 143 129 132
0.031250 -0.085938 0.080986 149 133 135
0.035156 -0.085938 0.081171 169 149 153
0.039062 -0.085938 0.079343 194 168 173
0.042969 -0.085938 0.080477 195 174 178
0.046875 -0.085938 0.082781 187 170 175
0.050781 -0.085938 0.082539 178 165 168
0.054688 -0.085938 0.082360 169 161 162
0.058594 -0.085938 0.081832 183 178 177
0.062500 -0.085938 0.082595 199 196 194
0.066406 -0.085938 0.083930 218 216 214
0.070312 -0.085938 0.085335 229 228 227
0.074219 -0.085938 0.087627 236 235 235
0.078125 -0.085938 0.091290 237 236 238
0.082031 -0.085938 0.096003 240 237 238
0.085938 -0.085938 0.100672 239 238 239
0.089844 -0.085938 0.105451 239 237 239
0.093750 -0.085938 0.108799 240 239 241
0.097656 -0.085938 0.110591 241 239 242
0.101562 -0.085938 0.111289 241 241 242
0.105469 -0.085938 0.110904 242 240 242
0.109375 -0.085938 0.109669 239 239 240
0.113281 -0.085938 0.107325 236 236 237
0.117188 -0.085938 0.103956 232 231 232
0.121094 -0.085938 0.099421 223 222 223
0.125000 -0.085938 0.095008 230 229 230
0.128906 -0.085938 0.091232 232 231 231
0.132812 -0.085938 0.088997 232 231 231
0.136719 -0.085938 0.088218 224 223 224
0.140625 -0.085938 0.088592 220 218 219
0.144531 -0.085938 0.090104 220 218 219
0.148438 -0.085938 0.092666 222 220 222
0.152344 -0.085938 0.096083 224 222 223
0.156250 -0.085938 0.099220 222 218 221
0.160156 -0.085938 0.101132 216 211 214
0.164062 -0.085938 0.099726 208 200 205
0.167969 -0.085938 0.095736 207 197 202
0.171875 -0.085938 0.091380 224 213 218
0.175781 -0.085938 0.086725 243 236 239
0.179688 -0.085938 0.080774 246 241 244
0.183594 -0.085938 0.067103 218 204 208
0.187500 -0.085938 0.053321 161 130 125
0.191406 -0.085938 0.050644 188 149 137
0.195312 -0.085938 0.054668 210 160 140
0.199219 -0.085938 0.057987 225 170 146
0.203125 -0.085938 0.058586 232 176 147
0.207031 -0.085938 0.059008 235 178 145
0.210938 -0.085938 0.057207 234 177 143
0.214844 -0.085938 0.050084 227 178 148
0.218750 -0.085938 0.005293 218 191 174
-0.062500 -0.089844 0.040633 21 30 38
-0.058594 -0.089844 0.050263 29 45 53
-0.054688 -0.089844 0.058800 27 42 48
-0.050781 -0.089844 0.063936 30 47 48
-0.046875 -0.089844 0.068306 31 46 44
-0.042969 -0.089844 0.071589 29 34 34
-0.039062 -0.089844 0.074270 25 28 28
-0.035156 -0.089844 0.067206 23 25 24
-0.031250 -0.089844 0.096496 25 26 23
-0.027344 -0.089844 0.166435 36 32 30
-0.023438 -0.089844 0.160138 51 41 37
-0.019531 -0.089844 0.161145 51 42 37
-0.015625 -0.089844 0.160080 53 42 37
-0.011719 -0.089844 0.161940 58 44 39
-0.007812 -0.089844 0.163062 57 45 40
-0.003906 -0.089844 0.164932 60 47 43
0.000000 -0.089844 0.167035 66 53 48
0.003906 -0.089844 0.167224 74 60 53
0.007812 -0.089844 0.163945 84 72 63
0.011719 -0.089844 0.159224 56 53 49
0.015625 -0.089844 0.140306 36 29 31
0.019531 -0.089844 0.067174 48 32 38
0.023438 -0.089844 0.077158 100 87 90
0.027344 -0.089844 0.075724 143 131 133
0.031250 -0.089844 0.076598 164 146 150
0.035156 -0.089844 0.077507 182 155 163
0.039062 -0.089844 0.077007 194 158 169
0.042969 -0.089844 0.075063 181 151 161
0.046875 -0.089844 0.072650 167 137 146
0.050781 -0.089844 0.071532 152 120 129
0.054688 -0.089844 0.072167 129 105 112
0.058594 -0.089844 0.073454 121 101 106
0.062500 -0.089844 0.074373 123 106 110
0.066406 -0.089844 0.074716 133 117 122
0.070312 -0.089844 0.074292 144 131 135
0.074219 -0.089844 0.073714 153 140 144
0.078125 -0.089844 0.073023 156 145 150
0.082031 -0.089844 0.072363 154 143 149
0.085938 -0.089844 0.071888 150 141 146
0.089844 -0.089844 0.071923 149 141 146
0.093750 -0.089844 0.072331 151 144 149
0.097656 -0.089844 0.072652 154 146 152
0.101562 -0.089844 0.072681 156 149 155
0.105469 -0.089844 0.072386 155 148 154
0.109375 -0.089844 0.071788 150 144 150
0.113281 -0.089844 0.070703 140 134 140
0.117188 -0.089844 0.069354 129 124 130
0.121094 -0.089844 0.067777 126 121 128
0.125000 -0.089844 0.066221 128 123 129
0.128906 -0.089844 0.064797 132 127 133
0.132812 -0.089844 0.063655 136 131 138
0.136719 -0.089844 0.062382 135 130 136
0.140625 -0.089844 0.060938 129 124 131
0.144531 -0.089844 0.059616 128 122 130
0.148438 -0.089844 0.058419 138 132 140
0.152344 -0.089844 0.057711 153 146 154
0.156250 -0.089844 0.057421 155 146 156
0.160156 -0.089844 0.057149 149 136 147
0.164062 -0.089844 0.059635 137 120 132
0.167969 -0.089844 0.066746 135 116 128
0.171875 -0.089844 0.072428 167 148 159
0.175781 -0.089844 0.072110 215 206 212
0.179688 -0.089844 0.063828 225 219 223
0.183594 -0.089844 0.050155 158 141 145
0.187500 -0.089844 0.045496 133 103 94
0.191406 -0.089844 0.047695 185 139 126
0.195312 -0.089844 0.053386 211 156 136
0.199219 -0.089844 0.056640 226 169 143
0.203125 -0.089844 0.057498 233 175 145
0.207031 -0.089844 0.058252 235 177 142
0.210938 -0.089844 0.056637 234 175 139
0.214844 -0.089844 0.048160 226 176 146
-0.062500 -0.093750 0.044891 26 36 44
-0.058594 -0.093750 0.053771 32 47 56
-0.054688 -0.093750 0.061118 29 42 49
-0.050781 -0.093750 0.065778 29 44 49
-0.046875 -0.093750 0.070033 31 47 48
-0.042969 -0.093750 0.073429 32 45 44
-0.039062 -0.093750 0.074474 29 38 36
-0.035156 -0.093750 0.071332 28 33 31
-0.031250 -0.093750 0.092287 27 29 27
-0.027344 -0.093750 0.168844 38 35 32
-0.023438 -0.093750 0.161170 48 39 36
-0.019531 -0.093750 0.161830 43 35 32
-0.015625 -0.093750 0.160768 45 36 33
-0.011719 -0.093750 0.162627 49 39 36
-0.007812 -0.093750 0.163755 52 41 39
-0.003906 -0.093750 0.165568 55 43 42
0.000000 -0.093750 0.167465 62 49 47
0.003906 -0.093750 0.167741 70 56 53
0.007812 -0.093750 0.165957 81 65 62
0.011719 -0.093750 0.159105 67 57 54
0.015625 -0.093750 0.157832 48 39 39
0.019531 -0.093750 0.068437 35 26 30
0.023438 -0.093750 0.072577 38 31 34
0.027344 -0.093750 0.071248 79 71 74
0.031250 -0.093750 0.072380 112 96 103
0.035156 -0.093750 0.072859 125 93 109
0.039062 -0.093750 0.073147 124 72 97
0.042969 -0.093750 0.072380 89 46 67
0.046875 -0.093750 0.071060 69 30 48
0.050781 -0.093750 0.071230 67 21 43
0.054688 -0.093750 0.072752 61 16 40
0.058594 -0.093750 0.074451 59 16 41
0.062500 -0.093750 0.075294 59 16 44
0.066406 -0.093750 0.075775 53 16 43
0.070312 -0.093750 0.075763 47 15 41
0.074219 -0.093750 0.075677 44 15 42
0.078125 -0.093750 0.075594 40 15 40
0.082031 -0.093750 0.075390 36 14 39
0.085938 -0.093750 0.074997 33 14 37
0.089844 -0.093750 0.074585 29 13 35
0.093750 -0.093750 0.074515 28 13 35
0.097656 -0.093750 0.074403 29 13 37
0.101562 -0.093750 0.074270 29 14 39
0.105469 -0.093750 0.074131 29 15 41
0.109375 -0.093750 0.073840 28 16 42
0.113281 -0.093750 0.073199 26 16 40
0.117188 -0.093750 0.072283 25 16 41
0.121094 -0.093750 0.071215 26 18 43
0.125000 -0.093750 0.070008 27 20 44
0.128906 -0.093750 0.068872 29 22 46
0.132812 -0.093750 0.068031 28 22 44
0.136719 -0.093750 0.067255 24 19 37
0.140625 -0.093750 0.066228 26 20 39
0.144531 -0.093750 0.065163 30 22 43
0.148438 -0.093750 0.063854 32 24 43
0.152344 -0.093750 0.062535 38 27 46
0.156250 -0.093750 0.061194 42 30 48
0.160156 -0.093750 0.059232 47 32 49
0.164062 -0.093750 0.056080 46 31 46
0.167969 -0.093750 0.052757 52 34 49
0.171875 -0.093750 0.051013 66 48 62
0.175781 -0.093750 0.049451 96 86 93
0.179688 -0.093750 0.047117 118 111 115
0.183594 -0.093750 0.045325 86 73 70
0.187500 -0.093750 0.043906 125 97 84
0.191406 -0.093750 0.046573 186 137 123
0.195312 -0.093750 0.052783 215 158 137
0.199219 -0.093750 0.055710 228 168 141
0.203125 -0.093750 0.056887 235 176 144
0.207031 -0.093750 0.057439 236 178 142
0.210938 -0.093750 0.054884 234 176 140
0.214844 -0.093750 0.046768 224 169 144
-0.062500 -0.097656 0.047083 20 26 35
-0.058594 -0.097656 0.056052 27 38 48
-0.054688 -0.097656 0.063694 27 35 45
-0.050781 -0.097656 0.067185 25 33 41
-0.046875 -0.097656 0.071448 25 34 40
-0.042969 -0.097656 0.074311 28 36 40
-0.039062 -0.097656 0.074949 30 38 40
-0.035156 -0.097656 0.071791 31 36 37
-0.031250 -0.097656 0.100192 31 31 31
-0.027344 -0.097656 0.169624 44 39 36
-0.023438 -0.097656 0.161602 51 42 37
-0.019531 -0.097656 0.162275 43 35 32
-0.015625 -0.097656 0.161420 47 38 35
-0.011719 -0.097656 0.163272 52 42 39
-0.007812 -0.097656 0.164398 56 44 41
-0.003906 -0.097656 0.166189 59 46 43
0.000000 -0.097656 0.167924 64 49 47
0.003906 -0.097656 0.168125 70 54 52
0.007812 -0.097656 0.166657 77 60 58
0.011719 -0.097656 0.159201 73 59 55
0.015625 -0.097656 0.159880 58 49 45
0.019531 -0.097656 0.092840 37 35 34
0.023438 -0.097656 0.064232 19 20 22
0.027344 -0.097656 0.068617 22 20 24
0.031250 -0.097656 0.068717 34 29 37
0.035156 -0.097656 0.068838 51 37 54
0.039062 -0.097656 0.068943 65 41 63
0.042969 -0.097656 0.068392 49 26 46
0.046875 -0.097656 0.067310 35 17 32
0.050781 -0.097656 0.067679 36 18 32
0.054688 -0.097656 0.069589 37 20 35
0.058594 -0.097656 0.071400 33 21 35
0.062500 -0.097656 0.072271 32 22 35
0.066406 -0.097656 0.072750 27 20 33
0.070312 -0.097656 0.072886 22 18 31
0.074219 -0.097656 0.072990 21 18 32
0.078125 -0.097656 0.073146 19 17 31
0.082031 -0.097656 0.073242 19 18 31
0.085938 -0.097656 0.073040 19 19 33
0.089844 -0.097656 0.072852 18 19 33
0.093750 -0.097656 0.072852 18 18 33
0.097656 -0.097656 0.072768 19 19 35
0.101562 -0.097656 0.072673 19 20 37
0.105469 -0.097656 0.072567 20 21 39
0.109375 -0.097656 0.072275 20 23 41
0.113281 -0.097656 0.071617 19 23 41
0.117188 -0.097656 0.070707 20 25 42
0.121094 -0.097656 0.069611 22 28 45
0.125000 -0.097656 0.068485 23 29 46
0.128906 -0.097656 0.067405 23 30 46
0.132812 -0.097656 0.066686 22 28 43
0.136719 -0.097656 0.066140 20 25 38
0.140625 -0.097656 0.065428 22 26 39
0.144531 -0.097656 0.064621 21 26 38
0.148438 -0.097656 0.063524 19 22 34
0.152344 -0.097656 0.062413 18 20 31
0.156250 -0.097656 0.061137 16 17 26
0.160156 -0.097656 0.059790 15 16 24
0.164062 -0.097656 0.057654 15 15 22
0.167969 -0.097656 0.055348 19 18 25
0.171875 -0.097656 0.054065 24 22 29
0.175781 -0.097656 0.051492 29 30 32
0.179688 -0.097656 0.047313 44 43 41
0.183594 -0.097656 0.044736 68 61 53
0.187500 -0.097656 0.044045 122 97 83
0.191406 -0.097656 0.046847 188 137 124
0.195312 -0.097656 0.052438 217 159 138
0.199219 -0.097656 0.054977 228 168 140
0.203125 -0.097656 0.056883 236 176 143
0.207031 -0.097656 0.057428 236 176 141
0.210938 -0.097656 0.053298 234 176 141
0.214844 -0.097656 0.046342 226 175 151
-0.062500 -0.101562 0.049659 22 27 36
-0.058594 -0.101562 0.058650 30 39 49
-0.054688 -0.101562 0.066081 29 36 45
-0.050781 -0.101562 0.069280 25 31 39
-0.046875 -0.101562 0.073420 27 33 39
-0.042969 -0.101562 0.075820 27 33 38
-0.039062 -0.101562 0.076645 28 34 38
-0.035156 -0.101562 0.072828 34 38 40
-0.031250 -0.101562 0.112307 35 34 34
-0.027344 -0.101562 0.168633 49 41 37
-0.023438 -0.101562 0.161926 54 42 37
-0.019531 -0.101562 0.162407 45 35 32
-0.015625 -0.101562 0.161951 49 39 36
-0.011719 -0.101562 0.163904 54 43 39
-0.007812 -0.101562 0.165130 57 44 41
-0.003906 -0.101562 0.166926 61 46 44
0.000000 -0.101562 0.168381 65 49 47
0.003906 -0.101562 0.168429 69 52 50
0.007812 -0.101562 0.167155 74 56 54
0.011719 -0.101562 0.161198 75 59 55
0.015625 -0.101562 0.158199 62 52 47
0.019531 -0.101562 0.136672 45 46 43
0.023438 -0.101562 0.052228 29 37 37
0.027344 -0.101562 0.066592 22 31 33
0.031250 -0.101562 0.065505 27 41 45
0.035156 -0.101562 0.065491 33 51 56
0.039062 -0.101562 0.065624 35 50 56
0.042969 -0.101562 0.065018 31 39 46
0.046875 -0.101562 0.063972 21 24 29
0.050781 -0.101562 0.064434 20 22 26
0.054688 -0.101562 0.066360 23 25 30
0.058594 -0.101562 0.068014 21 24 29
0.062500 -0.101562 0.068832 22 25 30
0.066406 -0.101562 0.069339 21 25 30
0.070312 -0.101562 0.069539 19 23 30
0.074219 -0.101562 0.069732 20 26 34
0.078125 -0.101562 0.069944 19 24 33
0.082031 -0.101562 0.070040 18 24 34
0.085938 -0.101562 0.069882 20 26 37
0.089844 -0.101562 0.069859 20 26 38
0.093750 -0.101562 0.069952 20 27 39
0.097656 -0.101562 0.069972 22 28 42
0.101562 -0.101562 0.069922 22 29 43
0.105469 -0.101562 0.069813 23 30 46
0.109375 -0.101562 0.069502 24 32 49
0.113281 -0.101562 0.068835 23 31 49
0.117188 -0.101562 0.067978 23 31 49
0.121094 -0.101562 0.066927 24 33 51
0.125000 -0.101562 0.065913 24 32 50
0.128906 -0.101562 0.064974 23 31 47
0.132812 -0.101562 0.064436 23 31 46
0.136719 -0.101562 0.064090 23 31 46
0.140625 -0.101562 0.063633 23 30 45
0.144531 -0.101562 0.063016 21 27 41
0.148438 -0.101562 0.062102 19 25 38
0.152344 -0.101562 0.061187 18 22 35
0.156250 -0.101562 0.060079 17 20 31
0.160156 -0.101562 0.058800 18 20 30
0.164062 -0.101562 0.056560 18 20 28
0.167969 -0.101562 0.054244 21 23 30
0.171875 -0.101562 0.052668 22 24 29
0.175781 -0.101562 0.049888 26 29 30
0.179688 -0.101562 0.046257 42 42 39
0.183594 -0.101562 0.044106 68 60 51
0.187500 -0.101562 0.044475 122 96 82
0.191406 -0.101562 0.046984 191 140 126
0.195312 -0.101562 0.052071 218 159 139
0.199219 -0.101562 0.054809 228 166 140
0.203125 -0.101562 0.056931 236 175 144
0.207031 -0.101562 0.056988 235 173 138
0.210938 -0.101562 0.052603 231 169 132
0.214844 -0.101562 0.040549 223 169 146
-0.066406 -0.105469 0.008747 24 28 33
-0.062500 -0.105469 0.052485 24 30 38
-0.058594 -0.105469 0.061282 30 39 48
-0.054688 -0.105469 0.068426 29 36 45
-0.050781 -0.105469 0.071534 25 31 38
-0.046875 -0.105469 0.074854 30 36 41
-0.042969 -0.105469 0.077701 28 33 38
-0.039062 -0.105469 0.077941 31 37 41
-0.035156 -0.105469 0.074387 47 49 51
-0.031250 -0.105469 0.134806 45 41 39
-0.027344 -0.105469 0.165733 53 42 37
-0.023438 -0.105469 0.161872 56 42 36
-0.019531 -0.105469 0.162448 46 36 31
-0.015625 -0.105469 0.162434 51 40 36
-0.011719 -0.105469 0.164574 55 42 39
-0.007812 -0.105469 0.165925 57 43 40
-0.003906 -0.105469 0.167702 60 45 42
0.000000 -0.105469 0.169029 63 47 45
0.003906 -0.105469 0.168963 66 49 47
0.007812 -0.105469 0.167873 69 52 51
0.011719 -0.105469 0.163504 75 57 54
0.015625 -0.105469 0.158312 65 51 47
0.019531 -0.105469 0.165112 54 50 48
0.023438 -0.105469 0.061469 37 43 44
0.027344 -0.105469 0.060518 22 31 34
0.031250 -0.105469 0.062385 24 41 46
0.035156 -0.105469 0.061974 21 40 48
0.039062 -0.105469 0.062017 17 31 39
0.042969 -0.105469 0.061350 19 31 39
0.046875 -0.105469 0.060319 13 21 26
0.050781 -0.105469 0.060857 14 20 23
0.054688 -0.105469 0.063045 19 26 30
0.058594 -0.105469 0.064717 19 25 29
0.062500 -0.105469 0.065607 24 30 34
0.066406 -0.105469 0.066267 26 32 37
0.070312 -0.105469 0.066542 28 34 40
0.074219 -0.105469 0.066859 33 41 47
0.078125 -0.105469 0.067158 32 40 47
0.082031 -0.105469 0.067221 31 39 47
0.085938 -0.105469 0.067072 30 38 48
0.089844 -0.105469 0.067142 29 37 48
0.093750 -0.105469 0.067299 30 36 48
0.097656 -0.105469 0.067409 31 37 50
0.101562 -0.105469 0.067375 31 38 52
0.105469 -0.105469 0.067216 31 38 54
0.109375 -0.105469 0.066873 30 38 55
0.113281 -0.105469 0.066249 29 36 55
0.117188 -0.105469 0.065510 28 35 55
0.121094 -0.105469 0.064601 30 37 56
0.125000 -0.105469 0.063756 29 35 54
0.128906 -0.105469 0.062950 27 33 51
0.132812 -0.105469 0.062533 26 33 50
0.136719 -0.105469 0.062262 28 34 51
0.140625 -0.105469 0.061893 28 34 50
0.144531 -0.105469 0.061353 26 32 47
0.148438 -0.105469 0.060541 25 32 47
0.152344 -0.105469 0.059719 24 29 43
0.156250 -0.105469 0.058782 25 29 41
0.160156 -0.105469 0.057694 28 32 43
0.164062 -0.105469 0.055931 29 33 42
0.167969 -0.105469 0.054039 32 36 42
0.171875 -0.105469 0.052225 28 32 36
0.175781 -0.105469 0.049424 32 36 36
0.179688 -0.105469 0.046072 50 49 45
0.183594 -0.105469 0.044226 70 59 51
0.187500 -0.105469 0.044430 121 93 80
0.191406 -0.105469 0.047163 191 138 125
0.195312 -0.105469 0.051627 217 156 137
0.199219 -0.105469 0.054484 228 164 140
0.203125 -0.105469 0.056391 236 174 144
0.207031 -0.105469 0.055966 234 170 135
0.210938 -0.105469 0.050753 228 161 125
-0.066406 -0.109375 0.021361 21 24 29
-0.062500 -0.109375 0.053991 25 31 40
-0.058594 -0.109375 0.063656 28 38 46
-0.054688 -0.109375 0.070738 28 35 43
-0.050781 -0.109375 0.073669 25 31 37
-0.046875 -0.109375 0.076211 32 38 42
-0.042969 -0.109375 0.079585 27 31 36
-0.039062 -0.109375 0.079321 32 35 39
-0.035156 -0.109375 0.080386 57 54 54
-0.031250 -0.109375 0.150986 50 42 39
-0.027344 -0.109375 0.162526 53 40 34
-0.023438 -0.109375 0.162071 57 42 35
-0.019531 -0.109375 0.162419 48 36 31
-0.015625 -0.109375 0.162842 54 41 36
-0.011719 -0.109375 0.165165 57 43 39
-0.007812 -0.109375 0.166679 57 43 40
-0.003906 -0.109375 0.168426 60 45 42
0.000000 -0.109375 0.169648 64 47 44
0.003906 -0.109375 0.169538 64 48 46
0.007812 -0.109375 0.168460 67 50 49
0.011719 -0.109375 0.165249 75 56 54
0.015625 -0.109375 0.160438 67 51 48
0.019531 -0.109375 0.167747 62 55 52
0.023438 -0.109375 0.105731 37 39 41
0.027344 -0.109375 0.052901 15 19 24
0.031250 -0.109375 0.060892 19 32 40
0.035156 -0.109375 0.058692 19 36 48
0.039062 -0.109375 0.058335 15 28 39
0.042969 -0.109375 0.057374 20 34 45
0.046875 -0.109375 0.056343 14 23 30
0.050781 -0.109375 0.057088 13 20 25
0.054688 -0.109375 0.059791 18 25 30
0.058594 -0.109375 0.061799 17 24 29
0.062500 -0.109375 0.062883 23 29 34
0.066406 -0.109375 0.063723 24 30 36
0.070312 -0.109375 0.064105 25 32 39
0.074219 -0.109375 0.064595 30 37 45
0.078125 -0.109375 0.065024 30 37 45
0.082031 -0.109375 0.065105 30 36 45
0.085938 -0.109375 0.065008 29 36 46
0.089844 -0.109375 0.065156 29 35 47
0.093750 -0.109375 0.065396 29 35 46
0.097656 -0.109375 0.065575 29 35 48
0.101562 -0.109375 0.065571 30 37 51
0.105469 -0.109375 0.065423 30 37 53
0.109375 -0.109375 0.065135 28 35 53
0.113281 -0.109375 0.064648 27 33 52
0.117188 -0.109375 0.064072 28 34 54
0.121094 -0.109375 0.063315 30 37 57
0.125000 -0.109375 0.062695 30 37 56
0.128906 -0.109375 0.062036 29 35 54
0.132812 -0.109375 0.061684 27 33 51
0.136719 -0.109375 0.061414 27 34 51
0.140625 -0.109375 0.061077 27 34 51
0.144531 -0.109375 0.060601 25 32 48
0.148438 -0.109375 0.059820 24 32 48
0.152344 -0.109375 0.059035 22 28 43
0.156250 -0.109375 0.058233 22 27 41
0.160156 -0.109375 0.057408 24 29 42
0.164062 -0.109375 0.056094 24 29 40
0.167969 -0.109375 0.054220 26 31 39
0.171875 -0.109375 0.052251 24 29 33
0.175781 -0.109375 0.049599 32 37 37
0.179688 -0.109375 0.046090 52 52 48
0.183594 -0.109375 0.043779 67 55 52
0.187500 -0.109375 0.044023 115 85 78
0.191406 -0.109375 0.046888 188 131 120
0.195312 -0.109375 0.050867 216 150 134
0.199219 -0.109375 0.053893 228 162 140
0.203125 -0.109375 0.056030 235 171 144
0.207031 -0.109375 0.054957 234 167 136
0.210938 -0.109375 0.049655 228 161 128
-0.066406 -0.113281 0.029377 18 21 27
-0.062500 -0.113281 0.055930 27 34 43
-0.058594 -0.113281 0.065910 30 40 48
-0.054688 -0.113281 0.072602 30 37 44
-0.050781 -0.113281 0.075539 26 33 38
-0.046875 -0.113281 0.077726 34 39 44
-0.042969 -0.113281 0.081417 26 29 34
-0.039062 -0.113281 0.079019 31 33 36
-0.035156 -0.113281 0.093834 64 56 55
-0.031250 -0.113281 0.156866 54 42 38
-0.027344 -0.113281 0.160746 55 40 33
-0.023438 -0.113281 0.161759 61 43 35
-0.019531 -0.113281 0.162295 51 37 31
-0.015625 -0.113281 0.163205 56 41 35
-0.011719 -0.113281 0.165724 58 43 39
-0.007812 -0.113281 0.167373 57 43 39
-0.003906 -0.113281 0.169050 60 45 42
0.000000 -0.113281 0.170223 65 49 45
0.003906 -0.113281 0.170193 65 48 46
0.007812 -0.113281 0.169477 67 50 49
0.011719 -0.113281 0.166976 76 56 54
0.015625 -0.113281 0.164097 69 52 50
0.019531 -0.113281 0.163093 70 60 57
0.023438 -0.113281 0.140639 41 40 41
0.027344 -0.113281 0.046158 13 16 20
0.031250 -0.113281 0.060923 19 28 38
0.035156 -0.113281 0.055904 20 35 52
0.039062 -0.113281 0.054805 14 26 39
0.042969 -0.113281 0.053340 18 29 42
0.046875 -0.113281 0.051976 12 19 27
0.050781 -0.113281 0.052804 11 17 23
0.054688 -0.113281 0.055992 15 22 28
0.058594 -0.113281 0.058542 17 23 29
0.062500 -0.113281 0.060027 23 30 35
0.066406 -0.113281 0.061199 24 30 38
0.070312 -0.113281 0.061776 26 32 40
0.074219 -0.113281 0.062402 30 35 45
0.078125 -0.113281 0.062998 29 35 44
0.082031 -0.113281 0.063233 30 36 46
0.085938 -0.113281 0.063328 32 38 49
0.089844 -0.113281 0.063728 32 38 50
0.093750 -0.113281 0.064261 32 39 51
0.097656 -0.113281 0.064668 34 40 53
0.101562 -0.113281 0.064818 35 42 57
0.105469 -0.113281 0.064775 33 40 57
0.109375 -0.113281 0.064585 31 38 56
0.113281 -0.113281 0.064216 30 37 56
0.117188 -0.113281 0.063793 30 37 58
0.121094 -0.113281 0.063141 33 40 61
0.125000 -0.113281 0.062454 33 42 61
0.128906 -0.113281 0.061840 32 40 59
0.132812 -0.113281 0.061611 29 36 55
0.136719 -0.113281 0.061353 26 34 52
0.140625 -0.113281 0.061023 24 31 49
0.144531 -0.113281 0.060612 22 29 46
0.148438 -0.113281 0.059866 22 30 47
0.152344 -0.113281 0.059126 21 29 46
0.156250 -0.113281 0.058500 23 30 47
0.160156 -0.113281 0.057882 26 33 49
0.164062 -0.113281 0.056145 25 31 43
0.167969 -0.113281 0.053680 25 30 38
0.171875 -0.113281 0.051559 22 26 31
0.175781 -0.113281 0.048956 29 33 35
0.179688 -0.113281 0.045395 42 42 42
0.183594 -0.113281 0.043206 53 43 44
0.187500 -0.113281 0.043780 105 75 72
0.191406 -0.113281 0.046610 185 126 115
0.195312 -0.113281 0.050151 218 153 135
0.199219 -0.113281 0.053134 231 170 146
0.203125 -0.113281 0.055110 237 179 150
0.207031 -0.113281 0.053541 235 177 144
0.210938 -0.113281 0.048402 228 169 134
-0.066406 -0.117188 0.034344 26 32 36
-0.062500 -0.117188 0.058179 29 36 44
-0.058594 -0.117188 0.067946 30 38 48
-0.054688 -0.117188 0.074093 30 36 44
-0.050781 -0.117188 0.077232 27 34 40
-0.046875 -0.117188 0.078977 33 38 43
-0.042969 -0.117188 0.083141 26 28 33
-0.039062 -0.117188 0.078062 39 39 40
-0.035156 -0.117188 0.113905 76 64 60
-0.031250 -0.117188 0.157504 57 42 38
-0.027344 -0.117188 0.160009 56 39 32
-0.023438 -0.117188 0.161177 61 43 34
-0.019531 -0.117188 0.162075 52 36 30
-0.015625 -0.117188 0.163431 56 40 34
-0.011719 -0.117188 0.166118 57 42 38
-0.007812 -0.117188 0.167901 57 43 39
-0.003906 -0.117188 0.169587 61 46 42
0.000000 -0.117188 0.170825 66 50 46
0.003906 -0.117188 0.170893 65 49 46
0.007812 -0.117188 0.170341 67 51 49
0.011719 -0.117188 0.168344 76 57 54
0.015625 -0.117188 0.166778 70 53 52
0.019531 -0.117188 0.163139 75 61 58
0.023438 -0.117188 0.157338 46 41 42
0.027344 -0.117188 0.054846 15 16 20
0.031250 -0.117188 0.057497 19 27 37
0.035156 -0.117188 0.055209 23 38 57
0.039062 -0.117188 0.051317 17 28 44
0.042969 -0.117188 0.049358 18 28 41
0.046875 -0.117188 0.047517 11 18 26
0.050781 -0.117188 0.048384 11 16 23
0.054688 -0.117188 0.052026 15 20 27
0.058594 -0.117188 0.055141 16 22 28
0.062500 -0.117188 0.057051 21 27 33
0.066406 -0.117188 0.058473 23 28 36
0.070312 -0.117188 0.059158 25 31 39
0.074219 -0.117188 0.060140 29 34 42
0.078125 -0.117188 0.061009 29 34 43
0.082031 -0.117188 0.061335 31 36 46
0.085938 -0.117188 0.061501 32 38 48
0.089844 -0.117188 0.061875 31 37 48
0.093750 -0.117188 0.062266 32 38 49
0.097656 -0.117188 0.062576 33 40 52
0.101562 -0.117188 0.062747 32 39 53
0.105469 -0.117188 0.062803 29 37 53
0.109375 -0.117188 0.062806 28 36 54
0.113281 -0.117188 0.062682 29 36 55
0.117188 -0.117188 0.062609 30 37 56
0.121094 -0.117188 0.062456 32 40 59
0.125000 -0.117188 0.062223 31 40 57
0.128906 -0.117188 0.061728 31 39 57
0.132812 -0.117188 0.061369 29 37 55
0.136719 -0.117188 0.061026 25 33 51
0.140625 -0.117188 0.060635 23 30 48
0.144531 -0.117188 0.060244 20 28 44
0.148438 -0.117188 0.059510 21 28 45
0.152344 -0.117188 0.058870 20 28 45
0.156250 -0.117188 0.058346 22 30 47
0.160156 -0.117188 0.057239 24 32 47
0.164062 -0.117188 0.055331 21 28 39
0.167969 -0.117188 0.052991 21 26 33
0.171875 -0.117188 0.050886 19 23 29
0.175781 -0.117188 0.048308 24 28 31
0.179688 -0.117188 0.044594 30 30 32
0.183594 -0.117188 0.042415 43 34 37
0.187500 -0.117188 0.043135 104 72 69
0.191406 -0.117188 0.045801 190 128 113
0.195312 -0.117188 0.048957 226 163 138
0.199219 -0.117188 0.051910 237 182 151
0.203125 -0.117188 0.053506 240 188 155
0.207031 -0.117188 0.052192 237 187 150
0.210938 -0.117188 0.045961 230 182 143
-0.066406 -0.121094 0.040203 27 32 38
-0.062500 -0.121094 0.060655 28 34 42
-0.058594 -0.121094 0.070147 29 35 46
-0.054688 -0.121094 0.075585 29 35 44
-0.050781 -0.121094 0.078901 30 36 42
-0.046875 -0.121094 0.080452 32 37 42
-0.042969 -0.121094 0.083851 30 31 35
-0.039062 -0.121094 0.079790 60 54 53
-0.035156 -0.121094 0.131144 92 73 66
-0.031250 -0.121094 0.156121 58 41 37
-0.027344 -0.121094 0.159586 55 38 31
-0.023438 -0.121094 0.160704 60 42 34
-0.019531 -0.121094 0.161934 54 37 31
-0.015625 -0.121094 0.163649 57 40 34
-0.011719 -0.121094 0.166546 57 42 37
-0.007812 -0.121094 0.168443 58 43 39
-0.003906 -0.121094 0.170089 62 46 42
0.000000 -0.121094 0.171375 67 51 47
0.003906 -0.121094 0.171489 67 51 48
0.007812 -0.121094 0.171145 69 53 50
0.011719 -0.121094 0.169661 76 57 54
0.015625 -0.121094 0.168307 74 56 53
0.019531 -0.121094 0.162488 78 61 58
0.023438 -0.121094 0.156838 56 47 46
0.027344 -0.121094 0.099645 20 20 24
0.031250 -0.121094 0.047358 18 24 33
0.035156 -0.121094 0.053995 25 38 56
0.039062 -0.121094 0.048373 22 36 53
0.042969 -0.121094 0.045047 20 31 44
0.046875 -0.121094 0.042802 13 20 29
0.050781 -0.121094 0.043790 13 18 24
0.054688 -0.121094 0.047775 15 21 27
0.058594 -0.121094 0.051502 17 22 28
0.062500 -0.121094 0.053806 20 26 31
0.066406 -0.121094 0.055428 22 27 34
0.070312 -0.121094 0.056317 25 30 37
0.074219 -0.121094 0.057328 27 32 39
0.078125 -0.121094 0.058111 27 31 39
0.082031 -0.121094 0.058176 28 33 41
0.085938 -0.121094 0.058061 28 33 43
0.089844 -0.121094 0.058226 28 33 44
0.093750 -0.121094 0.058621 28 33 45
0.097656 -0.121094 0.059072 28 35 47
0.101562 -0.121094 0.059425 28 35 49
0.105469 -0.121094 0.059760 27 34 50
0.109375 -0.121094 0.060133 27 34 52
0.113281 -0.121094 0.060412 27 35 52
0.117188 -0.121094 0.060659 29 37 55
0.121094 -0.121094 0.060786 32 40 57
0.125000 -0.121094 0.060880 29 37 53
0.128906 -0.121094 0.060742 30 39 55
0.132812 -0.121094 0.060616 29 38 54
0.136719 -0.121094 0.060328 25 33 50
0.140625 -0.121094 0.059878 23 31 47
0.144531 -0.121094 0.059436 21 29 44
0.148438 -0.121094 0.058628 21 30 45
0.152344 -0.121094 0.057835 21 30 45
0.156250 -0.121094 0.057056 22 30 46
0.160156 -0.121094 0.055670 22 30 45
0.164062 -0.121094 0.053828 19 26 38
0.167969 -0.121094 0.051677 20 25 34
0.171875 -0.121094 0.049741 21 25 32
0.175781 -0.121094 0.047165 25 28 33
0.179688 -0.121094 0.043287 27 27 30
0.183594 -0.121094 0.041188 43 34 37
0.187500 -0.121094 0.042238 108 74 69
0.191406 -0.121094 0.044826 189 125 108
0.195312 -0.121094 0.047649 226 161 134
0.199219 -0.121094 0.050602 236 176 146
0.203125 -0.121094 0.051835 237 178 147
0.207031 -0.121094 0.051925 234 179 145
0.210938 -0.121094 0.043757 226 174 143
-0.066406 -0.125000 0.045604 26 32 39
-0.062500 -0.125000 0.063425 27 33 42
-0.058594 -0.125000 0.072581 29 36 47
-0.054688 -0.125000 0.077122 28 34 44
-0.050781 -0.125000 0.080434 30 35 42
-0.046875 -0.125000 0.082044 29 32 39
-0.042969 -0.125000 0.084343 33 33 37
-0.039062 -0.125000 0.084758 73 63 60
-0.035156 -0.125000 0.142162 87 66 59
-0.031250 -0.125000 0.155620 57 40 35
-0.027344 -0.125000 0.159432 59 40 34
-0.023438 -0.125000 0.160393 60 41 34
-0.019531 -0.125000 0.161859 57 39 32
-0.015625 -0.125000 0.163939 59 41 35
-0.011719 -0.125000 0.166953 58 42 38
-0.007812 -0.125000 0.168923 58 42 39
-0.003906 -0.125000 0.170504 61 45 42
0.000000 -0.125000 0.171882 67 50 47
0.003906 -0.125000 0.172069 68 52 48
0.007812 -0.125000 0.171682 71 54 51
0.011719 -0.125000 0.170484 77 58 55
0.015625 -0.125000 0.169095 79 59 57
0.019531 -0.125000 0.163686 82 63 59
0.023438 -0.125000 0.153774 76 60 57
0.027344 -0.125000 0.137804 31 29 34
0.031250 -0.125000 0.054978 13 18 26
0.035156 -0.125000 0.048357 19 29 45
0.039062 -0.125000 0.046317 22 35 53
0.042969 -0.125000 0.040993 17 27 41
0.046875 -0.125000 0.038083 13 20 29
