ply
    format ascii 1.0
    element vertex 62650
    property float x
    property float y
    property float z
    property uchar red
    property uchar green
    property uchar blue
    end_header
-0.066406 -0.207031 -0.132208 4 5 6
-0.062500 -0.207031 -0.132159 4 5 6
-0.058594 -0.207031 -0.131808 4 5 6
-0.054688 -0.207031 -0.131252 4 5 6
-0.050781 -0.207031 -0.130644 4 4 5
-0.046875 -0.207031 -0.130142 3 3 5
-0.042969 -0.207031 -0.128745 3 3 5
-0.039062 -0.207031 -0.127659 4 5 6
-0.035156 -0.207031 -0.125983 8 8 10
-0.031250 -0.207031 -0.124944 15 17 18
-0.027344 -0.207031 -0.121432 22 24 26
-0.023438 -0.207031 -0.119426 21 22 24
-0.019531 -0.207031 -0.115200 16 17 20
-0.015625 -0.207031 -0.112768 16 17 20
-0.011719 -0.207031 -0.104859 17 18 21
-0.007812 -0.207031 -0.100177 17 19 21
-0.003906 -0.207031 -0.037774 19 20 23
0.000000 -0.207031 0.064348 20 22 24
0.003906 -0.207031 0.044944 20 22 25
0.007812 -0.207031 0.044234 19 21 24
0.011719 -0.207031 0.041416 18 21 23
0.015625 -0.207031 0.036531 18 20 23
0.019531 -0.207031 0.033821 17 20 22
0.023438 -0.207031 0.031298 16 18 20
0.027344 -0.207031 0.027954 15 17 19
0.031250 -0.207031 0.024500 14 16 18
0.035156 -0.207031 0.021430 13 15 18
0.039062 -0.207031 0.018586 12 14 17
0.042969 -0.207031 0.016045 13 14 17
0.046875 -0.207031 0.013834 13 15 17
0.050781 -0.207031 0.012231 13 15 17
0.054688 -0.207031 0.011167 13 15 17
0.058594 -0.207031 0.010363 12 14 16
0.062500 -0.207031 0.009903 12 14 16
0.066406 -0.207031 0.009638 11 13 15
0.070312 -0.207031 0.009665 11 13 15
0.074219 -0.207031 0.009881 12 15 16
0.078125 -0.207031 0.010263 13 16 17
0.082031 -0.207031 0.010939 13 15 17
0.085938 -0.207031 0.011947 13 15 17
0.089844 -0.207031 0.013031 13 15 17
0.093750 -0.207031 0.014271 12 14 17
0.097656 -0.207031 0.016024 11 14 16
0.101562 -0.207031 0.018194 12 14 16
0.105469 -0.207031 0.020264 14 17 19
0.109375 -0.207031 0.022405 16 19 21
0.113281 -0.207031 0.025812 16 19 21
0.117188 -0.207031 0.029700 16 18 22
0.121094 -0.207031 0.033703 17 19 24
0.125000 -0.207031 0.039260 18 22 29
0.128906 -0.207031 0.045916 22 26 36
0.132812 -0.207031 0.056803 33 38 49
0.136719 -0.207031 0.071962 29 31 45
0.140625 -0.207031 0.036541 36 40 50
-0.144531 -0.210938 -0.067050 19 19 19
-0.140625 -0.210938 -0.081582 14 14 13
-0.136719 -0.210938 -0.091269 21 22 18
-0.132812 -0.210938 -0.097493 16 17 15
-0.128906 -0.210938 -0.103099 13 14 12
-0.125000 -0.210938 -0.108271 11 12 11
-0.121094 -0.210938 -0.112420 10 11 10
-0.117188 -0.210938 -0.115762 9 10 10
-0.113281 -0.210938 -0.118961 9 10 10
-0.109375 -0.210938 -0.121914 9 10 9
-0.105469 -0.210938 -0.124130 8 9 9
-0.101562 -0.210938 -0.125638 8 9 9
-0.097656 -0.210938 -0.127171 8 9 9
-0.093750 -0.210938 -0.128629 8 9 9
-0.089844 -0.210938 -0.129729 7 8 9
-0.085938 -0.210938 -0.130463 6 7 8
-0.082031 -0.210938 -0.131167 6 6 7
-0.078125 -0.210938 -0.131755 5 6 6
-0.074219 -0.210938 -0.132078 5 5 6
-0.070312 -0.210938 -0.132251 5 5 6
-0.066406 -0.210938 -0.132333 5 5 6
-0.062500 -0.210938 -0.132318 5 5 6
-0.058594 -0.210938 -0.131994 5 5 6
-0.054688 -0.210938 -0.131463 5 5 6
-0.050781 -0.210938 -0.130864 4 4 5
-0.046875 -0.210938 -0.130410 3 3 4
-0.042969 -0.210938 -0.129034 3 3 5
-0.039062 -0.210938 -0.128031 4 5 6
-0.035156 -0.210938 -0.126403 8 9 10
-0.031250 -0.210938 -0.125353 16 18 19
-0.027344 -0.210938 -0.122025 23 26 28
-0.023438 -0.210938 -0.120038 20 22 24
-0.019531 -0.210938 -0.115864 16 17 20
-0.015625 -0.210938 -0.113488 15 16 19
-0.011719 -0.210938 -0.105631 16 17 20
-0.007812 -0.210938 -0.101303 16 18 21
-0.003906 -0.210938 -0.035798 18 19 22
0.000000 -0.210938 0.066251 19 21 24
0.003906 -0.210938 0.046681 20 22 24
0.007812 -0.210938 0.046099 19 21 24
0.011719 -0.210938 0.043334 18 21 23
0.015625 -0.210938 0.038469 17 20 22
0.019531 -0.210938 0.035784 16 18 21
0.023438 -0.210938 0.033234 15 17 19
0.027344 -0.210938 0.029798 14 15 18
0.031250 -0.210938 0.026281 13 15 17
0.035156 -0.210938 0.023162 13 15 17
0.039062 -0.210938 0.020230 12 14 16
0.042969 -0.210938 0.017616 13 14 17
0.046875 -0.210938 0.015359 13 15 17
0.050781 -0.210938 0.013723 14 16 18
0.054688 -0.210938 0.012645 14 17 18
0.058594 -0.210938 0.011843 13 15 17
0.062500 -0.210938 0.011390 12 14 16
0.066406 -0.210938 0.011143 12 14 16
0.070312 -0.210938 0.011190 11 14 16
0.074219 -0.210938 0.011427 12 15 16
0.078125 -0.210938 0.011839 14 16 18
0.082031 -0.210938 0.012563 14 16 18
0.085938 -0.210938 0.013655 13 15 17
0.089844 -0.210938 0.014807 12 14 16
0.093750 -0.210938 0.016096 11 13 16
0.097656 -0.210938 0.017909 11 13 15
0.101562 -0.210938 0.020098 12 14 17
0.105469 -0.210938 0.022251 15 18 20
0.109375 -0.210938 0.024548 19 21 24
0.113281 -0.210938 0.028138 18 20 24
0.117188 -0.210938 0.032085 18 20 24
0.121094 -0.210938 0.036849 18 21 27
0.125000 -0.210938 0.043243 19 23 31
0.128906 -0.210938 0.049644 22 27 37
0.132812 -0.210938 0.064494 23 26 37
0.136719 -0.210938 0.047356 11 12 24
-0.144531 -0.214844 -0.066632 9 9 11
-0.140625 -0.214844 -0.078302 11 11 12
-0.136719 -0.214844 -0.089179 20 20 18
-0.132812 -0.214844 -0.095846 16 16 14
-0.128906 -0.214844 -0.101880 14 14 13
-0.125000 -0.214844 -0.107117 12 13 11
-0.121094 -0.214844 -0.111382 10 11 10
-0.117188 -0.214844 -0.114833 10 10 10
-0.113281 -0.214844 -0.118164 9 10 10
-0.109375 -0.214844 -0.121252 9 10 9
-0.105469 -0.214844 -0.123558 8 9 9
-0.101562 -0.214844 -0.125152 8 9 9
-0.097656 -0.214844 -0.126793 8 8 9
-0.093750 -0.214844 -0.128348 8 8 9
-0.089844 -0.214844 -0.129541 7 8 9
-0.085938 -0.214844 -0.130353 7 7 8
-0.082031 -0.214844 -0.131136 6 7 7
-0.078125 -0.214844 -0.131796 5 6 7
-0.074219 -0.214844 -0.132164 5 5 6
-0.070312 -0.214844 -0.132361 5 5 6
-0.066406 -0.214844 -0.132477 5 5 6
-0.062500 -0.214844 -0.132502 5 5 6
-0.058594 -0.214844 -0.132201 5 5 6
-0.054688 -0.214844 -0.131693 5 5 6
-0.050781 -0.214844 -0.131099 4 4 5
-0.046875 -0.214844 -0.130712 3 3 4
-0.042969 -0.214844 -0.129350 3 3 4
-0.039062 -0.214844 -0.128413 4 4 6
-0.035156 -0.214844 -0.126820 8 9 10
-0.031250 -0.214844 -0.125736 19 21 22
-0.027344 -0.214844 -0.122608 27 30 32
-0.023438 -0.214844 -0.120539 22 24 26
-0.019531 -0.214844 -0.116486 17 19 22
-0.015625 -0.214844 -0.114144 16 18 21
-0.011719 -0.214844 -0.106265 17 18 21
-0.007812 -0.214844 -0.102265 17 18 21
-0.003906 -0.214844 -0.033611 17 18 21
0.000000 -0.214844 0.068057 17 19 21
0.003906 -0.214844 0.048523 17 19 22
0.007812 -0.214844 0.048003 17 19 22
0.011719 -0.214844 0.045276 17 20 23
0.015625 -0.214844 0.040457 17 19 22
0.019531 -0.214844 0.037811 16 18 21
0.023438 -0.214844 0.035223 15 18 20
0.027344 -0.214844 0.031713 15 17 19
0.031250 -0.214844 0.028159 14 16 18
0.035156 -0.214844 0.024998 14 16 18
0.039062 -0.214844 0.021989 13 15 17
0.042969 -0.214844 0.019302 13 15 17
0.046875 -0.214844 0.017002 13 15 17
0.050781 -0.214844 0.015338 13 16 18
0.054688 -0.214844 0.014242 15 17 19
0.058594 -0.214844 0.013429 14 16 18
0.062500 -0.214844 0.012973 12 14 17
0.066406 -0.214844 0.012746 12 14 16
0.070312 -0.214844 0.012818 11 13 15
0.074219 -0.214844 0.013088 12 14 16
0.078125 -0.214844 0.013536 13 15 17
0.082031 -0.214844 0.014305 13 16 17
0.085938 -0.214844 0.015472 13 16 17
0.089844 -0.214844 0.016664 13 15 17
0.093750 -0.214844 0.017985 12 15 17
0.097656 -0.214844 0.019842 12 14 17
0.101562 -0.214844 0.022079 13 15 18
0.105469 -0.214844 0.024344 16 18 21
0.109375 -0.214844 0.026810 19 21 24
0.113281 -0.214844 0.030651 18 21 24
0.117188 -0.214844 0.034434 19 22 26
0.121094 -0.214844 0.040250 19 23 30
0.125000 -0.214844 0.047054 22 27 37
0.128906 -0.214844 0.057892 28 34 46
0.132812 -0.214844 0.060847 25 29 41
-0.144531 -0.218750 -0.021457 27 28 25
-0.140625 -0.218750 -0.073718 10 10 12
-0.136719 -0.218750 -0.087066 19 19 17
-0.132812 -0.218750 -0.094428 15 15 13
-0.128906 -0.218750 -0.100429 16 16 14
-0.125000 -0.218750 -0.105946 14 15 13
-0.121094 -0.218750 -0.110351 12 13 11
-0.117188 -0.218750 -0.113901 11 12 11
-0.113281 -0.218750 -0.117331 11 12 11
-0.109375 -0.218750 -0.120540 10 11 10
-0.105469 -0.218750 -0.122954 9 10 10
-0.101562 -0.218750 -0.124644 9 10 9
-0.097656 -0.218750 -0.126401 8 9 9
-0.093750 -0.218750 -0.128061 8 9 9
-0.089844 -0.218750 -0.129353 7 8 9
-0.085938 -0.218750 -0.130247 7 7 8
-0.082031 -0.218750 -0.131116 6 7 7
-0.078125 -0.218750 -0.131853 6 6 7
-0.074219 -0.218750 -0.132273 5 6 6
-0.070312 -0.218750 -0.132502 5 5 6
-0.066406 -0.218750 -0.132654 5 6 6
-0.062500 -0.218750 -0.132721 5 6 6
-0.058594 -0.218750 -0.132443 5 6 6
-0.054688 -0.218750 -0.131954 5 5 6
-0.050781 -0.218750 -0.131355 4 4 5
-0.046875 -0.218750 -0.131016 3 3 4
-0.042969 -0.218750 -0.129654 2 2 4
-0.039062 -0.218750 -0.128792 4 4 5
-0.035156 -0.218750 -0.127242 8 9 10
-0.031250 -0.218750 -0.126115 20 23 24
-0.027344 -0.218750 -0.123169 27 30 33
-0.023438 -0.218750 -0.121001 19 21 24
-0.019531 -0.218750 -0.117046 15 16 19
-0.015625 -0.218750 -0.114738 15 16 19
-0.011719 -0.218750 -0.106874 16 17 19
-0.007812 -0.218750 -0.103437 16 18 20
-0.003906 -0.218750 -0.030642 17 18 21
0.000000 -0.218750 0.069860 18 19 22
0.003906 -0.218750 0.050359 18 20 23
0.007812 -0.218750 0.049919 18 20 23
0.011719 -0.218750 0.047244 19 21 24
0.015625 -0.218750 0.042483 18 20 23
0.019531 -0.218750 0.039891 18 20 23
0.023438 -0.218750 0.037281 18 20 23
0.027344 -0.218750 0.033742 17 19 21
0.031250 -0.218750 0.030175 15 18 20
0.035156 -0.218750 0.026973 15 17 19
0.039062 -0.218750 0.023897 13 15 17
0.042969 -0.218750 0.021144 13 15 17
0.046875 -0.218750 0.018789 14 16 18
0.050781 -0.218750 0.017078 14 16 18
0.054688 -0.218750 0.015954 14 17 19
0.058594 -0.218750 0.015126 14 16 18
0.062500 -0.218750 0.014658 12 14 16
0.066406 -0.218750 0.014446 12 13 16
0.070312 -0.218750 0.014552 11 13 15
0.074219 -0.218750 0.014857 11 13 15
0.078125 -0.218750 0.015348 11 13 15
0.082031 -0.218750 0.016187 11 13 15
0.085938 -0.218750 0.017444 12 14 16
0.089844 -0.218750 0.018678 13 15 16
0.093750 -0.218750 0.020020 13 15 17
0.097656 -0.218750 0.021916 14 16 18
0.101562 -0.218750 0.024171 14 17 19
0.105469 -0.218750 0.026589 16 19 22
0.109375 -0.218750 0.029356 19 21 24
0.113281 -0.218750 0.033244 18 20 24
0.117188 -0.218750 0.037739 19 21 27
0.121094 -0.218750 0.044011 17 20 28
0.125000 -0.218750 0.052053 18 22 32
0.128906 -0.218750 0.066903 18 21 34
0.132812 -0.218750 0.016148 33 38 49
-0.140625 -0.222656 -0.072029 7 7 10
-0.136719 -0.222656 -0.083805 16 15 15
-0.132812 -0.222656 -0.093031 13 12 11
-0.128906 -0.222656 -0.099092 15 15 13
-0.125000 -0.222656 -0.104718 13 13 12
-0.121094 -0.222656 -0.109162 11 11 10
-0.117188 -0.222656 -0.112865 10 11 10
-0.113281 -0.222656 -0.116437 10 11 10
-0.109375 -0.222656 -0.119786 10 11 10
-0.105469 -0.222656 -0.122325 10 11 10
-0.101562 -0.222656 -0.124116 9 10 10
-0.097656 -0.222656 -0.125991 8 9 9
-0.093750 -0.222656 -0.127768 8 9 9
-0.089844 -0.222656 -0.129171 7 8 9
-0.085938 -0.222656 -0.130146 6 7 8
-0.082031 -0.222656 -0.131097 6 6 7
-0.078125 -0.222656 -0.131922 5 6 6
-0.074219 -0.222656 -0.132403 5 6 6
-0.070312 -0.222656 -0.132667 5 5 6
-0.066406 -0.222656 -0.132861 5 5 6
-0.062500 -0.222656 -0.132971 5 6 6
-0.058594 -0.222656 -0.132708 5 6 6
-0.054688 -0.222656 -0.132227 5 5 6
-0.050781 -0.222656 -0.131619 4 4 5
-0.046875 -0.222656 -0.131320 2 2 3
-0.042969 -0.222656 -0.129962 2 2 3
-0.039062 -0.222656 -0.129182 3 3 5
-0.035156 -0.222656 -0.127642 8 8 10
-0.031250 -0.222656 -0.126497 20 22 23
-0.027344 -0.222656 -0.123757 25 28 31
-0.023438 -0.222656 -0.121377 18 19 23
-0.019531 -0.222656 -0.117513 15 16 19
-0.015625 -0.222656 -0.115239 15 16 19
-0.011719 -0.222656 -0.107381 16 17 20
-0.007812 -0.222656 -0.104736 17 18 20
-0.003906 -0.222656 -0.026868 17 18 21
0.000000 -0.222656 0.071540 18 19 22
0.003906 -0.222656 0.052174 17 19 22
0.007812 -0.222656 0.051811 17 19 22
0.011719 -0.222656 0.049206 17 19 22
0.015625 -0.222656 0.044506 17 19 22
0.019531 -0.222656 0.041986 18 20 23
0.023438 -0.222656 0.039364 18 20 22
0.027344 -0.222656 0.035808 16 18 21
0.031250 -0.222656 0.032256 15 17 19
0.035156 -0.222656 0.029037 14 16 18
0.039062 -0.222656 0.025901 13 15 17
0.042969 -0.222656 0.023083 13 15 17
0.046875 -0.222656 0.020691 15 17 19
0.050781 -0.222656 0.018935 14 17 18
0.054688 -0.222656 0.017766 14 17 18
0.058594 -0.222656 0.016927 14 16 18
0.062500 -0.222656 0.016464 12 15 17
0.066406 -0.222656 0.016262 12 14 16
0.070312 -0.222656 0.016380 11 13 15
0.074219 -0.222656 0.016726 11 13 15
0.078125 -0.222656 0.017276 11 13 15
0.082031 -0.222656 0.018182 11 13 15
0.085938 -0.222656 0.019534 11 13 15
0.089844 -0.222656 0.020824 12 14 15
0.093750 -0.222656 0.022187 12 14 16
0.097656 -0.222656 0.024121 14 16 18
0.101562 -0.222656 0.026403 15 17 20
0.105469 -0.222656 0.029172 17 20 23
0.109375 -0.222656 0.032257 20 23 26
0.113281 -0.222656 0.035589 19 22 26
0.117188 -0.222656 0.041488 22 26 30
0.121094 -0.222656 0.048560 20 25 32
0.125000 -0.222656 0.059001 25 31 42
0.128906 -0.222656 0.074322 18 23 36
-0.140625 -0.226562 -0.068336 6 6 9
-0.136719 -0.226562 -0.080976 14 14 14
-0.132812 -0.226562 -0.091064 12 11 11
-0.128906 -0.226562 -0.097580 15 15 13
-0.125000 -0.226562 -0.103437 13 13 12
-0.121094 -0.226562 -0.107897 11 11 10
-0.117188 -0.226562 -0.111795 10 11 10
-0.113281 -0.226562 -0.115519 11 12 11
-0.109375 -0.226562 -0.118991 11 12 11
-0.105469 -0.226562 -0.121657 10 11 10
-0.101562 -0.226562 -0.123567 9 10 10
-0.097656 -0.226562 -0.125576 8 9 9
-0.093750 -0.226562 -0.127479 8 9 9
-0.089844 -0.226562 -0.128990 7 8 9
-0.085938 -0.226562 -0.130048 6 7 8
-0.082031 -0.226562 -0.131089 6 6 7
-0.078125 -0.226562 -0.132007 5 6 7
-0.074219 -0.226562 -0.132552 5 6 6
-0.070312 -0.226562 -0.132852 5 5 6
-0.066406 -0.226562 -0.133094 5 5 5
-0.062500 -0.226562 -0.133254 5 5 6
-0.058594 -0.226562 -0.133011 5 5 6
-0.054688 -0.226562 -0.132534 5 5 6
-0.050781 -0.226562 -0.131912 3 3 5
-0.046875 -0.226562 -0.131641 2 2 3
-0.042969 -0.226562 -0.130271 2 2 3
-0.039062 -0.226562 -0.129565 3 3 5
-0.035156 -0.226562 -0.128044 8 9 10
-0.031250 -0.226562 -0.126812 21 24 25
-0.027344 -0.226562 -0.124211 25 28 31
-0.023438 -0.226562 -0.121688 18 20 23
-0.019531 -0.226562 -0.117991 16 17 20
-0.015625 -0.226562 -0.115737 16 17 20
-0.011719 -0.226562 -0.107825 17 19 21
-0.007812 -0.226562 -0.105995 18 20 22
-0.003906 -0.226562 -0.022597 18 20 22
0.000000 -0.226562 0.072958 18 20 22
0.003906 -0.226562 0.053920 18 19 22
0.007812 -0.226562 0.053637 17 18 21
0.011719 -0.226562 0.051107 17 19 22
0.015625 -0.226562 0.046476 17 19 22
0.019531 -0.226562 0.044042 17 19 22
0.023438 -0.226562 0.041416 18 20 22
0.027344 -0.226562 0.037873 16 18 21
0.031250 -0.226562 0.034365 15 17 20
0.035156 -0.226562 0.031161 14 16 18
0.039062 -0.226562 0.028010 13 14 17
0.042969 -0.226562 0.025157 13 14 16
0.046875 -0.226562 0.022738 13 15 17
0.050781 -0.226562 0.020942 13 15 17
0.054688 -0.226562 0.019720 13 15 17
0.058594 -0.226562 0.018857 13 15 18
0.062500 -0.226562 0.018387 13 15 17
0.066406 -0.226562 0.018179 12 14 16
0.070312 -0.226562 0.018308 11 13 16
0.074219 -0.226562 0.018700 11 13 15
0.078125 -0.226562 0.019314 11 13 15
0.082031 -0.226562 0.020282 11 14 15
0.085938 -0.226562 0.021720 12 15 16
0.089844 -0.226562 0.023071 13 15 17
0.093750 -0.226562 0.024440 13 15 17
0.097656 -0.226562 0.026449 13 15 17
0.101562 -0.226562 0.028859 15 17 20
0.105469 -0.226562 0.031894 18 21 24
0.109375 -0.226562 0.034950 21 24 27
0.113281 -0.226562 0.038900 20 23 28
0.117188 -0.226562 0.046442 25 30 35
0.121094 -0.226562 0.053114 28 34 42
0.125000 -0.226562 0.066764 47 58 70
0.128906 -0.226562 0.039044 42 54 71
-0.140625 -0.230469 -0.049954 10 10 12
-0.136719 -0.230469 -0.078644 15 16 15
-0.132812 -0.230469 -0.089228 11 11 11
-0.128906 -0.230469 -0.096102 16 16 14
-0.125000 -0.230469 -0.102068 14 14 13
-0.121094 -0.230469 -0.106591 12 12 11
-0.117188 -0.230469 -0.110660 11 12 10
-0.113281 -0.230469 -0.114545 11 12 10
-0.109375 -0.230469 -0.118148 10 11 10
-0.105469 -0.230469 -0.120954 10 11 10
-0.101562 -0.230469 -0.123004 9 10 10
-0.097656 -0.230469 -0.125158 9 10 10
-0.093750 -0.230469 -0.127190 8 9 9
-0.089844 -0.230469 -0.128810 7 8 9
-0.085938 -0.230469 -0.129956 7 7 8
-0.082031 -0.230469 -0.131096 6 7 7
-0.078125 -0.230469 -0.132108 6 6 7
-0.074219 -0.230469 -0.132720 5 6 6
-0.070312 -0.230469 -0.133064 5 5 6
-0.066406 -0.230469 -0.133355 5 5 6
-0.062500 -0.230469 -0.133562 5 5 6
-0.058594 -0.230469 -0.133344 5 5 6
-0.054688 -0.230469 -0.132872 5 5 6
-0.050781 -0.230469 -0.132234 4 4 5
-0.046875 -0.230469 -0.131973 2 2 3
-0.042969 -0.230469 -0.130583 2 2 3
-0.039062 -0.230469 -0.129952 3 3 5
-0.035156 -0.230469 -0.128434 9 10 11
-0.031250 -0.230469 -0.127164 23 25 26
-0.027344 -0.230469 -0.124743 25 28 31
-0.023438 -0.230469 -0.121988 18 19 22
-0.019531 -0.230469 -0.118409 15 16 19
-0.015625 -0.230469 -0.116164 14 15 18
-0.011719 -0.230469 -0.108217 15 16 19
-0.007812 -0.230469 -0.107312 16 18 20
-0.003906 -0.230469 -0.017662 17 18 21
0.000000 -0.230469 0.074267 17 19 21
0.003906 -0.230469 0.055575 17 18 21
0.007812 -0.230469 0.055367 16 18 21
0.011719 -0.230469 0.052909 16 18 21
0.015625 -0.230469 0.048357 17 18 21
0.019531 -0.230469 0.046013 17 19 22
0.023438 -0.230469 0.043415 17 19 22
0.027344 -0.230469 0.039925 16 18 20
0.031250 -0.230469 0.036491 15 17 19
0.035156 -0.230469 0.033301 14 16 18
0.039062 -0.230469 0.030162 13 14 16
0.042969 -0.230469 0.027315 12 13 16
0.046875 -0.230469 0.024861 12 14 16
0.050781 -0.230469 0.023024 12 14 16
0.054688 -0.230469 0.021770 13 15 17
0.058594 -0.230469 0.020878 13 15 17
0.062500 -0.230469 0.020379 13 15 17
0.066406 -0.230469 0.020170 12 14 17
0.070312 -0.230469 0.020339 11 14 16
0.074219 -0.230469 0.020778 11 13 15
0.078125 -0.230469 0.021446 11 13 15
0.082031 -0.230469 0.022488 11 14 16
0.085938 -0.230469 0.024007 13 15 17
0.089844 -0.230469 0.025404 13 16 18
0.093750 -0.230469 0.026789 12 14 16
0.097656 -0.230469 0.028867 12 14 16
0.101562 -0.230469 0.031457 13 15 18
0.105469 -0.230469 0.035003 15 18 21
0.109375 -0.230469 0.038367 18 20 24
0.113281 -0.230469 0.042732 16 18 24
0.117188 -0.230469 0.049629 18 21 27
0.121094 -0.230469 0.059008 16 18 28
0.125000 -0.230469 0.080393 22 25 41
0.128906 -0.230469 -0.003230 18 21 34
-0.136719 -0.234375 -0.074934 13 14 15
-0.132812 -0.234375 -0.086640 11 11 11
-0.128906 -0.234375 -0.094116 17 18 15
-0.125000 -0.234375 -0.100544 14 14 13
-0.121094 -0.234375 -0.105289 12 12 12
-0.117188 -0.234375 -0.109463 11 11 10
-0.113281 -0.234375 -0.113533 10 11 10
-0.109375 -0.234375 -0.117264 10 11 10
-0.105469 -0.234375 -0.120204 10 11 10
-0.101562 -0.234375 -0.122409 10 11 10
-0.097656 -0.234375 -0.124719 9 10 10
-0.093750 -0.234375 -0.126885 9 10 10
-0.089844 -0.234375 -0.128624 7 8 9
-0.085938 -0.234375 -0.129863 7 7 8
-0.082031 -0.234375 -0.131099 6 7 7
-0.078125 -0.234375 -0.132211 6 6 7
-0.074219 -0.234375 -0.132903 5 6 6
-0.070312 -0.234375 -0.133301 5 5 6
-0.066406 -0.234375 -0.133650 5 5 6
-0.062500 -0.234375 -0.133912 5 5 6
-0.058594 -0.234375 -0.133718 5 6 6
-0.054688 -0.234375 -0.133247 5 5 6
-0.050781 -0.234375 -0.132595 4 4 5
-0.046875 -0.234375 -0.132337 2 2 3
-0.042969 -0.234375 -0.130918 2 2 3
-0.039062 -0.234375 -0.130344 3 4 5
-0.035156 -0.234375 -0.128833 10 11 12
-0.031250 -0.234375 -0.127514 24 27 27
-0.027344 -0.234375 -0.125246 25 28 31
-0.023438 -0.234375 -0.122308 18 20 23
-0.019531 -0.234375 -0.118859 17 18 21
-0.015625 -0.234375 -0.116551 16 18 20
-0.011719 -0.234375 -0.108423 17 19 20
-0.007812 -0.234375 -0.108588 18 20 22
-0.003906 -0.234375 -0.012991 18 20 23
0.000000 -0.234375 0.075206 19 20 23
0.003906 -0.234375 0.057125 17 19 22
0.007812 -0.234375 0.056946 17 19 22
0.011719 -0.234375 0.054606 17 19 22
0.015625 -0.234375 0.050150 17 19 22
0.019531 -0.234375 0.047902 17 19 22
0.023438 -0.234375 0.045329 16 18 21
0.027344 -0.234375 0.041876 15 16 19
0.031250 -0.234375 0.038522 14 15 18
0.035156 -0.234375 0.035401 13 15 17
0.039062 -0.234375 0.032322 12 14 16
0.042969 -0.234375 0.029510 11 13 15
0.046875 -0.234375 0.027058 12 13 15
0.050781 -0.234375 0.025194 12 13 16
0.054688 -0.234375 0.023915 12 14 16
0.058594 -0.234375 0.023000 12 14 16
0.062500 -0.234375 0.022468 12 14 17
0.066406 -0.234375 0.022252 12 14 16
0.070312 -0.234375 0.022454 11 13 16
0.074219 -0.234375 0.022918 11 13 15
0.078125 -0.234375 0.023636 11 14 16
0.082031 -0.234375 0.024773 12 15 17
0.085938 -0.234375 0.026369 13 16 18
0.089844 -0.234375 0.027843 13 16 18
0.093750 -0.234375 0.029277 12 14 16
0.097656 -0.234375 0.031499 12 14 17
0.101562 -0.234375 0.034434 13 15 18
0.105469 -0.234375 0.038119 15 17 21
0.109375 -0.234375 0.041520 18 20 25
0.113281 -0.234375 0.047089 17 19 26
0.117188 -0.234375 0.053484 21 25 32
0.121094 -0.234375 0.068039 20 23 36
0.125000 -0.234375 0.073233 27 30 52
-0.136719 -0.238281 -0.070004 7 8 10
-0.132812 -0.238281 -0.083152 9 9 10
-0.128906 -0.238281 -0.092034 18 18 16
-0.125000 -0.238281 -0.098733 15 15 14
-0.121094 -0.238281 -0.104001 14 14 13
-0.117188 -0.238281 -0.108259 12 13 12
-0.113281 -0.238281 -0.112484 11 12 11
-0.109375 -0.238281 -0.116356 11 11 10
-0.105469 -0.238281 -0.119445 10 11 10
-0.101562 -0.238281 -0.121803 9 10 10
-0.097656 -0.238281 -0.124274 9 10 10
-0.093750 -0.238281 -0.126581 8 9 9
-0.089844 -0.238281 -0.128441 7 8 8
-0.085938 -0.238281 -0.129775 7 7 8
-0.082031 -0.238281 -0.131112 6 7 7
-0.078125 -0.238281 -0.132333 6 6 7
-0.074219 -0.238281 -0.133113 5 6 6
-0.070312 -0.238281 -0.133566 5 6 6
-0.066406 -0.238281 -0.133973 5 6 6
-0.062500 -0.238281 -0.134300 5 6 6
-0.058594 -0.238281 -0.134135 6 6 6
-0.054688 -0.238281 -0.133665 5 6 6
-0.050781 -0.238281 -0.132998 4 4 5
-0.046875 -0.238281 -0.132740 2 2 3
-0.042969 -0.238281 -0.131296 2 2 3
-0.039062 -0.238281 -0.130783 4 4 5
-0.035156 -0.238281 -0.129265 11 12 13
-0.031250 -0.238281 -0.127889 27 29 29
-0.027344 -0.238281 -0.125730 25 27 30
-0.023438 -0.238281 -0.122605 18 19 21
-0.019531 -0.238281 -0.119273 16 17 20
-0.015625 -0.238281 -0.116948 15 16 19
-0.011719 -0.238281 -0.108824 16 17 19
-0.007812 -0.238281 -0.110204 17 18 20
-0.003906 -0.238281 -0.008025 18 19 22
0.000000 -0.238281 0.076060 18 20 22
0.003906 -0.238281 0.058390 17 19 22
0.007812 -0.238281 0.058318 17 19 22
0.011719 -0.238281 0.056144 17 19 22
0.015625 -0.238281 0.051816 17 19 22
0.019531 -0.238281 0.049670 17 19 22
0.023438 -0.238281 0.047138 16 18 21
0.027344 -0.238281 0.043733 15 17 19
0.031250 -0.238281 0.040475 15 16 18
0.035156 -0.238281 0.037470 14 16 18
0.039062 -0.238281 0.034487 14 15 17
0.042969 -0.238281 0.031715 12 14 16
0.046875 -0.238281 0.029284 12 14 16
0.050781 -0.238281 0.027397 12 14 16
0.054688 -0.238281 0.026081 12 14 16
0.058594 -0.238281 0.025144 12 14 16
0.062500 -0.238281 0.024585 12 14 16
0.066406 -0.238281 0.024364 11 13 15
0.070312 -0.238281 0.024578 11 13 15
0.074219 -0.238281 0.025058 11 13 16
0.078125 -0.238281 0.025829 12 14 17
0.082031 -0.238281 0.027062 13 16 18
0.085938 -0.238281 0.028735 14 17 19
0.089844 -0.238281 0.030296 14 17 19
0.093750 -0.238281 0.031800 13 15 18
0.097656 -0.238281 0.034298 14 17 20
0.101562 -0.238281 0.037532 15 18 22
0.105469 -0.238281 0.040850 16 20 24
0.109375 -0.238281 0.044829 18 22 27
0.113281 -0.238281 0.051704 16 19 27
0.117188 -0.238281 0.059724 22 26 37
0.121094 -0.238281 0.076865 23 27 45
0.125000 -0.238281 0.019432 26 32 55
-0.136719 -0.242188 -0.070804 6 6 9
-0.132812 -0.242188 -0.079916 9 9 11
-0.128906 -0.242188 -0.090225 19 19 17
-0.125000 -0.242188 -0.096955 14 15 14
-0.121094 -0.242188 -0.102595 14 15 14
-0.117188 -0.242188 -0.106977 12 13 12
-0.113281 -0.242188 -0.111502 11 12 11
-0.109375 -0.242188 -0.115510 10 11 10
-0.105469 -0.242188 -0.118710 9 10 9
-0.101562 -0.242188 -0.121212 9 10 9
-0.097656 -0.242188 -0.123833 9 10 9
-0.093750 -0.242188 -0.126282 8 9 9
-0.089844 -0.242188 -0.128268 8 8 9
-0.085938 -0.242188 -0.129694 7 8 8
-0.082031 -0.242188 -0.131135 6 7 7
-0.078125 -0.242188 -0.132464 6 7 7
-0.074219 -0.242188 -0.133329 6 7 7
-0.070312 -0.242188 -0.133840 6 6 7
-0.066406 -0.242188 -0.134315 6 7 7
-0.062500 -0.242188 -0.134702 6 7 7
-0.058594 -0.242188 -0.134573 6 7 7
-0.054688 -0.242188 -0.134118 6 6 7
-0.050781 -0.242188 -0.133432 4 4 5
-0.046875 -0.242188 -0.133166 3 3 3
-0.042969 -0.242188 -0.131705 2 2 3
-0.039062 -0.242188 -0.131253 4 5 6
-0.035156 -0.242188 -0.129780 13 14 14
-0.031250 -0.242188 -0.128337 27 29 29
-0.027344 -0.242188 -0.126192 22 24 27
-0.023438 -0.242188 -0.122919 16 17 20
-0.019531 -0.242188 -0.119705 15 16 18
-0.015625 -0.242188 -0.117261 13 14 17
-0.011719 -0.242188 -0.109013 14 15 17
-0.007812 -0.242188 -0.111124 14 16 18
-0.003906 -0.242188 -0.006417 15 17 19
0.000000 -0.242188 0.076703 16 17 20
0.003906 -0.242188 0.059556 16 17 21
0.007812 -0.242188 0.059508 17 18 22
0.011719 -0.242188 0.057539 16 18 21
0.015625 -0.242188 0.053344 16 17 21
0.019531 -0.242188 0.051282 16 18 21
0.023438 -0.242188 0.048811 15 17 20
0.027344 -0.242188 0.045480 15 17 19
0.031250 -0.242188 0.042315 15 17 19
0.035156 -0.242188 0.039412 14 16 18
0.039062 -0.242188 0.036533 13 15 17
0.042969 -0.242188 0.033831 13 15 16
0.046875 -0.242188 0.031450 13 15 17
0.050781 -0.242188 0.029575 13 15 17
0.054688 -0.242188 0.028250 13 15 17
0.058594 -0.242188 0.027296 13 16 18
0.062500 -0.242188 0.026722 12 15 17
0.066406 -0.242188 0.026497 11 13 16
0.070312 -0.242188 0.026743 11 13 16
0.074219 -0.242188 0.027254 11 13 16
0.078125 -0.242188 0.028066 12 14 17
0.082031 -0.242188 0.029378 13 16 18
0.085938 -0.242188 0.031096 14 17 20
0.089844 -0.242188 0.032731 15 18 20
0.093750 -0.242188 0.034347 15 17 20
0.097656 -0.242188 0.037192 16 19 23
0.101562 -0.242188 0.040545 17 21 25
0.105469 -0.242188 0.044339 16 20 25
0.109375 -0.242188 0.050169 17 21 27
0.113281 -0.242188 0.055400 14 17 25
0.117188 -0.242188 0.066898 20 23 35
0.121094 -0.242188 0.085158 14 16 33
-0.136719 -0.246094 -0.057805 13 14 15
-0.132812 -0.246094 -0.077547 11 11 14
-0.128906 -0.246094 -0.087828 18 17 17
-0.125000 -0.246094 -0.094956 13 13 12
-0.121094 -0.246094 -0.100973 14 15 14
-0.117188 -0.246094 -0.105720 13 14 13
-0.113281 -0.246094 -0.110405 12 13 12
-0.109375 -0.246094 -0.114611 11 12 11
-0.105469 -0.246094 -0.117975 10 11 10
-0.101562 -0.246094 -0.120644 10 11 10
-0.097656 -0.246094 -0.123404 9 10 10
-0.093750 -0.246094 -0.125986 8 9 9
-0.089844 -0.246094 -0.128099 7 8 8
-0.085938 -0.246094 -0.129626 7 7 7
-0.082031 -0.246094 -0.131180 6 7 7
-0.078125 -0.246094 -0.132619 6 7 7
-0.074219 -0.246094 -0.133571 6 6 6
-0.070312 -0.246094 -0.134144 6 6 6
-0.066406 -0.246094 -0.134694 6 7 7
-0.062500 -0.246094 -0.135141 6 7 7
-0.058594 -0.246094 -0.135044 6 7 7
-0.054688 -0.246094 -0.134612 6 7 7
-0.050781 -0.246094 -0.133909 5 5 5
-0.046875 -0.246094 -0.133638 3 3 4
-0.042969 -0.246094 -0.132164 3 2 3
-0.039062 -0.246094 -0.131772 5 5 6
-0.035156 -0.246094 -0.130363 14 15 15
-0.031250 -0.246094 -0.128743 28 30 30
-0.027344 -0.246094 -0.126619 23 25 28
-0.023438 -0.246094 -0.123238 18 19 22
-0.019531 -0.246094 -0.120158 19 20 22
-0.015625 -0.246094 -0.117548 18 19 22
-0.011719 -0.246094 -0.109414 18 20 22
-0.007812 -0.246094 -0.111675 18 20 22
-0.003906 -0.246094 -0.007552 18 20 23
0.000000 -0.246094 0.077580 18 21 23
0.003906 -0.246094 0.060388 19 21 24
0.007812 -0.246094 0.060451 20 22 25
0.011719 -0.246094 0.058773 19 21 24
0.015625 -0.246094 0.054737 17 19 23
0.019531 -0.246094 0.052752 17 19 22
0.023438 -0.246094 0.050348 17 19 21
0.027344 -0.246094 0.047113 16 18 21
0.031250 -0.246094 0.044071 16 17 20
0.035156 -0.246094 0.041283 14 15 17
0.039062 -0.246094 0.038512 12 14 16
0.042969 -0.246094 0.035898 12 14 15
0.046875 -0.246094 0.033577 12 14 16
0.050781 -0.246094 0.031730 13 15 16
0.054688 -0.246094 0.030403 13 15 17
0.058594 -0.246094 0.029434 13 15 17
0.062500 -0.246094 0.028846 12 14 16
0.066406 -0.246094 0.028606 11 13 16
0.070312 -0.246094 0.028890 10 13 15
0.074219 -0.246094 0.029452 10 12 15
0.078125 -0.246094 0.030300 11 13 16
0.082031 -0.246094 0.031699 12 15 17
0.085938 -0.246094 0.033498 14 16 19
0.089844 -0.246094 0.035251 15 18 20
0.093750 -0.246094 0.037125 16 18 22
0.097656 -0.246094 0.040609 17 21 25
0.101562 -0.246094 0.044508 20 23 28
0.105469 -0.246094 0.048243 18 23 29
0.109375 -0.246094 0.054169 20 26 33
0.113281 -0.246094 0.060258 19 23 33
0.117188 -0.246094 0.076095 31 35 51
0.121094 -0.246094 0.024930 24 26 48
-0.132812 -0.250000 -0.071747 7 7 11
-0.128906 -0.250000 -0.085608 13 12 13
-0.125000 -0.250000 -0.093483 11 10 10
-0.121094 -0.250000 -0.099116 15 15 14
-0.117188 -0.250000 -0.104432 14 15 13
-0.113281 -0.250000 -0.109266 13 14 12
-0.109375 -0.250000 -0.113748 12 13 11
-0.105469 -0.250000 -0.117264 10 11 10
-0.101562 -0.250000 -0.120062 10 11 10
-0.097656 -0.250000 -0.122959 9 10 9
-0.093750 -0.250000 -0.125674 8 9 9
-0.089844 -0.250000 -0.127909 7 8 8
-0.085938 -0.250000 -0.129545 7 8 8
-0.082031 -0.250000 -0.131216 7 7 7
-0.078125 -0.250000 -0.132764 6 7 7
-0.074219 -0.250000 -0.133808 6 6 6
-0.070312 -0.250000 -0.134445 5 6 6
-0.066406 -0.250000 -0.135069 6 6 7
-0.062500 -0.250000 -0.135588 6 7 7
-0.058594 -0.250000 -0.135527 7 7 7
-0.054688 -0.250000 -0.135131 6 7 7
-0.050781 -0.250000 -0.134419 5 5 6
-0.046875 -0.250000 -0.134134 3 3 4
-0.042969 -0.250000 -0.132661 2 2 3
-0.039062 -0.250000 -0.132378 5 5 6
-0.035156 -0.250000 -0.131107 15 16 17
-0.031250 -0.250000 -0.129214 30 32 32
-0.027344 -0.250000 -0.127079 23 25 28
-0.023438 -0.250000 -0.123585 18 19 22
-0.019531 -0.250000 -0.120611 18 19 22
-0.015625 -0.250000 -0.117837 16 18 20
-0.011719 -0.250000 -0.110008 17 19 21
-0.007812 -0.250000 -0.111576 17 19 22
-0.003906 -0.250000 -0.012865 17 19 22
0.000000 -0.250000 0.078594 18 20 23
0.003906 -0.250000 0.060994 18 20 23
0.007812 -0.250000 0.061224 19 21 24
0.011719 -0.250000 0.059836 19 21 24
0.015625 -0.250000 0.055992 18 20 24
0.019531 -0.250000 0.054124 19 21 24
0.023438 -0.250000 0.051803 18 20 22
0.027344 -0.250000 0.048648 18 20 22
0.031250 -0.250000 0.045708 17 19 21
0.035156 -0.250000 0.043028 15 17 19
0.039062 -0.250000 0.040356 13 16 17
0.042969 -0.250000 0.037837 13 15 17
0.046875 -0.250000 0.035590 12 14 16
0.050781 -0.250000 0.033765 12 14 15
0.054688 -0.250000 0.032446 12 13 15
0.058594 -0.250000 0.031490 12 14 16
0.062500 -0.250000 0.030912 11 13 15
0.066406 -0.250000 0.030682 11 13 15
0.070312 -0.250000 0.031012 11 13 16
0.074219 -0.250000 0.031606 11 14 16
0.078125 -0.250000 0.032494 12 15 17
0.082031 -0.250000 0.033978 13 16 18
0.085938 -0.250000 0.035847 14 16 19
0.089844 -0.250000 0.037838 15 18 21
0.093750 -0.250000 0.040057 16 19 22
0.097656 -0.250000 0.043817 17 21 25
0.101562 -0.250000 0.047849 20 25 31
0.105469 -0.250000 0.052530 19 24 32
0.109375 -0.250000 0.058399 21 28 36
0.113281 -0.250000 0.066480 20 24 35
0.117188 -0.250000 0.086451 23 24 41
-0.132812 -0.253906 -0.074089 9 10 15
-0.128906 -0.253906 -0.081248 16 17 16
-0.125000 -0.253906 -0.091680 10 10 10
-0.121094 -0.253906 -0.097687 14 15 14
-0.117188 -0.253906 -0.103315 14 14 13
-0.113281 -0.253906 -0.108146 13 14 12
-0.109375 -0.253906 -0.112867 12 13 12
-0.105469 -0.253906 -0.116561 11 12 11
-0.101562 -0.253906 -0.119492 10 11 10
-0.097656 -0.253906 -0.122517 9 10 10
-0.093750 -0.253906 -0.125355 9 10 9
-0.089844 -0.253906 -0.127707 8 9 9
-0.085938 -0.253906 -0.129452 7 8 8
-0.082031 -0.253906 -0.131242 7 8 8
-0.078125 -0.253906 -0.132908 6 7 7
-0.074219 -0.253906 -0.134051 6 7 7
-0.070312 -0.253906 -0.134757 6 6 6
-0.066406 -0.253906 -0.135460 6 7 7
-0.062500 -0.253906 -0.136056 6 7 7
-0.058594 -0.253906 -0.136041 7 7 7
-0.054688 -0.253906 -0.135687 7 7 7
-0.050781 -0.253906 -0.134964 5 5 6
-0.046875 -0.253906 -0.134671 3 3 4
-0.042969 -0.253906 -0.133208 2 2 3
-0.039062 -0.253906 -0.133047 5 5 7
-0.035156 -0.253906 -0.131947 16 17 18
-0.031250 -0.253906 -0.129715 29 30 31
-0.027344 -0.253906 -0.127596 20 22 25
-0.023438 -0.253906 -0.123991 16 17 20
-0.019531 -0.253906 -0.121097 16 17 20
-0.015625 -0.253906 -0.118114 14 16 19
-0.011719 -0.253906 -0.110724 16 17 20
-0.007812 -0.253906 -0.110643 16 18 21
-0.003906 -0.253906 -0.022351 16 18 21
0.000000 -0.253906 0.079761 17 19 22
0.003906 -0.253906 0.061480 17 18 22
0.007812 -0.253906 0.061870 17 19 22
0.011719 -0.253906 0.060812 17 19 22
0.015625 -0.253906 0.057178 17 19 22
0.019531 -0.253906 0.055433 16 18 21
0.023438 -0.253906 0.053203 14 16 19
0.027344 -0.253906 0.050117 14 15 18
0.031250 -0.253906 0.047236 13 15 17
0.035156 -0.253906 0.044654 12 14 16
0.039062 -0.253906 0.042087 12 14 16
0.042969 -0.253906 0.039651 13 15 17
0.046875 -0.253906 0.037477 13 15 17
0.050781 -0.253906 0.035696 13 15 16
0.054688 -0.253906 0.034404 13 15 16
0.058594 -0.253906 0.033478 12 14 16
0.062500 -0.253906 0.032929 11 13 15
0.066406 -0.253906 0.032744 11 13 15
0.070312 -0.253906 0.033152 11 13 16
0.074219 -0.253906 0.033761 11 14 17
0.078125 -0.253906 0.034684 13 16 18
0.082031 -0.253906 0.036246 13 16 19
0.085938 -0.253906 0.038190 13 16 18
0.089844 -0.253906 0.040491 15 17 20
0.093750 -0.253906 0.042933 17 19 23
0.097656 -0.253906 0.046708 18 21 25
0.101562 -0.253906 0.051085 20 25 30
0.105469 -0.253906 0.057758 17 21 30
0.109375 -0.253906 0.064149 18 24 35
0.113281 -0.253906 0.075839 16 20 33
0.117188 -0.253906 0.047373 9 10 20
-0.132812 -0.257812 -0.040450 11 11 14
-0.128906 -0.257812 -0.077136 20 22 20
-0.125000 -0.257812 -0.089304 11 11 11
-0.121094 -0.257812 -0.096112 15 16 14
-0.117188 -0.257812 -0.102183 13 14 12
-0.113281 -0.257812 -0.107141 13 14 12
-0.109375 -0.257812 -0.111920 12 14 12
-0.105469 -0.257812 -0.115897 11 13 11
-0.101562 -0.257812 -0.118948 11 12 11
-0.097656 -0.257812 -0.122083 9 11 10
-0.093750 -0.257812 -0.125048 9 10 9
-0.089844 -0.257812 -0.127517 8 9 8
-0.085938 -0.257812 -0.129370 7 8 8
-0.082031 -0.257812 -0.131278 6 7 7
-0.078125 -0.257812 -0.133061 6 7 7
-0.074219 -0.257812 -0.134300 6 6 7
-0.070312 -0.257812 -0.135074 6 7 7
-0.066406 -0.257812 -0.135858 6 7 7
-0.062500 -0.257812 -0.136525 7 7 7
-0.058594 -0.257812 -0.136562 7 7 7
-0.054688 -0.257812 -0.136265 7 7 7
-0.050781 -0.257812 -0.135533 5 5 6
-0.046875 -0.257812 -0.135242 3 3 4
-0.042969 -0.257812 -0.133806 2 2 3
-0.039062 -0.257812 -0.133748 5 5 7
-0.035156 -0.257812 -0.132807 17 18 19
-0.031250 -0.257812 -0.130253 29 30 31
-0.027344 -0.257812 -0.128181 19 21 25
-0.023438 -0.257812 -0.124479 17 18 22
-0.019531 -0.257812 -0.121616 18 19 22
-0.015625 -0.257812 -0.118442 16 18 21
-0.011719 -0.257812 -0.111640 18 20 23
-0.007812 -0.257812 -0.109435 19 21 24
-0.003906 -0.257812 -0.033300 18 20 24
0.000000 -0.257812 0.081003 18 20 24
0.003906 -0.257812 0.061778 18 20 23
0.007812 -0.257812 0.062421 18 20 23
0.011719 -0.257812 0.061702 18 20 23
0.015625 -0.257812 0.058277 17 19 22
0.019531 -0.257812 0.056652 16 18 21
0.023438 -0.257812 0.054523 14 15 19
0.027344 -0.257812 0.051506 13 14 17
0.031250 -0.257812 0.048684 12 13 16
0.035156 -0.257812 0.046185 11 12 15
0.039062 -0.257812 0.043691 10 12 14
0.042969 -0.257812 0.041338 11 12 14
0.046875 -0.257812 0.039241 11 13 15
0.050781 -0.257812 0.037521 12 14 15
0.054688 -0.257812 0.036270 12 14 16
0.058594 -0.257812 0.035365 11 13 15
0.062500 -0.257812 0.034845 10 12 14
0.066406 -0.257812 0.034711 10 12 14
0.070312 -0.257812 0.035208 10 13 15
0.074219 -0.257812 0.035867 11 14 17
0.078125 -0.257812 0.036826 13 17 19
0.082031 -0.257812 0.038510 15 18 20
0.085938 -0.257812 0.040601 13 16 18
0.089844 -0.257812 0.043268 15 17 20
0.093750 -0.257812 0.045934 17 19 23
0.097656 -0.257812 0.050026 18 22 26
0.101562 -0.257812 0.056217 23 28 33
0.105469 -0.257812 0.062035 20 26 35
0.109375 -0.257812 0.069832 29 37 51
0.113281 -0.257812 0.089898 26 32 52
0.117188 -0.257812 0.000311 3 3 9
-0.128906 -0.261719 -0.075244 8 8 10
-0.125000 -0.261719 -0.086188 8 7 9
-0.121094 -0.261719 -0.094791 14 14 14
-0.117188 -0.261719 -0.100399 12 13 12
-0.113281 -0.261719 -0.106161 13 14 12
-0.109375 -0.261719 -0.111025 12 13 12
-0.105469 -0.261719 -0.115193 11 13 11
-0.101562 -0.261719 -0.118387 11 12 11
-0.097656 -0.261719 -0.121654 10 11 10
-0.093750 -0.261719 -0.124745 9 10 10
-0.089844 -0.261719 -0.127332 8 9 9
-0.085938 -0.261719 -0.129289 8 8 8
-0.082031 -0.261719 -0.131316 7 8 8
-0.078125 -0.261719 -0.133211 7 7 7
-0.074219 -0.261719 -0.134544 6 7 7
-0.070312 -0.261719 -0.135394 6 7 7
-0.066406 -0.261719 -0.136266 7 8 8
-0.062500 -0.261719 -0.137000 7 8 8
-0.058594 -0.261719 -0.137094 7 8 8
-0.054688 -0.261719 -0.136859 7 7 8
-0.050781 -0.261719 -0.136119 5 5 6
-0.046875 -0.261719 -0.135860 2 2 4
-0.042969 -0.261719 -0.134434 2 2 3
-0.039062 -0.261719 -0.134514 5 5 7
-0.035156 -0.261719 -0.133713 19 20 21
-0.031250 -0.261719 -0.131096 32 33 34
-0.027344 -0.261719 -0.128697 21 23 26
-0.023438 -0.261719 -0.125002 19 20 23
-0.019531 -0.261719 -0.122172 19 20 23
-0.015625 -0.261719 -0.118712 16 18 21
-0.011719 -0.261719 -0.112352 18 19 23
-0.007812 -0.261719 -0.107639 17 19 23
-0.003906 -0.261719 -0.046342 17 19 22
0.000000 -0.261719 0.082115 17 19 22
0.003906 -0.261719 0.062088 17 19 22
0.007812 -0.261719 0.062979 18 20 23
0.011719 -0.261719 0.062536 18 20 23
0.015625 -0.261719 0.059331 17 19 23
0.019531 -0.261719 0.057837 16 19 22
0.023438 -0.261719 0.055799 15 17 20
0.027344 -0.261719 0.052817 14 16 19
0.031250 -0.261719 0.050040 13 15 18
0.035156 -0.261719 0.047598 13 14 17
0.039062 -0.261719 0.045144 12 13 16
0.042969 -0.261719 0.042906 11 13 15
0.046875 -0.261719 0.040907 11 13 15
0.050781 -0.261719 0.039228 12 14 15
0.054688 -0.261719 0.038014 11 13 15
0.058594 -0.261719 0.037149 10 12 14
0.062500 -0.261719 0.036693 10 12 14
0.066406 -0.261719 0.036623 10 12 14
0.070312 -0.261719 0.037214 10 13 15
0.074219 -0.261719 0.037948 12 15 17
0.078125 -0.261719 0.038971 16 20 22
0.082031 -0.261719 0.040829 18 22 24
0.085938 -0.261719 0.043159 16 19 22
0.089844 -0.261719 0.046466 16 19 22
0.093750 -0.261719 0.049630 16 19 22
0.097656 -0.261719 0.053635 14 16 21
0.101562 -0.261719 0.060894 15 18 23
0.105469 -0.261719 0.066355 12 15 24
0.109375 -0.261719 0.080481 22 25 41
0.113281 -0.261719 0.085820 20 22 42
-0.128906 -0.265625 -0.062863 8 8 10
-0.125000 -0.265625 -0.081926 8 8 10
-0.121094 -0.265625 -0.092918 14 15 15
-0.117188 -0.265625 -0.099270 12 12 12
-0.113281 -0.265625 -0.104962 13 14 13
-0.109375 -0.265625 -0.110147 12 13 12
-0.105469 -0.265625 -0.114531 12 13 11
-0.101562 -0.265625 -0.117869 11 13 11
-0.097656 -0.265625 -0.121238 10 12 11
-0.093750 -0.265625 -0.124432 10 11 10
-0.089844 -0.265625 -0.127145 9 10 10
-0.085938 -0.265625 -0.129219 8 9 9
-0.082031 -0.265625 -0.131372 8 9 8
-0.078125 -0.265625 -0.133382 7 8 8
-0.074219 -0.265625 -0.134805 7 7 7
-0.070312 -0.265625 -0.135721 7 7 7
-0.066406 -0.265625 -0.136673 7 8 8
-0.062500 -0.265625 -0.137478 7 8 8
-0.058594 -0.265625 -0.137631 7 8 8
-0.054688 -0.265625 -0.137460 7 7 8
-0.050781 -0.265625 -0.136715 5 5 6
-0.046875 -0.265625 -0.136487 3 3 4
-0.042969 -0.265625 -0.135086 2 2 4
-0.039062 -0.265625 -0.135266 5 6 8
-0.035156 -0.265625 -0.134420 22 23 24
-0.031250 -0.265625 -0.131966 35 36 37
-0.027344 -0.265625 -0.129414 22 24 27
-0.023438 -0.265625 -0.125613 20 21 24
-0.019531 -0.265625 -0.122680 19 20 23
-0.015625 -0.265625 -0.119007 16 18 21
-0.011719 -0.265625 -0.113194 18 19 23
-0.007812 -0.265625 -0.105816 17 19 22
-0.003906 -0.265625 -0.061291 16 18 22
0.000000 -0.265625 0.082881 17 19 22
0.003906 -0.265625 0.062467 16 18 22
0.007812 -0.265625 0.063541 17 20 23
0.011719 -0.265625 0.063354 17 20 23
0.015625 -0.265625 0.060366 16 18 22
0.019531 -0.265625 0.059004 14 17 20
0.023438 -0.265625 0.057053 13 16 19
0.027344 -0.265625 0.054101 12 14 17
0.031250 -0.265625 0.051359 12 14 17
0.035156 -0.265625 0.048964 12 14 17
0.039062 -0.265625 0.046547 12 14 16
0.042969 -0.265625 0.044395 12 14 16
0.046875 -0.265625 0.042466 12 14 16
0.050781 -0.265625 0.040826 12 15 16
0.054688 -0.265625 0.039655 13 15 16
0.058594 -0.265625 0.038849 12 15 16
0.062500 -0.265625 0.038481 11 14 15
0.066406 -0.265625 0.038500 11 13 15
0.070312 -0.265625 0.039197 11 13 15
0.074219 -0.265625 0.040012 12 15 17
0.078125 -0.265625 0.041090 15 18 20
0.082031 -0.265625 0.043159 17 20 23
0.085938 -0.265625 0.045824 17 20 22
0.089844 -0.265625 0.049546 18 21 24
0.093750 -0.265625 0.052913 19 21 25
0.097656 -0.265625 0.057681 14 17 21
0.101562 -0.265625 0.065701 13 17 23
0.105469 -0.265625 0.071684 10 12 21
0.109375 -0.265625 0.087508 16 17 31
0.113281 -0.265625 0.018237 13 12 25
-0.125000 -0.269531 -0.076672 7 7 10
-0.121094 -0.269531 -0.090480 13 13 14
-0.117188 -0.269531 -0.098240 10 11 11
-0.113281 -0.269531 -0.103780 12 13 12
-0.109375 -0.269531 -0.109372 11 13 11
-0.105469 -0.269531 -0.113792 11 12 11
-0.101562 -0.269531 -0.117305 11 12 11
-0.097656 -0.269531 -0.120824 10 11 10
-0.093750 -0.269531 -0.124137 9 11 10
-0.089844 -0.269531 -0.126958 9 10 9
-0.085938 -0.269531 -0.129149 8 9 8
-0.082031 -0.269531 -0.131437 8 8 8
-0.078125 -0.269531 -0.133565 7 8 8
-0.074219 -0.269531 -0.135078 7 7 7
-0.070312 -0.269531 -0.136050 6 7 7
-0.066406 -0.269531 -0.137081 7 8 8
-0.062500 -0.269531 -0.137960 7 8 8
-0.058594 -0.269531 -0.138172 8 8 8
-0.054688 -0.269531 -0.138081 7 7 8
-0.050781 -0.269531 -0.137337 4 5 6
-0.046875 -0.269531 -0.137158 3 3 4
-0.042969 -0.269531 -0.135737 2 2 4
-0.039062 -0.269531 -0.135931 6 6 8
-0.035156 -0.269531 -0.135217 23 25 26
-0.031250 -0.269531 -0.132933 37 38 39
-0.027344 -0.269531 -0.130136 23 24 28
-0.023438 -0.269531 -0.126254 21 22 25
-0.019531 -0.269531 -0.123247 20 21 24
-0.015625 -0.269531 -0.119336 17 18 22
-0.011719 -0.269531 -0.113923 19 20 24
-0.007812 -0.269531 -0.104436 18 20 24
-0.003906 -0.269531 -0.074352 18 20 24
0.000000 -0.269531 0.081413 19 21 25
0.003906 -0.269531 0.063091 19 21 25
0.007812 -0.269531 0.064079 20 22 26
0.011719 -0.269531 0.064171 19 22 26
0.015625 -0.269531 0.061418 17 20 23
0.019531 -0.269531 0.060169 16 18 21
0.023438 -0.269531 0.058281 15 18 21
0.027344 -0.269531 0.055358 14 16 19
0.031250 -0.269531 0.052640 13 15 18
0.035156 -0.269531 0.050283 13 15 17
0.039062 -0.269531 0.047897 12 14 16
0.042969 -0.269531 0.045797 12 14 16
0.046875 -0.269531 0.043926 12 14 16
0.050781 -0.269531 0.042354 12 14 16
0.054688 -0.269531 0.041258 13 15 16
0.058594 -0.269531 0.040527 12 14 16
0.062500 -0.269531 0.040245 11 13 15
0.066406 -0.269531 0.040352 11 13 15
0.070312 -0.269531 0.041158 11 14 16
0.074219 -0.269531 0.042050 12 14 17
0.078125 -0.269531 0.043206 13 16 18
0.082031 -0.269531 0.045480 16 18 21
0.085938 -0.269531 0.048447 16 19 22
0.089844 -0.269531 0.052666 19 22 25
0.093750 -0.269531 0.056287 22 26 30
0.097656 -0.269531 0.061873 20 24 28
0.101562 -0.269531 0.068889 24 30 37
0.105469 -0.269531 0.079062 21 27 39
0.109375 -0.269531 0.089595 23 29 44
-0.125000 -0.273438 -0.077062 3 3 6
-0.121094 -0.273438 -0.087246 10 11 11
-0.117188 -0.273438 -0.097001 10 10 10
-0.113281 -0.273438 -0.102645 13 14 13
-0.109375 -0.273438 -0.108625 12 13 12
-0.105469 -0.273438 -0.113026 11 12 11
-0.101562 -0.273438 -0.116747 10 11 10
-0.097656 -0.273438 -0.120442 10 11 10
-0.093750 -0.273438 -0.123871 9 10 10
-0.089844 -0.273438 -0.126806 9 10 9
-0.085938 -0.273438 -0.129107 8 9 8
-0.082031 -0.273438 -0.131527 8 8 8
-0.078125 -0.273438 -0.133774 7 8 8
-0.074219 -0.273438 -0.135372 6 7 7
-0.070312 -0.273438 -0.136399 6 7 7
-0.066406 -0.273438 -0.137506 7 7 7
-0.062500 -0.273438 -0.138449 7 8 8
-0.058594 -0.273438 -0.138723 8 8 8
-0.054688 -0.273438 -0.138710 7 8 8
-0.050781 -0.273438 -0.137970 5 5 6
-0.046875 -0.273438 -0.137832 3 3 4
-0.042969 -0.273438 -0.136439 3 3 4
-0.039062 -0.273438 -0.136737 6 7 9
-0.035156 -0.273438 -0.135995 25 27 28
-0.031250 -0.273438 -0.133705 36 37 38
-0.027344 -0.273438 -0.130893 22 23 26
-0.023438 -0.273438 -0.126915 20 21 23
-0.019531 -0.273438 -0.123845 19 19 22
-0.015625 -0.273438 -0.119733 16 17 20
-0.011719 -0.273438 -0.114650 18 20 23
-0.007812 -0.273438 -0.104114 19 21 24
-0.003906 -0.273438 -0.082906 20 22 26
0.000000 -0.273438 0.077571 21 22 26
0.003906 -0.273438 0.064068 20 21 25
0.007812 -0.273438 0.064593 20 21 26
0.011719 -0.273438 0.064991 19 21 25
0.015625 -0.273438 0.062474 17 19 23
0.019531 -0.273438 0.061336 16 18 21
0.023438 -0.273438 0.059505 16 19 22
0.027344 -0.273438 0.056602 15 18 21
0.031250 -0.273438 0.053902 14 17 19
0.035156 -0.273438 0.051568 14 17 19
0.039062 -0.273438 0.049205 13 15 17
0.042969 -0.273438 0.047166 13 15 17
0.046875 -0.273438 0.045356 14 16 18
0.050781 -0.273438 0.043849 14 16 18
0.054688 -0.273438 0.042830 13 15 17
0.058594 -0.273438 0.042169 12 14 16
0.062500 -0.273438 0.041979 11 13 15
0.066406 -0.273438 0.042193 11 13 15
0.070312 -0.273438 0.043114 12 14 17
0.074219 -0.273438 0.044118 13 15 18
0.078125 -0.273438 0.045397 15 18 20
0.082031 -0.273438 0.047953 18 21 23
0.085938 -0.273438 0.051263 19 22 24
0.089844 -0.273438 0.055724 19 22 26
0.093750 -0.273438 0.059865 21 24 29
0.097656 -0.273438 0.066226 18 22 28
0.101562 -0.273438 0.071951 22 26 35
0.105469 -0.273438 0.087554 12 14 27
0.109375 -0.273438 0.044151 22 25 41
-0.125000 -0.277344 -0.060733 8 8 10
-0.121094 -0.277344 -0.084260 15 16 16
-0.117188 -0.277344 -0.095212 10 10 10
-0.113281 -0.277344 -0.101850 12 13 12
-0.109375 -0.277344 -0.107831 12 13 12
-0.105469 -0.277344 -0.112321 11 12 11
-0.101562 -0.277344 -0.116214 10 11 10
-0.097656 -0.277344 -0.120058 10 11 10
-0.093750 -0.277344 -0.123613 10 11 10
-0.089844 -0.277344 -0.126676 9 10 9
-0.085938 -0.277344 -0.129093 9 9 9
-0.082031 -0.277344 -0.131647 8 9 8
-0.078125 -0.277344 -0.134014 7 8 8
-0.074219 -0.277344 -0.135695 7 7 7
-0.070312 -0.277344 -0.136777 6 7 7
-0.066406 -0.277344 -0.137952 7 7 7
-0.062500 -0.277344 -0.138957 7 8 8
-0.058594 -0.277344 -0.139287 8 9 9
-0.054688 -0.277344 -0.139352 7 8 8
-0.050781 -0.277344 -0.138627 5 5 6
-0.046875 -0.277344 -0.138552 3 3 5
-0.042969 -0.277344 -0.137157 3 3 5
-0.039062 -0.277344 -0.137443 7 8 10
-0.035156 -0.277344 -0.136726 24 26 27
-0.031250 -0.277344 -0.134540 32 32 33
-0.027344 -0.277344 -0.131686 20 20 24
-0.023438 -0.277344 -0.127637 18 19 22
-0.019531 -0.277344 -0.124492 17 18 20
-0.015625 -0.277344 -0.120244 16 17 20
-0.011719 -0.277344 -0.115310 18 19 23
-0.007812 -0.277344 -0.104523 19 20 23
-0.003906 -0.277344 -0.088923 19 21 24
0.000000 -0.277344 0.071466 20 21 24
0.003906 -0.277344 0.065404 19 20 24
0.007812 -0.277344 0.065035 18 20 24
0.011719 -0.277344 0.065766 18 19 23
0.015625 -0.277344 0.063506 16 18 22
0.019531 -0.277344 0.062469 15 18 21
0.023438 -0.277344 0.060696 15 18 21
0.027344 -0.277344 0.057817 14 16 19
0.031250 -0.277344 0.055124 13 15 17
0.035156 -0.277344 0.052807 13 15 17
0.039062 -0.277344 0.050462 12 14 16
0.042969 -0.277344 0.048495 12 14 16
0.046875 -0.277344 0.046756 14 16 17
0.050781 -0.277344 0.045312 14 16 18
0.054688 -0.277344 0.044375 14 16 17
0.058594 -0.277344 0.043784 13 15 16
0.062500 -0.277344 0.043698 12 14 16
0.066406 -0.277344 0.044049 11 14 16
0.070312 -0.277344 0.045096 12 15 17
0.074219 -0.277344 0.046245 12 15 18
0.078125 -0.277344 0.047660 14 17 19
0.082031 -0.277344 0.050498 17 20 23
0.085938 -0.277344 0.054007 19 21 24
0.089844 -0.277344 0.058231 18 21 25
0.093750 -0.277344 0.063845 20 23 28
0.097656 -0.277344 0.070512 20 24 30
0.101562 -0.277344 0.078249 28 34 44
0.105469 -0.277344 0.102684 14 17 32
0.109375 -0.277344 -0.003354 16 17 31
-0.121094 -0.281250 -0.079326 14 15 15
-0.117188 -0.281250 -0.093119 8 8 9
-0.113281 -0.281250 -0.100831 11 12 11
-0.109375 -0.281250 -0.107015 11 12 11
-0.105469 -0.281250 -0.111749 10 11 10
-0.101562 -0.281250 -0.115681 10 11 10
-0.097656 -0.281250 -0.119718 9 11 10
-0.093750 -0.281250 -0.123391 10 11 10
-0.089844 -0.281250 -0.126567 9 10 9
-0.085938 -0.281250 -0.129103 9 10 9
-0.082031 -0.281250 -0.131788 8 9 8
-0.078125 -0.281250 -0.134271 7 8 8
-0.074219 -0.281250 -0.136033 7 7 7
-0.070312 -0.281250 -0.137163 7 7 7
-0.066406 -0.281250 -0.138402 7 8 8
-0.062500 -0.281250 -0.139470 7 8 8
-0.058594 -0.281250 -0.139858 8 9 9
-0.054688 -0.281250 -0.139991 7 8 8
-0.050781 -0.281250 -0.139285 5 5 7
-0.046875 -0.281250 -0.139301 4 4 5
-0.042969 -0.281250 -0.137923 4 4 6
-0.039062 -0.281250 -0.138181 8 9 11
-0.035156 -0.281250 -0.137446 25 27 28
-0.031250 -0.281250 -0.135419 33 33 35
-0.027344 -0.281250 -0.132409 22 23 26
-0.023438 -0.281250 -0.128379 21 22 24
