ply
    format ascii 1.0
    element vertex 84740
    property float x
    property float y
    property float z
    property uchar red
    property uchar green
    property uchar blue
    end_header
0.253906 -0.117188 0.059590 73 66 67
0.257812 -0.117188 0.053965 74 67 68
0.261719 -0.117188 0.048077 73 67 68
0.265625 -0.117188 0.041393 71 65 65
0.269531 -0.117188 0.034198 78 71 69
0.273438 -0.117188 0.024213 91 81 78
0.359375 -0.117188 0.021101 146 78 55
0.363281 -0.117188 0.031653 171 107 87
0.367188 -0.117188 0.041316 156 91 78
0.371094 -0.117188 0.049708 167 101 85
0.375000 -0.117188 0.051302 196 134 115
0.378906 -0.117188 0.026503 146 85 73
0.382812 -0.117188 0.007451 78 41 37
0.386719 -0.117188 0.007149 104 55 51
0.390625 -0.117188 0.012758 130 64 58
0.394531 -0.117188 0.044476 164 85 72
0.398438 -0.117188 0.068185 184 105 88
0.402344 -0.117188 0.074655 176 104 86
0.406250 -0.117188 0.076125 188 120 104
0.410156 -0.117188 0.072721 181 114 100
0.414062 -0.117188 0.064575 146 82 72
0.417969 -0.117188 0.056696 123 66 60
0.421875 -0.117188 0.047551 137 81 75
0.425781 -0.117188 0.034919 112 65 62
0.429688 -0.117188 0.019638 45 21 22
-0.347656 -0.121094 0.037739 80 41 42
-0.343750 -0.121094 0.048984 90 52 51
-0.339844 -0.121094 0.049253 66 37 38
-0.335938 -0.121094 0.051904 75 41 41
-0.332031 -0.121094 0.062191 117 68 61
-0.328125 -0.121094 0.077686 152 86 74
-0.324219 -0.121094 0.090092 185 104 88
-0.320312 -0.121094 0.094875 180 105 85
-0.316406 -0.121094 0.086889 167 100 85
-0.312500 -0.121094 0.075515 130 67 60
-0.300781 -0.121094 0.096546 154 91 77
-0.296875 -0.121094 0.104703 166 104 87
-0.292969 -0.121094 0.106579 165 104 87
-0.289062 -0.121094 0.106943 165 106 89
-0.285156 -0.121094 0.100135 159 105 84
-0.281250 -0.121094 0.094982 149 102 82
-0.277344 -0.121094 0.086179 135 92 81
-0.210938 -0.121094 0.014654 64 61 64
-0.207031 -0.121094 0.030866 60 55 55
-0.203125 -0.121094 0.040244 55 51 52
-0.199219 -0.121094 0.047245 60 55 57
-0.195312 -0.121094 0.053469 60 55 57
-0.191406 -0.121094 0.058695 60 54 55
-0.187500 -0.121094 0.063116 63 57 57
-0.183594 -0.121094 0.066052 65 59 59
-0.179688 -0.121094 0.067829 65 59 60
-0.175781 -0.121094 0.069679 67 60 61
-0.171875 -0.121094 0.071890 69 62 62
-0.167969 -0.121094 0.074437 69 62 63
-0.164062 -0.121094 0.077079 70 63 64
-0.160156 -0.121094 0.079915 70 63 64
-0.156250 -0.121094 0.082894 71 64 65
-0.152344 -0.121094 0.085865 75 67 68
-0.148438 -0.121094 0.088908 75 67 68
-0.144531 -0.121094 0.091820 76 68 68
-0.140625 -0.121094 0.094496 75 67 68
-0.136719 -0.121094 0.096884 73 66 66
-0.132812 -0.121094 0.098874 74 66 67
-0.128906 -0.121094 0.100648 73 65 66
-0.125000 -0.121094 0.102229 71 63 64
-0.121094 -0.121094 0.103548 72 64 66
-0.117188 -0.121094 0.104517 74 66 67
-0.113281 -0.121094 0.105310 73 66 67
-0.109375 -0.121094 0.105921 73 66 67
-0.105469 -0.121094 0.106518 77 68 69
-0.101562 -0.121094 0.107238 79 70 71
-0.097656 -0.121094 0.107784 80 70 71
-0.093750 -0.121094 0.108061 82 72 73
-0.089844 -0.121094 0.108086 76 67 69
-0.085938 -0.121094 0.107922 71 63 65
-0.082031 -0.121094 0.107594 70 62 64
-0.078125 -0.121094 0.107106 66 59 61
-0.074219 -0.121094 0.106350 64 58 60
-0.070312 -0.121094 0.105246 61 56 58
-0.066406 -0.121094 0.103992 58 53 56
-0.062500 -0.121094 0.102750 58 53 56
-0.058594 -0.121094 0.101502 59 54 58
-0.054688 -0.121094 0.100299 61 56 59
-0.050781 -0.121094 0.099090 67 61 63
-0.046875 -0.121094 0.097838 75 67 68
-0.042969 -0.121094 0.096518 79 71 71
-0.039062 -0.121094 0.095071 85 75 75
-0.035156 -0.121094 0.093533 85 75 75
-0.031250 -0.121094 0.091952 85 75 75
-0.027344 -0.121094 0.089992 89 78 77
-0.023438 -0.121094 0.087493 85 75 75
-0.019531 -0.121094 0.084607 79 70 71
-0.015625 -0.121094 0.081318 73 66 67
-0.011719 -0.121094 0.078173 68 62 64
-0.007812 -0.121094 0.075383 66 61 63
-0.003906 -0.121094 0.072724 65 59 62
0.000000 -0.121094 0.070253 66 61 64
0.003906 -0.121094 0.067592 68 63 66
0.007812 -0.121094 0.064473 69 63 66
0.011719 -0.121094 0.061437 68 62 65
0.015625 -0.121094 0.057830 65 60 63
0.019531 -0.121094 0.052667 66 62 64
0.023438 -0.121094 0.043250 73 69 72
0.027344 -0.121094 0.025738 49 48 51
0.031250 -0.121094 -0.027707 16 14 18
0.050781 -0.121094 -0.041765 30 27 35
0.054688 -0.121094 -0.027986 34 32 38
0.058594 -0.121094 0.014889 49 47 51
0.062500 -0.121094 0.036418 52 49 53
0.066406 -0.121094 0.045228 51 48 52
0.070312 -0.121094 0.049030 54 50 53
0.074219 -0.121094 0.052247 55 50 53
0.078125 -0.121094 0.055933 58 53 56
0.082031 -0.121094 0.059784 60 55 58
0.085938 -0.121094 0.063864 63 58 61
0.089844 -0.121094 0.067830 68 62 65
0.093750 -0.121094 0.071446 73 66 69
0.097656 -0.121094 0.074485 75 68 71
0.101562 -0.121094 0.076918 72 66 69
0.105469 -0.121094 0.079110 72 65 68
0.109375 -0.121094 0.081351 75 68 71
0.113281 -0.121094 0.083227 78 71 73
0.117188 -0.121094 0.084695 77 70 72
0.121094 -0.121094 0.086132 75 68 70
0.125000 -0.121094 0.087579 77 70 71
0.128906 -0.121094 0.088828 76 68 70
0.132812 -0.121094 0.090065 72 66 67
0.136719 -0.121094 0.091292 73 66 68
0.140625 -0.121094 0.092435 73 66 68
0.144531 -0.121094 0.093585 70 64 66
0.148438 -0.121094 0.094767 68 62 65
0.152344 -0.121094 0.095922 68 62 65
0.156250 -0.121094 0.097065 68 61 64
0.160156 -0.121094 0.098199 69 62 65
0.164062 -0.121094 0.099404 72 64 67
0.167969 -0.121094 0.100523 73 65 67
0.171875 -0.121094 0.101495 73 65 66
0.175781 -0.121094 0.102330 72 65 66
0.179688 -0.121094 0.102899 73 65 67
0.183594 -0.121094 0.103303 75 67 69
0.187500 -0.121094 0.103526 74 66 68
0.191406 -0.121094 0.103406 70 63 65
0.195312 -0.121094 0.102882 70 63 64
0.199219 -0.121094 0.102099 71 64 65
0.203125 -0.121094 0.101099 71 64 65
0.207031 -0.121094 0.099948 73 65 66
0.210938 -0.121094 0.098733 73 66 67
0.214844 -0.121094 0.097285 73 65 67
0.218750 -0.121094 0.095484 74 66 68
0.222656 -0.121094 0.093180 74 66 68
0.226562 -0.121094 0.090192 73 65 67
0.230469 -0.121094 0.086760 74 66 68
0.234375 -0.121094 0.083042 74 66 69
0.238281 -0.121094 0.078961 74 66 69
0.242188 -0.121094 0.074570 74 67 69
0.246094 -0.121094 0.069958 74 66 68
0.250000 -0.121094 0.065222 75 67 69
0.253906 -0.121094 0.060045 73 66 67
0.257812 -0.121094 0.054172 74 67 68
0.261719 -0.121094 0.047962 74 68 69
0.265625 -0.121094 0.041146 74 68 68
0.269531 -0.121094 0.033585 75 68 67
0.273438 -0.121094 0.023738 82 71 70
0.355469 -0.121094 0.016231 111 54 38
0.359375 -0.121094 0.025558 141 77 56
0.363281 -0.121094 0.038316 176 115 95
0.367188 -0.121094 0.046335 165 101 88
0.371094 -0.121094 0.049106 168 103 89
0.375000 -0.121094 0.049471 194 132 114
0.378906 -0.121094 0.037170 150 87 74
0.382812 -0.121094 0.018667 107 57 49
0.386719 -0.121094 0.019411 125 65 60
0.390625 -0.121094 0.036657 118 55 50
0.394531 -0.121094 0.060863 159 80 69
0.398438 -0.121094 0.070796 191 115 99
0.402344 -0.121094 0.075284 189 118 101
0.406250 -0.121094 0.073969 193 126 112
0.410156 -0.121094 0.068976 167 100 90
0.414062 -0.121094 0.061174 118 61 56
0.417969 -0.121094 0.054544 125 69 64
0.421875 -0.121094 0.044336 138 87 81
0.425781 -0.121094 0.026873 71 42 43
0.429688 -0.121094 0.008706 27 13 17
-0.347656 -0.125000 0.031467 60 26 27
-0.343750 -0.125000 0.044669 98 54 55
-0.339844 -0.125000 0.047834 86 50 52
-0.335938 -0.125000 0.048417 68 38 38
-0.332031 -0.125000 0.053425 93 53 48
-0.328125 -0.125000 0.069936 135 76 65
-0.324219 -0.125000 0.085277 176 99 84
-0.320312 -0.125000 0.095614 178 103 84
-0.316406 -0.125000 0.095621 170 100 85
-0.312500 -0.125000 0.087569 137 71 64
-0.308594 -0.125000 0.071705 76 36 33
-0.304688 -0.125000 0.069220 92 46 40
-0.300781 -0.125000 0.094414 149 86 73
-0.296875 -0.125000 0.104055 167 105 88
-0.292969 -0.125000 0.105950 164 104 86
-0.289062 -0.125000 0.106169 163 106 87
-0.285156 -0.125000 0.099618 162 107 86
-0.281250 -0.125000 0.095206 151 100 81
-0.277344 -0.125000 0.088123 140 86 74
-0.210938 -0.125000 0.011559 56 53 58
-0.207031 -0.125000 0.031238 62 55 55
-0.203125 -0.125000 0.041774 57 52 53
-0.199219 -0.125000 0.049045 60 56 57
-0.195312 -0.125000 0.055131 62 57 58
-0.191406 -0.125000 0.060227 62 56 57
-0.187500 -0.125000 0.064549 64 58 58
-0.183594 -0.125000 0.067444 66 60 60
-0.179688 -0.125000 0.069242 65 59 60
-0.175781 -0.125000 0.071101 67 61 61
-0.171875 -0.125000 0.073318 69 63 63
-0.167969 -0.125000 0.075846 69 62 63
-0.164062 -0.125000 0.078460 71 64 65
-0.160156 -0.125000 0.081259 73 65 67
-0.156250 -0.125000 0.084155 73 66 67
-0.152344 -0.125000 0.086991 75 67 69
-0.148438 -0.125000 0.089861 75 67 69
-0.144531 -0.125000 0.092609 76 68 69
-0.140625 -0.125000 0.095147 74 67 67
-0.136719 -0.125000 0.097447 71 64 65
-0.132812 -0.125000 0.099409 70 63 64
-0.128906 -0.125000 0.101188 70 62 63
-0.125000 -0.125000 0.102802 70 63 64
-0.121094 -0.125000 0.104175 74 66 68
-0.117188 -0.125000 0.105196 79 71 72
-0.113281 -0.125000 0.106040 81 72 73
-0.109375 -0.125000 0.106655 79 71 73
-0.105469 -0.125000 0.107171 80 71 73
-0.101562 -0.125000 0.107719 79 70 72
-0.097656 -0.125000 0.108034 77 68 70
-0.093750 -0.125000 0.108091 76 66 69
-0.089844 -0.125000 0.107951 72 64 66
-0.085938 -0.125000 0.107693 70 62 64
-0.082031 -0.125000 0.107325 70 62 64
-0.078125 -0.125000 0.106829 67 61 63
-0.074219 -0.125000 0.106120 67 61 63
-0.070312 -0.125000 0.105125 66 60 63
-0.066406 -0.125000 0.103976 64 59 61
-0.062500 -0.125000 0.102801 65 59 62
-0.058594 -0.125000 0.101570 67 61 64
-0.054688 -0.125000 0.100343 70 64 66
-0.050781 -0.125000 0.099080 75 68 69
-0.046875 -0.125000 0.097749 81 72 73
-0.042969 -0.125000 0.096341 85 75 75
-0.039062 -0.125000 0.094791 87 76 76
-0.035156 -0.125000 0.093156 86 75 75
-0.031250 -0.125000 0.091514 86 75 75
-0.027344 -0.125000 0.089409 86 75 76
-0.023438 -0.125000 0.086677 80 70 71
-0.019531 -0.125000 0.083526 73 66 68
-0.015625 -0.125000 0.079939 68 62 64
-0.011719 -0.125000 0.076698 65 60 63
-0.007812 -0.125000 0.074164 65 60 63
-0.003906 -0.125000 0.071939 65 59 62
0.000000 -0.125000 0.069888 66 61 64
0.003906 -0.125000 0.067434 68 63 66
0.007812 -0.125000 0.064319 68 63 65
0.011719 -0.125000 0.061308 67 62 65
0.015625 -0.125000 0.057696 65 60 63
0.019531 -0.125000 0.052460 65 61 64
0.023438 -0.125000 0.042725 70 67 71
0.027344 -0.125000 0.023216 44 43 47
0.031250 -0.125000 -0.038571 12 11 15
0.054688 -0.125000 -0.031535 29 28 34
0.058594 -0.125000 0.004717 48 47 50
0.062500 -0.125000 0.034197 52 49 53
0.066406 -0.125000 0.043548 50 47 51
0.070312 -0.125000 0.047451 53 49 53
0.074219 -0.125000 0.050434 54 50 53
0.078125 -0.125000 0.053744 58 52 56
0.082031 -0.125000 0.057485 61 55 58
0.085938 -0.125000 0.061691 63 58 61
0.089844 -0.125000 0.065808 67 61 64
0.093750 -0.125000 0.069564 72 65 68
0.097656 -0.125000 0.072706 74 66 69
0.101562 -0.125000 0.075179 72 65 68
0.105469 -0.125000 0.077427 71 63 67
0.109375 -0.125000 0.079744 73 65 68
0.113281 -0.125000 0.081706 76 68 70
0.117188 -0.125000 0.083305 75 67 69
0.121094 -0.125000 0.084886 74 67 69
0.125000 -0.125000 0.086469 76 69 70
0.128906 -0.125000 0.087863 75 68 70
0.132812 -0.125000 0.089250 74 67 68
0.136719 -0.125000 0.090609 75 67 68
0.140625 -0.125000 0.091866 75 67 69
0.144531 -0.125000 0.093097 73 65 67
0.148438 -0.125000 0.094300 70 63 66
0.152344 -0.125000 0.095472 70 63 66
0.156250 -0.125000 0.096632 69 62 65
0.160156 -0.125000 0.097792 69 62 65
0.164062 -0.125000 0.099031 72 64 66
0.167969 -0.125000 0.100193 72 64 66
0.171875 -0.125000 0.101232 72 65 66
0.175781 -0.125000 0.102124 73 66 67
0.179688 -0.125000 0.102729 73 66 67
0.183594 -0.125000 0.103147 75 67 69
0.187500 -0.125000 0.103362 75 68 69
0.191406 -0.125000 0.103209 73 65 67
0.195312 -0.125000 0.102621 74 67 68
0.199219 -0.125000 0.101749 73 66 67
0.203125 -0.125000 0.100667 70 62 64
0.207031 -0.125000 0.099509 71 63 65
0.210938 -0.125000 0.098372 73 65 67
0.214844 -0.125000 0.097011 73 66 68
0.218750 -0.125000 0.095259 74 66 68
0.222656 -0.125000 0.093025 72 65 67
0.226562 -0.125000 0.090161 71 64 67
0.230469 -0.125000 0.086888 73 65 68
0.234375 -0.125000 0.083340 74 66 69
0.238281 -0.125000 0.079399 75 67 69
0.242188 -0.125000 0.075077 75 67 69
0.246094 -0.125000 0.070473 75 67 69
0.250000 -0.125000 0.065679 75 68 69
0.253906 -0.125000 0.060368 74 67 68
0.257812 -0.125000 0.054248 74 67 69
0.261719 -0.125000 0.047704 73 67 68
0.265625 -0.125000 0.040663 73 67 68
0.269531 -0.125000 0.032823 72 66 66
0.273438 -0.125000 0.022793 73 64 63
0.355469 -0.125000 0.020260 115 61 45
0.359375 -0.125000 0.035577 141 82 61
0.363281 -0.125000 0.049787 179 119 101
0.367188 -0.125000 0.055700 172 108 97
0.371094 -0.125000 0.055205 162 98 86
0.375000 -0.125000 0.052333 183 117 101
0.378906 -0.125000 0.047019 150 83 70
0.382812 -0.125000 0.042246 146 79 65
0.386719 -0.125000 0.047241 163 91 77
0.390625 -0.125000 0.057904 126 59 50
0.394531 -0.125000 0.066419 157 79 67
0.398438 -0.125000 0.071824 190 115 99
0.402344 -0.125000 0.073663 194 126 109
0.406250 -0.125000 0.070979 199 134 121
0.410156 -0.125000 0.065613 159 92 83
0.414062 -0.125000 0.058857 111 56 52
0.417969 -0.125000 0.052737 122 70 65
0.421875 -0.125000 0.042163 100 63 63
0.425781 -0.125000 0.020659 61 39 46
-0.343750 -0.128906 0.036896 88 45 49
-0.339844 -0.128906 0.045379 103 60 63
-0.335938 -0.128906 0.047022 72 42 43
-0.332031 -0.128906 0.050954 72 44 40
-0.328125 -0.128906 0.066381 104 59 51
-0.324219 -0.128906 0.080804 160 90 76
-0.320312 -0.128906 0.092822 181 110 89
-0.316406 -0.128906 0.100465 184 115 95
-0.312500 -0.128906 0.097473 165 97 82
-0.308594 -0.128906 0.088154 104 54 45
-0.304688 -0.128906 0.080259 98 50 42
-0.300781 -0.128906 0.092298 150 86 72
-0.296875 -0.128906 0.101850 173 111 92
-0.292969 -0.128906 0.104720 169 108 90
-0.289062 -0.128906 0.104863 164 105 88
-0.285156 -0.128906 0.099043 160 103 85
-0.281250 -0.128906 0.095159 148 93 76
-0.277344 -0.128906 0.087805 135 75 66
-0.210938 -0.128906 0.008557 52 49 53
-0.207031 -0.128906 0.031901 59 53 52
-0.203125 -0.128906 0.043336 55 50 51
-0.199219 -0.128906 0.050677 56 52 53
-0.195312 -0.128906 0.056667 58 53 55
-0.191406 -0.128906 0.061618 58 53 54
-0.187500 -0.128906 0.065785 62 56 56
-0.183594 -0.128906 0.068638 65 59 59
-0.179688 -0.128906 0.070517 65 59 60
-0.175781 -0.128906 0.072444 67 61 61
-0.171875 -0.128906 0.074709 69 62 63
-0.167969 -0.128906 0.077250 68 62 63
-0.164062 -0.128906 0.079867 69 63 64
-0.160156 -0.128906 0.082632 71 64 66
-0.156250 -0.128906 0.085426 72 65 67
-0.152344 -0.128906 0.088114 73 66 68
-0.148438 -0.128906 0.090814 74 67 68
-0.144531 -0.128906 0.093398 74 66 68
-0.140625 -0.128906 0.095817 74 66 67
-0.136719 -0.128906 0.098073 73 65 66
-0.132812 -0.128906 0.100057 70 63 64
-0.128906 -0.128906 0.101904 70 63 64
-0.125000 -0.128906 0.103603 71 64 66
-0.121094 -0.128906 0.105049 73 66 68
-0.117188 -0.128906 0.106111 78 70 72
-0.113281 -0.128906 0.106983 81 73 74
-0.109375 -0.128906 0.107585 82 73 75
-0.105469 -0.128906 0.108001 82 74 75
-0.101562 -0.128906 0.108371 80 71 73
-0.097656 -0.128906 0.108463 74 66 69
-0.093750 -0.128906 0.108320 70 62 65
-0.089844 -0.128906 0.108038 69 61 64
-0.085938 -0.128906 0.107676 70 63 65
-0.082031 -0.128906 0.107224 71 63 66
-0.078125 -0.128906 0.106683 69 62 65
-0.074219 -0.128906 0.105988 69 63 65
-0.070312 -0.128906 0.105078 69 63 65
-0.066406 -0.128906 0.104019 68 62 65
-0.062500 -0.128906 0.102894 69 63 65
-0.058594 -0.128906 0.101664 70 63 66
-0.054688 -0.128906 0.100385 74 67 69
-0.050781 -0.128906 0.099026 79 71 71
-0.046875 -0.128906 0.097588 81 72 73
-0.042969 -0.128906 0.096093 84 74 74
-0.039062 -0.128906 0.094467 86 75 75
-0.035156 -0.128906 0.092756 85 74 74
-0.031250 -0.128906 0.091043 84 73 74
-0.027344 -0.128906 0.088814 79 70 71
-0.023438 -0.128906 0.085871 72 65 67
-0.019531 -0.128906 0.082479 67 61 64
-0.015625 -0.128906 0.078657 62 57 61
-0.011719 -0.128906 0.075344 61 56 59
-0.007812 -0.128906 0.073080 64 58 61
-0.003906 -0.128906 0.071297 64 59 62
0.000000 -0.128906 0.069657 67 61 65
0.003906 -0.128906 0.067442 69 64 66
0.007812 -0.128906 0.064360 68 63 66
0.011719 -0.128906 0.061396 68 64 66
0.015625 -0.128906 0.057727 65 61 64
0.019531 -0.128906 0.052528 61 58 62
0.023438 -0.128906 0.042357 65 63 68
0.027344 -0.128906 0.020536 41 40 46
0.054688 -0.128906 -0.035974 28 27 33
0.058594 -0.128906 -0.003070 49 48 52
0.062500 -0.128906 0.031604 53 51 55
0.066406 -0.128906 0.041969 50 48 52
0.070312 -0.128906 0.045937 53 50 53
0.074219 -0.128906 0.048789 54 50 53
0.078125 -0.128906 0.051825 58 52 56
0.082031 -0.128906 0.055391 61 55 59
0.085938 -0.128906 0.059650 63 57 60
0.089844 -0.128906 0.063878 67 60 64
0.093750 -0.128906 0.067749 70 63 67
0.097656 -0.128906 0.070986 71 64 67
0.101562 -0.128906 0.073502 70 63 66
0.105469 -0.128906 0.075800 70 63 66
0.109375 -0.128906 0.078161 71 63 66
0.113281 -0.128906 0.080170 70 62 65
0.117188 -0.128906 0.081860 67 60 63
0.121094 -0.128906 0.083551 69 62 64
0.125000 -0.128906 0.085256 73 66 67
0.128906 -0.128906 0.086825 74 66 68
0.132812 -0.128906 0.088396 72 64 66
0.136719 -0.128906 0.089896 71 64 65
0.140625 -0.128906 0.091289 72 64 66
0.144531 -0.128906 0.092631 71 63 66
0.148438 -0.128906 0.093868 69 62 65
0.152344 -0.128906 0.095053 70 62 66
0.156250 -0.128906 0.096215 68 61 65
0.160156 -0.128906 0.097376 69 62 65
0.164062 -0.128906 0.098634 71 64 67
0.167969 -0.128906 0.099831 73 65 67
0.171875 -0.128906 0.100918 74 67 68
0.175781 -0.128906 0.101850 77 69 70
0.179688 -0.128906 0.102476 76 68 70
0.183594 -0.128906 0.102885 76 68 69
0.187500 -0.128906 0.103092 75 67 69
0.191406 -0.128906 0.102907 72 65 67
0.195312 -0.128906 0.102241 75 67 69
0.199219 -0.128906 0.101265 74 66 68
0.203125 -0.128906 0.100096 69 62 64
0.207031 -0.128906 0.098917 70 63 65
0.210938 -0.128906 0.097818 74 66 67
0.214844 -0.128906 0.096518 76 68 69
0.218750 -0.128906 0.094827 75 67 69
0.222656 -0.128906 0.092700 72 65 67
0.226562 -0.128906 0.090011 71 64 66
0.230469 -0.128906 0.086934 72 65 67
0.234375 -0.128906 0.083580 73 65 68
0.238281 -0.128906 0.079773 73 65 68
0.242188 -0.128906 0.075490 74 66 69
0.246094 -0.128906 0.070872 74 67 68
0.250000 -0.128906 0.066025 75 67 69
0.253906 -0.128906 0.060612 74 66 68
0.257812 -0.128906 0.054280 73 66 68
0.261719 -0.128906 0.047382 73 66 67
0.265625 -0.128906 0.039980 72 66 68
0.269531 -0.128906 0.032242 74 68 68
0.273438 -0.128906 0.022091 81 74 70
0.355469 -0.128906 0.024848 106 53 42
0.359375 -0.128906 0.046260 141 82 63
0.363281 -0.128906 0.058871 171 113 99
0.367188 -0.128906 0.065054 173 115 105
0.371094 -0.128906 0.064781 161 105 93
0.375000 -0.128906 0.059038 165 104 88
0.378906 -0.128906 0.052890 138 75 63
0.382812 -0.128906 0.054544 158 90 75
0.386719 -0.128906 0.060268 175 106 88
0.390625 -0.128906 0.063589 138 70 60
0.394531 -0.128906 0.067018 160 85 74
0.398438 -0.128906 0.069801 176 103 89
0.402344 -0.128906 0.070102 181 114 95
0.406250 -0.128906 0.066668 186 123 109
0.410156 -0.128906 0.061193 142 81 75
0.414062 -0.128906 0.055426 119 61 59
0.417969 -0.128906 0.049467 136 79 75
0.421875 -0.128906 0.038332 93 59 60
0.425781 -0.128906 0.013400 83 58 67
-0.339844 -0.132812 0.040820 80 42 48
-0.335938 -0.132812 0.045556 78 45 47
-0.332031 -0.132812 0.050405 70 44 41
-0.328125 -0.132812 0.063165 82 48 43
-0.324219 -0.132812 0.076360 136 77 65
-0.320312 -0.132812 0.087073 168 101 82
-0.316406 -0.132812 0.096079 180 110 91
-0.312500 -0.132812 0.099574 173 105 88
-0.308594 -0.132812 0.094096 122 67 55
-0.304688 -0.132812 0.086339 95 48 41
-0.300781 -0.132812 0.090484 138 78 64
-0.296875 -0.132812 0.099374 171 109 90
-0.292969 -0.132812 0.102927 171 109 92
-0.289062 -0.132812 0.103361 169 109 92
-0.285156 -0.132812 0.098923 161 101 85
-0.281250 -0.132812 0.094280 150 92 76
-0.277344 -0.132812 0.089111 147 85 74
-0.210938 -0.132812 0.009291 44 41 45
-0.207031 -0.132812 0.032674 53 48 48
-0.203125 -0.132812 0.044684 52 48 48
-0.199219 -0.132812 0.052188 55 51 52
-0.195312 -0.132812 0.058136 57 53 54
-0.191406 -0.132812 0.062865 56 51 53
-0.187500 -0.132812 0.066753 57 53 53
-0.183594 -0.132812 0.069471 62 56 57
-0.179688 -0.132812 0.071376 63 57 58
-0.175781 -0.132812 0.073349 64 58 60
-0.171875 -0.132812 0.075672 67 61 62
-0.167969 -0.132812 0.078265 68 62 63
-0.164062 -0.132812 0.080939 69 63 65
-0.160156 -0.132812 0.083727 71 64 66
-0.156250 -0.132812 0.086488 71 64 66
-0.152344 -0.132812 0.089106 72 65 67
-0.148438 -0.132812 0.091726 73 66 68
-0.144531 -0.132812 0.094246 73 65 68
-0.140625 -0.132812 0.096619 73 66 68
-0.136719 -0.132812 0.098885 75 67 68
-0.132812 -0.132812 0.100925 73 66 67
-0.128906 -0.132812 0.102841 72 65 67
-0.125000 -0.132812 0.104603 71 64 66
-0.121094 -0.132812 0.106058 70 64 66
-0.117188 -0.132812 0.107079 73 66 68
-0.113281 -0.132812 0.107888 75 67 70
-0.109375 -0.132812 0.108429 76 68 70
-0.105469 -0.132812 0.108778 77 69 71
-0.101562 -0.132812 0.109039 76 68 70
-0.097656 -0.132812 0.109023 72 65 68
-0.093750 -0.132812 0.108766 70 63 66
-0.089844 -0.132812 0.108359 70 63 66
-0.085938 -0.132812 0.107854 71 64 66
-0.082031 -0.132812 0.107252 71 63 66
-0.078125 -0.132812 0.106607 69 63 65
-0.074219 -0.132812 0.105855 69 63 66
-0.070312 -0.132812 0.104953 69 63 65
-0.066406 -0.132812 0.103925 70 64 66
-0.062500 -0.132812 0.102830 72 65 68
-0.058594 -0.132812 0.101597 72 65 67
-0.054688 -0.132812 0.100273 76 69 70
-0.050781 -0.132812 0.098862 80 72 73
-0.046875 -0.132812 0.097368 81 73 73
-0.042969 -0.132812 0.095822 85 75 75
-0.039062 -0.132812 0.094140 85 74 75
-0.035156 -0.132812 0.092353 84 73 73
-0.031250 -0.132812 0.090545 81 71 73
-0.027344 -0.132812 0.088193 75 67 69
-0.023438 -0.132812 0.085093 69 62 65
-0.019531 -0.132812 0.081553 65 60 63
-0.015625 -0.132812 0.077633 62 58 60
-0.011719 -0.132812 0.074371 64 58 61
-0.007812 -0.132812 0.072344 67 61 64
-0.003906 -0.132812 0.070886 68 61 65
0.000000 -0.132812 0.069592 72 65 68
0.003906 -0.132812 0.067586 73 67 69
0.007812 -0.132812 0.064534 69 64 67
0.011719 -0.132812 0.061602 69 65 67
0.015625 -0.132812 0.058160 67 63 66
0.019531 -0.132812 0.053303 62 60 64
0.023438 -0.132812 0.042025 63 62 67
0.027344 -0.132812 0.015828 37 37 43
0.054688 -0.132812 -0.032753 27 26 32
0.058594 -0.132812 -0.008822 51 50 53
0.062500 -0.132812 0.028857 54 52 55
0.066406 -0.132812 0.040733 51 49 53
0.070312 -0.132812 0.044735 54 50 54
0.074219 -0.132812 0.047363 55 51 55
0.078125 -0.132812 0.050057 59 54 58
0.082031 -0.132812 0.053421 62 56 60
0.085938 -0.132812 0.057704 63 57 60
0.089844 -0.132812 0.062036 66 60 63
0.093750 -0.132812 0.066057 70 63 66
0.097656 -0.132812 0.069444 72 65 68
0.101562 -0.132812 0.072039 73 66 69
0.105469 -0.132812 0.074389 74 67 70
0.109375 -0.132812 0.076818 76 68 71
0.113281 -0.132812 0.078903 73 65 68
0.117188 -0.132812 0.080652 67 60 64
0.121094 -0.132812 0.082378 64 58 61
0.125000 -0.132812 0.084149 65 58 62
0.128906 -0.132812 0.085865 68 62 64
0.132812 -0.132812 0.087603 68 62 64
0.136719 -0.132812 0.089229 66 60 63
0.140625 -0.132812 0.090741 69 62 64
0.144531 -0.132812 0.092155 69 62 65
0.148438 -0.132812 0.093397 69 62 65
0.152344 -0.132812 0.094591 70 63 66
0.156250 -0.132812 0.095759 70 62 66
0.160156 -0.132812 0.096928 69 62 66
0.164062 -0.132812 0.098195 71 64 67
0.167969 -0.132812 0.099407 72 65 67
0.171875 -0.132812 0.100513 74 66 68
0.175781 -0.132812 0.101463 76 69 70
0.179688 -0.132812 0.102107 76 68 69
0.183594 -0.132812 0.102523 75 67 69
0.187500 -0.132812 0.102745 74 66 68
0.191406 -0.132812 0.102532 72 65 67
0.195312 -0.132812 0.101793 74 66 69
0.199219 -0.132812 0.100748 74 66 68
0.203125 -0.132812 0.099528 70 63 65
0.207031 -0.132812 0.098317 71 64 66
0.210938 -0.132812 0.097178 71 64 66
0.214844 -0.132812 0.095839 70 63 64
0.218750 -0.132812 0.094169 71 63 65
0.222656 -0.132812 0.092152 71 64 66
0.226562 -0.132812 0.089647 71 63 66
0.230469 -0.132812 0.086795 72 65 67
0.234375 -0.132812 0.083667 74 67 69
0.238281 -0.132812 0.080006 74 67 69
0.242188 -0.132812 0.075752 75 67 69
0.246094 -0.132812 0.071101 75 67 69
0.250000 -0.132812 0.066196 75 68 69
0.253906 -0.132812 0.060706 75 67 69
0.257812 -0.132812 0.054211 74 67 68
0.261719 -0.132812 0.047056 73 66 67
0.265625 -0.132812 0.039398 71 65 66
0.269531 -0.132812 0.031611 76 69 69
0.273438 -0.132812 0.022042 87 79 75
0.277344 -0.132812 0.001198 79 72 71
0.355469 -0.132812 0.027523 97 49 42
0.359375 -0.132812 0.046891 139 77 63
0.363281 -0.132812 0.060116 161 105 94
0.367188 -0.132812 0.065161 178 126 114
0.371094 -0.132812 0.063021 174 125 110
0.375000 -0.132812 0.050110 151 98 83
0.378906 -0.132812 0.040222 130 76 64
0.382812 -0.132812 0.044295 163 103 87
0.386719 -0.132812 0.052704 169 106 88
0.390625 -0.132812 0.056863 140 77 66
0.394531 -0.132812 0.061438 156 88 78
0.398438 -0.132812 0.064462 153 86 73
0.402344 -0.132812 0.064444 158 96 75
0.406250 -0.132812 0.060546 163 102 87
0.410156 -0.132812 0.054763 139 81 77
0.414062 -0.132812 0.048999 133 74 71
0.417969 -0.132812 0.042346 148 88 78
0.421875 -0.132812 0.026991 123 78 70
-0.335938 -0.136719 0.046101 62 31 36
-0.332031 -0.136719 0.050216 69 41 40
-0.328125 -0.136719 0.058830 69 41 38
-0.324219 -0.136719 0.071416 111 64 56
-0.320312 -0.136719 0.082634 142 84 69
-0.316406 -0.136719 0.090275 160 95 80
-0.312500 -0.136719 0.095405 164 100 85
-0.308594 -0.136719 0.094054 129 75 62
-0.304688 -0.136719 0.086667 93 50 43
-0.300781 -0.136719 0.086988 125 72 60
-0.296875 -0.136719 0.094867 167 108 88
-0.292969 -0.136719 0.100378 175 116 96
-0.289062 -0.136719 0.102453 180 122 103
-0.285156 -0.136719 0.100036 173 114 96
-0.281250 -0.136719 0.094871 161 103 86
-0.277344 -0.136719 0.089687 149 96 82
-0.210938 -0.136719 0.013416 37 34 39
-0.207031 -0.136719 0.033745 49 46 46
-0.203125 -0.136719 0.045934 51 48 48
-0.199219 -0.136719 0.053591 54 50 52
-0.195312 -0.136719 0.059529 58 53 54
-0.191406 -0.136719 0.063995 56 52 53
-0.187500 -0.136719 0.067540 55 51 52
-0.183594 -0.136719 0.070015 58 53 54
-0.179688 -0.136719 0.071808 59 54 56
-0.175781 -0.136719 0.073728 61 56 57
-0.171875 -0.136719 0.076061 64 59 60
-0.167969 -0.136719 0.078722 66 60 62
-0.164062 -0.136719 0.081538 67 61 63
-0.160156 -0.136719 0.084489 69 63 65
-0.156250 -0.136719 0.087359 68 62 64
-0.152344 -0.136719 0.090029 68 62 64
-0.148438 -0.136719 0.092675 71 64 66
-0.144531 -0.136719 0.095235 71 64 67
-0.140625 -0.136719 0.097647 72 65 67
-0.136719 -0.136719 0.099950 74 67 69
-0.132812 -0.136719 0.102026 75 68 70
-0.128906 -0.136719 0.103973 76 68 71
-0.125000 -0.136719 0.105734 77 69 72
-0.121094 -0.136719 0.107150 77 69 72
-0.117188 -0.136719 0.108064 76 68 71
-0.113281 -0.136719 0.108729 73 65 68
-0.109375 -0.136719 0.109169 70 63 66
-0.105469 -0.136719 0.109462 70 63 66
-0.101562 -0.136719 0.109672 70 63 65
-0.097656 -0.136719 0.109620 70 63 66
-0.093750 -0.136719 0.109317 73 65 68
-0.089844 -0.136719 0.108822 74 66 68
-0.085938 -0.136719 0.108173 72 64 67
-0.082031 -0.136719 0.107428 69 62 63
-0.078125 -0.136719 0.106691 67 61 63
-0.074219 -0.136719 0.105881 68 62 64
-0.070312 -0.136719 0.104958 68 62 65
-0.066406 -0.136719 0.103927 71 64 67
-0.062500 -0.136719 0.102823 74 67 69
-0.058594 -0.136719 0.101559 75 67 70
-0.054688 -0.136719 0.100173 79 71 73
-0.050781 -0.136719 0.098700 82 74 75
-0.046875 -0.136719 0.097154 83 74 75
-0.042969 -0.136719 0.095543 86 76 76
-0.039062 -0.136719 0.093791 84 74 75
-0.035156 -0.136719 0.091938 82 72 73
-0.031250 -0.136719 0.090037 77 68 70
-0.027344 -0.136719 0.087618 71 64 66
-0.023438 -0.136719 0.084497 65 60 63
-0.019531 -0.136719 0.080966 62 57 60
-0.015625 -0.136719 0.077107 60 55 58
-0.011719 -0.136719 0.073950 63 57 60
-0.007812 -0.136719 0.072071 66 60 63
-0.003906 -0.136719 0.070806 68 62 64
0.000000 -0.136719 0.069696 72 65 68
0.003906 -0.136719 0.067796 72 66 68
0.007812 -0.136719 0.064778 68 63 65
0.011719 -0.136719 0.061842 68 64 66
0.015625 -0.136719 0.058729 67 64 66
0.019531 -0.136719 0.054156 62 60 64
0.023438 -0.136719 0.041702 58 58 63
0.027344 -0.136719 0.008440 27 28 35
0.054688 -0.136719 -0.021270 24 24 30
0.058594 -0.136719 -0.013011 51 50 53
0.062500 -0.136719 0.024678 53 51 55
0.066406 -0.136719 0.039713 51 49 53
0.070312 -0.136719 0.043806 53 50 55
0.074219 -0.136719 0.046139 55 50 54
0.078125 -0.136719 0.048439 59 53 57
0.082031 -0.136719 0.051576 62 56 60
0.085938 -0.136719 0.055861 64 58 61
0.089844 -0.136719 0.060298 67 60 64
0.093750 -0.136719 0.064481 70 63 66
0.097656 -0.136719 0.068050 74 66 69
0.101562 -0.136719 0.070758 76 69 72
0.105469 -0.136719 0.073186 77 69 72
0.109375 -0.136719 0.075691 78 71 73
0.113281 -0.136719 0.077848 79 71 74
0.117188 -0.136719 0.079654 78 70 73
0.121094 -0.136719 0.081412 74 67 70
0.125000 -0.136719 0.083208 72 65 67
0.128906 -0.136719 0.085008 78 70 72
0.132812 -0.136719 0.086861 83 75 77
0.136719 -0.136719 0.088566 78 71 73
0.140625 -0.136719 0.090131 76 69 71
0.144531 -0.136719 0.091560 74 67 69
0.148438 -0.136719 0.092809 72 65 68
0.152344 -0.136719 0.094035 73 66 69
0.156250 -0.136719 0.095236 73 65 69
0.160156 -0.136719 0.096432 72 65 68
0.164062 -0.136719 0.097709 73 66 68
0.167969 -0.136719 0.098932 73 66 68
0.171875 -0.136719 0.100050 73 66 68
0.175781 -0.136719 0.101020 74 67 68
0.179688 -0.136719 0.101692 74 66 67
0.183594 -0.136719 0.102116 74 66 67
0.187500 -0.136719 0.102345 74 66 68
0.191406 -0.136719 0.102107 75 67 68
0.195312 -0.136719 0.101307 77 68 70
0.199219 -0.136719 0.100203 76 68 70
0.203125 -0.136719 0.098929 74 66 68
0.207031 -0.136719 0.097653 75 67 68
0.210938 -0.136719 0.096416 72 64 66
0.214844 -0.136719 0.094986 66 59 61
0.218750 -0.136719 0.093300 65 58 60
0.222656 -0.136719 0.091365 69 61 63
0.226562 -0.136719 0.089012 70 62 64
0.230469 -0.136719 0.086364 73 65 67
0.234375 -0.136719 0.083435 76 68 71
0.238281 -0.136719 0.079909 75 68 70
0.242188 -0.136719 0.075697 76 68 70
0.246094 -0.136719 0.071041 74 67 69
0.250000 -0.136719 0.066122 73 66 68
0.253906 -0.136719 0.060619 76 68 70
0.257812 -0.136719 0.054096 78 70 72
0.261719 -0.136719 0.046883 75 68 69
0.265625 -0.136719 0.039082 70 64 65
0.269531 -0.136719 0.031051 77 70 70
0.273438 -0.136719 0.022226 84 76 72
0.277344 -0.136719 0.007991 69 64 65
0.363281 -0.136719 0.027919 142 82 74
0.367188 -0.136719 0.045131 147 89 82
0.371094 -0.136719 0.013308 130 78 71
0.375000 -0.136719 0.006339 85 47 42
0.378906 -0.136719 0.011722 75 41 36
0.382812 -0.136719 0.016465 108 60 51
0.386719 -0.136719 0.029973 102 54 44
0.390625 -0.136719 0.040608 104 55 47
0.394531 -0.136719 0.049667 133 73 65
0.398438 -0.136719 0.055450 120 67 57
0.402344 -0.136719 0.056165 142 91 74
0.406250 -0.136719 0.052179 129 75 68
0.410156 -0.136719 0.046224 116 64 61
0.414062 -0.136719 0.039558 117 67 59
0.417969 -0.136719 0.026789 88 50 42
-0.332031 -0.140625 0.048522 68 36 40
-0.328125 -0.140625 0.055304 65 36 38
-0.324219 -0.140625 0.065503 93 52 49
-0.320312 -0.140625 0.075017 114 66 58
-0.316406 -0.140625 0.079997 126 73 64
-0.312500 -0.140625 0.083584 127 74 65
-0.308594 -0.140625 0.082223 112 65 56
-0.304688 -0.140625 0.077372 88 49 43
-0.300781 -0.140625 0.076681 108 63 53
-0.296875 -0.140625 0.083998 152 95 77
-0.292969 -0.140625 0.092884 173 114 94
-0.289062 -0.140625 0.094854 187 130 109
-0.285156 -0.140625 0.091376 183 124 103
-0.281250 -0.140625 0.089455 170 117 96
-0.210938 -0.140625 0.017079 38 35 38
-0.207031 -0.140625 0.035355 48 45 45
-0.203125 -0.140625 0.047454 53 50 50
-0.199219 -0.140625 0.055108 52 50 51
-0.195312 -0.140625 0.060988 54 51 52
-0.191406 -0.140625 0.065136 55 51 52
-0.187500 -0.140625 0.068328 55 50 52
-0.183594 -0.140625 0.070515 57 52 54
-0.179688 -0.140625 0.072111 58 53 55
-0.175781 -0.140625 0.073907 59 54 56
-0.171875 -0.140625 0.076208 60 55 57
-0.167969 -0.140625 0.078933 61 55 57
-0.164062 -0.140625 0.081943 62 56 59
-0.160156 -0.140625 0.085132 66 60 62
-0.156250 -0.140625 0.088185 66 60 63
-0.152344 -0.140625 0.090978 65 59 62
-0.148438 -0.140625 0.093704 68 61 64
-0.144531 -0.140625 0.096344 71 64 67
-0.140625 -0.140625 0.098820 73 66 68
-0.136719 -0.140625 0.101142 75 68 70
-0.132812 -0.140625 0.103189 78 70 72
-0.128906 -0.140625 0.105094 80 72 74
-0.125000 -0.140625 0.106816 82 74 76
-0.121094 -0.140625 0.108176 84 75 77
-0.117188 -0.140625 0.108987 80 72 74
-0.113281 -0.140625 0.109514 74 66 68
-0.109375 -0.140625 0.109838 70 63 65
-0.105469 -0.140625 0.110048 70 62 65
-0.101562 -0.140625 0.110216 70 63 65
-0.097656 -0.140625 0.110158 72 65 67
-0.093750 -0.140625 0.109851 75 67 69
-0.089844 -0.140625 0.109331 74 66 68
-0.085938 -0.140625 0.108639 71 63 65
-0.082031 -0.140625 0.107844 68 61 63
-0.078125 -0.140625 0.107040 66 59 61
-0.074219 -0.140625 0.106149 67 61 63
-0.070312 -0.140625 0.105170 69 63 66
-0.066406 -0.140625 0.104077 73 67 69
-0.062500 -0.140625 0.102904 77 69 72
-0.058594 -0.140625 0.101574 78 71 72
-0.054688 -0.140625 0.100118 82 74 75
-0.050781 -0.140625 0.098572 84 75 76
-0.046875 -0.140625 0.096957 84 76 76
-0.042969 -0.140625 0.095270 85 76 76
-0.039062 -0.140625 0.093451 82 73 74
-0.035156 -0.140625 0.091528 78 69 71
-0.031250 -0.140625 0.089538 72 65 67
-0.027344 -0.140625 0.087113 66 60 63
-0.023438 -0.140625 0.084089 63 58 61
-0.019531 -0.140625 0.080706 62 57 60
-0.015625 -0.140625 0.077018 61 57 59
-0.011719 -0.140625 0.073986 63 58 61
-0.007812 -0.140625 0.072168 67 61 64
-0.003906 -0.140625 0.070924 70 64 66
0.000000 -0.140625 0.069818 72 65 68
0.003906 -0.140625 0.067934 70 64 66
0.007812 -0.140625 0.064948 67 62 64
0.011719 -0.140625 0.061991 67 63 65
0.015625 -0.140625 0.059116 68 65 67
0.019531 -0.140625 0.054247 63 62 65
0.023438 -0.140625 0.041069 62 62 66
0.027344 -0.140625 -0.001264 29 30 39
0.058594 -0.140625 -0.016301 54 52 55
0.062500 -0.140625 0.019270 53 50 54
0.066406 -0.140625 0.038717 50 48 53
0.070312 -0.140625 0.042674 52 49 54
0.074219 -0.140625 0.044894 51 47 51
0.078125 -0.140625 0.046960 54 50 54
0.082031 -0.140625 0.049848 59 54 58
0.085938 -0.140625 0.054085 63 57 60
0.089844 -0.140625 0.058656 66 59 63
0.093750 -0.140625 0.063021 69 62 65
0.097656 -0.140625 0.066733 72 65 68
0.101562 -0.140625 0.069544 75 67 70
0.105469 -0.140625 0.072077 74 66 70
0.109375 -0.140625 0.074646 73 66 69
0.113281 -0.140625 0.076820 72 65 68
0.117188 -0.140625 0.078651 74 66 70
0.121094 -0.140625 0.080441 74 66 69
0.125000 -0.140625 0.082235 70 63 66
0.128906 -0.140625 0.084052 75 67 69
0.132812 -0.140625 0.085967 84 75 77
0.136719 -0.140625 0.087737 82 73 76
0.140625 -0.140625 0.089354 78 70 72
0.144531 -0.140625 0.090808 75 67 69
0.148438 -0.140625 0.092090 74 66 68
0.152344 -0.140625 0.093376 75 67 69
0.156250 -0.140625 0.094633 74 67 70
0.160156 -0.140625 0.095875 73 66 69
0.164062 -0.140625 0.097176 75 67 70
0.167969 -0.140625 0.098415 75 68 69
0.171875 -0.140625 0.099544 75 68 69
0.175781 -0.140625 0.100534 76 68 70
0.179688 -0.140625 0.101226 76 68 69
0.183594 -0.140625 0.101663 76 68 69
0.187500 -0.140625 0.101902 75 67 69
0.191406 -0.140625 0.101648 76 68 70
0.195312 -0.140625 0.100816 77 69 70
0.199219 -0.140625 0.099667 75 67 69
0.203125 -0.140625 0.098338 74 66 68
0.207031 -0.140625 0.096988 75 67 69
0.210938 -0.140625 0.095664 73 66 67
0.214844 -0.140625 0.094164 68 61 62
0.218750 -0.140625 0.092430 66 59 61
0.222656 -0.140625 0.090495 68 61 63
0.226562 -0.140625 0.088213 68 61 63
0.230469 -0.140625 0.085661 71 64 66
0.234375 -0.140625 0.082836 74 66 69
0.238281 -0.140625 0.079405 73 66 68
0.242188 -0.140625 0.075265 76 68 70
0.246094 -0.140625 0.070685 74 67 69
0.250000 -0.140625 0.065818 71 65 67
0.253906 -0.140625 0.060357 75 67 69
0.257812 -0.140625 0.053908 79 71 72
0.261719 -0.140625 0.046760 76 69 70
0.265625 -0.140625 0.038893 70 65 66
0.269531 -0.140625 0.030761 77 70 70
0.273438 -0.140625 0.022467 77 69 69
0.277344 -0.140625 0.011371 74 70 71
0.382812 -0.140625 0.009261 64 36 29
0.386719 -0.140625 0.020414 56 30 25
0.390625 -0.140625 0.028879 91 53 44
0.394531 -0.140625 0.036666 94 54 49
0.398438 -0.140625 0.044571 71 42 39
0.402344 -0.140625 0.047435 162 123 110
0.406250 -0.140625 0.043216 90 57 60
0.410156 -0.140625 0.036349 51 31 29
0.414062 -0.140625 0.027686 121 82 61
0.417969 -0.140625 0.004449 85 57 41
-0.324219 -0.144531 0.053982 82 43 46
-0.320312 -0.144531 0.062615 99 56 54
-0.316406 -0.144531 0.067333 92 53 50
-0.312500 -0.144531 0.068340 74 41 39
-0.308594 -0.144531 0.067121 67 36 34
-0.304688 -0.144531 0.064595 59 31 29
-0.300781 -0.144531 0.063907 68 36 32
-0.296875 -0.144531 0.068526 96 51 42
-0.292969 -0.144531 0.074894 120 66 54
-0.289062 -0.144531 0.077730 146 86 71
-0.285156 -0.144531 0.077177 154 87 74
-0.210938 -0.144531 0.020447 35 32 34
-0.207031 -0.144531 0.037098 45 42 43
-0.203125 -0.144531 0.048933 57 54 54
-0.199219 -0.144531 0.056664 57 54 55
-0.195312 -0.144531 0.062499 55 52 53
-0.191406 -0.144531 0.066339 55 51 53
-0.187500 -0.144531 0.069187 55 50 52
-0.183594 -0.144531 0.071089 56 52 53
-0.179688 -0.144531 0.072483 58 53 55
-0.175781 -0.144531 0.074143 59 54 56
-0.171875 -0.144531 0.076388 60 55 57
-0.167969 -0.144531 0.079152 62 56 58
-0.164062 -0.144531 0.082312 64 58 61
-0.160156 -0.144531 0.085694 69 62 64
-0.156250 -0.144531 0.088922 68 61 64
-0.152344 -0.144531 0.091885 66 60 63
-0.148438 -0.144531 0.094752 68 62 64
-0.144531 -0.144531 0.097503 71 64 67
-0.140625 -0.144531 0.100032 73 66 68
-0.136719 -0.144531 0.102317 75 67 70
-0.132812 -0.144531 0.104236 77 69 71
-0.128906 -0.144531 0.105988 77 70 72
-0.125000 -0.144531 0.107600 79 72 73
-0.121094 -0.144531 0.108881 81 73 74
-0.117188 -0.144531 0.109639 78 70 71
-0.113281 -0.144531 0.110119 73 66 67
-0.109375 -0.144531 0.110396 70 63 65
-0.105469 -0.144531 0.110559 69 62 64
-0.101562 -0.144531 0.110705 68 61 63
-0.097656 -0.144531 0.110661 68 61 63
-0.093750 -0.144531 0.110382 69 62 64
-0.089844 -0.144531 0.109900 68 61 63
-0.085938 -0.144531 0.109269 70 62 64
-0.082031 -0.144531 0.108512 73 65 66
-0.078125 -0.144531 0.107663 72 64 66
-0.074219 -0.144531 0.106677 73 65 67
-0.070312 -0.144531 0.105615 75 68 70
-0.066406 -0.144531 0.104422 79 72 74
-0.062500 -0.144531 0.103141 81 73 75
-0.058594 -0.144531 0.101724 81 73 75
-0.054688 -0.144531 0.100176 84 76 77
-0.050781 -0.144531 0.098529 84 75 76
-0.046875 -0.144531 0.096811 82 74 74
-0.042969 -0.144531 0.095034 82 74 74
-0.039062 -0.144531 0.093136 80 72 74
-0.035156 -0.144531 0.091129 76 69 71
-0.031250 -0.144531 0.089048 70 64 67
-0.027344 -0.144531 0.086622 66 60 63
-0.023438 -0.144531 0.083723 64 59 62
-0.019531 -0.144531 0.080533 66 60 63
-0.015625 -0.144531 0.077128 67 62 64
-0.011719 -0.144531 0.074317 69 63 66
-0.007812 -0.144531 0.072524 73 66 68
-0.003906 -0.144531 0.071205 74 67 69
0.000000 -0.144531 0.070025 72 65 67
0.003906 -0.144531 0.068133 69 63 65
0.007812 -0.144531 0.065225 67 62 64
0.011719 -0.144531 0.062272 66 62 64
0.015625 -0.144531 0.059657 68 65 67
0.019531 -0.144531 0.054573 62 61 63
0.023438 -0.144531 0.039951 67 65 67
0.027344 -0.144531 -0.013712 42 43 53
0.058594 -0.144531 -0.017463 48 46 50
0.062500 -0.144531 0.013172 48 44 48
0.066406 -0.144531 0.038166 48 47 52
0.070312 -0.144531 0.041923 51 49 53
0.074219 -0.144531 0.044093 49 46 50
0.078125 -0.144531 0.045805 53 49 53
0.082031 -0.144531 0.048264 59 54 58
0.085938 -0.144531 0.052440 62 56 60
0.089844 -0.144531 0.057174 64 57 61
0.093750 -0.144531 0.061736 67 60 64
0.097656 -0.144531 0.065579 70 63 66
0.101562 -0.144531 0.068466 71 64 67
0.105469 -0.144531 0.071088 73 65 68
0.109375 -0.144531 0.073731 72 64 68
0.113281 -0.144531 0.075927 68 61 64
0.117188 -0.144531 0.077723 66 59 63
0.121094 -0.144531 0.079472 67 60 63
0.125000 -0.144531 0.081250 65 58 62
0.128906 -0.144531 0.083057 65 58 61
0.132812 -0.144531 0.084961 68 61 64
0.136719 -0.144531 0.086760 69 62 65
0.140625 -0.144531 0.088453 68 61 64
0.144531 -0.144531 0.089979 68 61 64
0.148438 -0.144531 0.091317 68 61 64
0.152344 -0.144531 0.092671 71 64 66
0.156250 -0.144531 0.093995 73 65 68
0.160156 -0.144531 0.095290 73 66 69
0.164062 -0.144531 0.096623 75 67 69
0.167969 -0.144531 0.097878 74 67 69
0.171875 -0.144531 0.099019 74 67 68
0.175781 -0.144531 0.100017 76 68 69
0.179688 -0.144531 0.100720 76 68 69
0.183594 -0.144531 0.101173 76 68 69
0.187500 -0.144531 0.101420 75 68 69
0.191406 -0.144531 0.101145 76 68 70
0.195312 -0.144531 0.100296 76 69 70
0.199219 -0.144531 0.099134 74 67 69
0.203125 -0.144531 0.097766 73 66 67
0.207031 -0.144531 0.096353 72 65 67
0.210938 -0.144531 0.094960 71 64 65
0.214844 -0.144531 0.093395 69 62 63
0.218750 -0.144531 0.091597 69 62 63
0.222656 -0.144531 0.089623 70 63 64
0.226562 -0.144531 0.087346 68 61 63
0.230469 -0.144531 0.084821 69 62 64
0.234375 -0.144531 0.082045 69 62 65
0.238281 -0.144531 0.078698 68 61 64
0.242188 -0.144531 0.074642 73 65 67
0.246094 -0.144531 0.070150 74 67 68
0.250000 -0.144531 0.065357 72 65 66
0.253906 -0.144531 0.059958 72 65 67
0.257812 -0.144531 0.053594 76 68 69
0.261719 -0.144531 0.046533 75 68 70
0.265625 -0.144531 0.038794 72 66 68
0.269531 -0.144531 0.030676 73 66 68
0.273438 -0.144531 0.022421 66 60 62
0.277344 -0.144531 0.013211 81 77 77
0.390625 -0.144531 0.002424 165 132 101
0.394531 -0.144531 0.016357 101 73 63
0.398438 -0.144531 0.025407 60 44 41
0.402344 -0.144531 0.028887 199 174 159
0.406250 -0.144531 0.025879 83 66 68
0.410156 -0.144531 0.020361 42 42 34
0.414062 -0.144531 0.001669 179 161 116
-0.210938 -0.148438 0.023532 38 34 36
-0.207031 -0.148438 0.038744 42 40 41
-0.203125 -0.148438 0.050218 58 54 54
-0.199219 -0.148438 0.057990 61 58 58
-0.195312 -0.148438 0.063927 59 56 57
-0.191406 -0.148438 0.067619 59 55 57
-0.187500 -0.148438 0.070252 57 53 54
-0.183594 -0.148438 0.071988 57 53 54
-0.179688 -0.148438 0.073259 58 53 55
-0.175781 -0.148438 0.074833 59 55 56
-0.171875 -0.148438 0.077034 62 57 59
-0.167969 -0.148438 0.079799 64 59 60
-0.164062 -0.148438 0.082991 66 60 62
-0.160156 -0.148438 0.086425 68 62 64
-0.156250 -0.148438 0.089764 68 61 64
-0.152344 -0.148438 0.092898 67 61 64
-0.148438 -0.148438 0.095940 69 63 65
-0.144531 -0.148438 0.098814 70 63 66
-0.140625 -0.148438 0.101385 71 64 66
-0.136719 -0.148438 0.103590 73 65 68
-0.132812 -0.148438 0.105325 73 66 68
-0.128906 -0.148438 0.106883 73 65 68
-0.125000 -0.148438 0.108335 74 67 69
-0.121094 -0.148438 0.109525 75 68 69
-0.117188 -0.148438 0.110275 74 66 68
-0.113281 -0.148438 0.110789 72 65 67
-0.109375 -0.148438 0.111113 71 64 66
-0.105469 -0.148438 0.111309 70 62 65
-0.101562 -0.148438 0.111463 65 59 62
-0.097656 -0.148438 0.111427 63 57 60
-0.093750 -0.148438 0.111163 65 59 61
-0.089844 -0.148438 0.110682 65 59 62
-0.085938 -0.148438 0.110049 71 64 66
-0.082031 -0.148438 0.109282 79 70 71
-0.078125 -0.148438 0.108384 79 71 72
-0.074219 -0.148438 0.107326 80 72 73
-0.070312 -0.148438 0.106176 82 74 76
-0.066406 -0.148438 0.104865 84 75 77
-0.062500 -0.148438 0.103464 85 76 78
-0.058594 -0.148438 0.101945 85 76 78
-0.054688 -0.148438 0.100277 86 77 78
-0.050781 -0.148438 0.098507 84 75 76
-0.046875 -0.148438 0.096677 80 72 73
-0.042969 -0.148438 0.094798 79 71 73
-0.039062 -0.148438 0.092818 78 71 73
-0.035156 -0.148438 0.090748 74 68 70
-0.031250 -0.148438 0.088626 69 63 66
-0.027344 -0.148438 0.086263 66 60 63
-0.023438 -0.148438 0.083500 62 57 60
-0.019531 -0.148438 0.080500 63 58 60
-0.015625 -0.148438 0.077389 67 62 64
-0.011719 -0.148438 0.074749 72 65 67
-0.007812 -0.148438 0.072893 75 67 69
-0.003906 -0.148438 0.071436 73 66 68
0.000000 -0.148438 0.070162 69 63 65
0.003906 -0.148438 0.068321 68 62 63
0.007812 -0.148438 0.065588 68 63 64
0.011719 -0.148438 0.062647 66 62 64
0.015625 -0.148438 0.059858 68 65 67
0.019531 -0.148438 0.054431 61 59 61
0.023438 -0.148438 0.037409 59 56 59
0.058594 -0.148438 -0.019089 43 42 45
0.062500 -0.148438 0.008883 42 39 43
0.066406 -0.148438 0.036960 46 45 50
0.070312 -0.148438 0.041180 51 49 53
0.074219 -0.148438 0.043464 49 46 50
0.078125 -0.148438 0.045013 53 50 53
0.082031 -0.148438 0.047092 59 55 58
0.085938 -0.148438 0.051204 61 56 59
0.089844 -0.148438 0.056072 63 57 61
0.093750 -0.148438 0.060776 68 61 64
0.097656 -0.148438 0.064707 71 64 67
0.101562 -0.148438 0.067619 71 64 67
0.105469 -0.148438 0.070286 74 67 69
0.109375 -0.148438 0.073001 78 69 72
0.113281 -0.148438 0.075224 75 67 71
0.117188 -0.148438 0.076952 71 64 67
0.121094 -0.148438 0.078617 70 63 66
0.125000 -0.148438 0.080368 71 64 67
0.128906 -0.148438 0.082159 70 63 67
0.132812 -0.148438 0.084027 68 61 65
0.136719 -0.148438 0.085822 67 60 64
0.140625 -0.148438 0.087566 68 61 64
0.144531 -0.148438 0.089155 68 61 64
0.148438 -0.148438 0.090540 66 60 63
0.152344 -0.148438 0.091941 66 60 63
0.156250 -0.148438 0.093318 69 62 65
0.160156 -0.148438 0.094660 70 63 66
0.164062 -0.148438 0.096027 72 65 67
0.167969 -0.148438 0.097318 74 66 68
0.171875 -0.148438 0.098478 73 66 67
0.175781 -0.148438 0.099482 74 66 68
0.179688 -0.148438 0.100193 75 67 69
0.183594 -0.148438 0.100653 75 67 69
0.187500 -0.148438 0.100894 75 67 69
0.191406 -0.148438 0.100609 76 68 70
0.195312 -0.148438 0.099769 77 69 70
0.199219 -0.148438 0.098618 77 69 70
0.203125 -0.148438 0.097238 76 68 70
0.207031 -0.148438 0.095794 74 66 68
0.210938 -0.148438 0.094366 72 65 66
0.214844 -0.148438 0.092771 71 64 65
0.218750 -0.148438 0.090953 72 64 66
0.222656 -0.148438 0.088961 72 65 66
0.226562 -0.148438 0.086675 69 62 64
0.230469 -0.148438 0.084148 69 63 65
0.234375 -0.148438 0.081392 69 62 65
0.238281 -0.148438 0.078078 67 61 63
0.242188 -0.148438 0.074051 70 63 65
0.246094 -0.148438 0.069607 72 64 66
0.250000 -0.148438 0.064882 71 64 65
0.253906 -0.148438 0.059539 71 64 65
0.257812 -0.148438 0.053227 73 66 67
0.261719 -0.148438 0.046202 73 66 68
0.265625 -0.148438 0.038544 74 67 69
0.269531 -0.148438 0.030639 71 64 67
0.273438 -0.148438 0.022714 61 56 58
0.277344 -0.148438 0.014265 85 80 79
0.281250 -0.148438 -0.000816 108 98 98
-0.210938 -0.152344 0.026104 43 38 40
-0.207031 -0.152344 0.040144 39 37 38
-0.203125 -0.152344 0.051218 51 48 48
-0.199219 -0.152344 0.059108 57 53 54
-0.195312 -0.152344 0.065254 59 56 56
-0.191406 -0.152344 0.068941 62 58 59
-0.187500 -0.152344 0.071475 59 55 57
-0.183594 -0.152344 0.073174 59 55 56
-0.179688 -0.152344 0.074444 59 54 55
-0.175781 -0.152344 0.075997 58 54 55
-0.171875 -0.152344 0.078157 61 55 57
-0.167969 -0.152344 0.080854 62 56 59
-0.164062 -0.152344 0.083926 62 56 59
-0.160156 -0.152344 0.087236 63 58 60
-0.156250 -0.152344 0.090568 65 60 62
-0.152344 -0.152344 0.093827 69 63 65
-0.148438 -0.152344 0.097060 72 66 68
-0.144531 -0.152344 0.100115 73 66 68
-0.140625 -0.152344 0.102777 73 66 68
-0.136719 -0.152344 0.104940 74 66 68
-0.132812 -0.152344 0.106518 71 64 66
-0.128906 -0.152344 0.107907 70 62 65
-0.125000 -0.152344 0.109249 71 63 66
-0.121094 -0.152344 0.110397 72 65 67
-0.117188 -0.152344 0.111178 74 66 68
-0.113281 -0.152344 0.111762 75 67 69
-0.109375 -0.152344 0.112157 77 69 71
-0.105469 -0.152344 0.112409 78 70 72
-0.101562 -0.152344 0.112578 75 67 70
-0.097656 -0.152344 0.112537 74 67 69
-0.093750 -0.152344 0.112242 76 69 71
-0.089844 -0.152344 0.111685 74 67 69
-0.085938 -0.152344 0.110962 76 69 70
-0.082031 -0.152344 0.110097 80 71 73
-0.078125 -0.152344 0.109109 79 70 72
-0.074219 -0.152344 0.107980 82 73 75
-0.070312 -0.152344 0.106727 85 76 78
-0.066406 -0.152344 0.105286 84 76 77
-0.062500 -0.152344 0.103757 84 76 77
-0.058594 -0.152344 0.102104 84 76 77
-0.054688 -0.152344 0.100301 84 76 77
-0.050781 -0.152344 0.098411 82 74 75
-0.046875 -0.152344 0.096473 78 71 72
-0.042969 -0.152344 0.094509 75 68 70
-0.039062 -0.152344 0.092484 73 66 69
-0.035156 -0.152344 0.090406 67 62 64
-0.031250 -0.152344 0.088327 64 58 61
-0.027344 -0.152344 0.086083 63 58 61
-0.023438 -0.152344 0.083495 62 57 60
-0.019531 -0.152344 0.080706 65 60 62
-0.015625 -0.152344 0.077841 71 65 67
-0.011719 -0.152344 0.075306 76 69 70
-0.007812 -0.152344 0.073295 77 69 70
-0.003906 -0.152344 0.071620 74 67 68
0.000000 -0.152344 0.070239 70 63 65
0.003906 -0.152344 0.068479 69 63 64
0.007812 -0.152344 0.065909 71 65 66
0.011719 -0.152344 0.062998 68 63 65
0.015625 -0.152344 0.060173 71 66 68
0.019531 -0.152344 0.055181 64 61 62
0.023438 -0.152344 0.033890 53 49 52
0.058594 -0.152344 -0.017581 47 48 51
0.062500 -0.152344 0.007618 39 36 40
0.066406 -0.152344 0.035561 43 43 47
0.070312 -0.152344 0.040700 48 47 50
