ply
    format ascii 1.0
    element vertex 57706
    property float x
    property float y
    property float z
    property uchar red
    property uchar green
    property uchar blue
    end_header
-0.125000 -0.128906 0.055562 18 17 24
-0.121094 -0.128906 0.056237 19 18 25
-0.117188 -0.128906 0.056443 19 19 25
-0.113281 -0.128906 0.056451 19 18 25
-0.109375 -0.128906 0.056523 19 19 25
-0.105469 -0.128906 0.056051 19 19 25
-0.101562 -0.128906 0.054838 19 19 25
-0.097656 -0.128906 0.053463 19 19 25
-0.093750 -0.128906 0.052148 19 18 25
-0.089844 -0.128906 0.050403 18 18 24
-0.085938 -0.128906 0.048124 18 18 23
-0.082031 -0.128906 0.045653 18 17 23
-0.078125 -0.128906 0.043041 18 18 23
-0.074219 -0.128906 0.040272 18 18 23
-0.070312 -0.128906 0.036901 19 18 23
-0.066406 -0.128906 0.033227 18 18 23
-0.062500 -0.128906 0.028402 17 17 22
-0.058594 -0.128906 0.019225 10 10 14
-0.054688 -0.128906 0.004283 3 2 4
-0.050781 -0.128906 -0.019888 0 0 1
-0.031250 -0.128906 0.014806 2 1 3
-0.027344 -0.128906 0.024567 8 8 12
-0.023438 -0.128906 0.033959 16 18 23
-0.019531 -0.128906 0.041879 19 19 24
-0.015625 -0.128906 0.048157 20 19 23
-0.011719 -0.128906 0.052853 19 18 22
-0.007812 -0.128906 0.056263 18 18 22
-0.003906 -0.128906 0.059473 19 18 22
0.000000 -0.128906 0.062653 18 18 22
0.003906 -0.128906 0.065237 19 18 23
0.007812 -0.128906 0.067304 19 18 23
0.011719 -0.128906 0.069174 19 18 23
0.015625 -0.128906 0.070944 19 19 24
0.019531 -0.128906 0.072402 19 19 23
0.023438 -0.128906 0.073449 19 19 23
0.027344 -0.128906 0.074359 20 19 24
0.031250 -0.128906 0.075230 20 19 23
0.035156 -0.128906 0.075784 19 19 23
0.039062 -0.128906 0.075926 19 19 23
0.042969 -0.128906 0.075883 18 18 22
0.046875 -0.128906 0.075686 18 18 22
0.050781 -0.128906 0.075097 19 19 23
0.054688 -0.128906 0.074076 20 20 23
0.058594 -0.128906 0.072756 20 21 24
0.062500 -0.128906 0.071453 21 22 26
0.066406 -0.128906 0.069687 22 22 26
0.070312 -0.128906 0.066827 23 24 28
0.074219 -0.128906 0.063640 23 24 29
0.078125 -0.128906 0.060302 23 23 28
0.082031 -0.128906 0.056601 23 23 28
0.085938 -0.128906 0.052400 21 20 24
0.089844 -0.128906 0.048034 21 19 22
0.093750 -0.128906 0.041375 23 20 23
0.097656 -0.128906 0.031446 42 30 31
0.101562 -0.128906 0.020735 127 85 72
0.105469 -0.128906 0.076432 180 125 107
0.109375 -0.128906 0.084396 170 106 96
0.113281 -0.128906 0.077291 135 77 69
0.117188 -0.128906 0.066560 84 48 43
0.121094 -0.128906 0.057971 85 43 43
-0.199219 -0.132812 0.089781 92 50 45
-0.195312 -0.132812 0.095018 155 90 79
-0.191406 -0.132812 0.111587 198 127 109
-0.187500 -0.132812 0.118197 212 141 122
-0.183594 -0.132812 0.125158 213 141 123
-0.179688 -0.132812 0.104927 160 91 79
-0.175781 -0.132812 0.010779 72 44 45
-0.171875 -0.132812 0.016038 29 19 24
-0.167969 -0.132812 0.029422 17 12 16
-0.164062 -0.132812 0.030922 21 16 22
-0.160156 -0.132812 0.035727 21 17 25
-0.156250 -0.132812 0.039283 20 16 23
-0.152344 -0.132812 0.042632 21 18 25
-0.148438 -0.132812 0.044925 18 16 23
-0.144531 -0.132812 0.047141 17 15 22
-0.140625 -0.132812 0.049184 17 16 23
-0.136719 -0.132812 0.050907 18 16 23
-0.132812 -0.132812 0.052094 18 17 24
-0.128906 -0.132812 0.053236 18 17 24
-0.125000 -0.132812 0.054313 18 17 24
-0.121094 -0.132812 0.054998 19 18 25
-0.117188 -0.132812 0.055224 19 19 25
-0.113281 -0.132812 0.055244 19 18 25
-0.109375 -0.132812 0.055319 18 18 25
-0.105469 -0.132812 0.054851 18 18 25
-0.101562 -0.132812 0.053638 18 18 24
-0.097656 -0.132812 0.052273 18 18 25
-0.093750 -0.132812 0.050971 18 18 24
-0.089844 -0.132812 0.049235 18 18 24
-0.085938 -0.132812 0.046960 18 18 24
-0.082031 -0.132812 0.044489 18 18 23
-0.078125 -0.132812 0.041874 19 19 24
-0.074219 -0.132812 0.038982 19 19 23
-0.070312 -0.132812 0.035320 19 19 23
-0.066406 -0.132812 0.031235 18 18 23
-0.062500 -0.132812 0.025726 17 17 22
-0.058594 -0.132812 0.015699 9 8 12
-0.054688 -0.132812 0.000684 2 1 3
-0.050781 -0.132812 -0.020622 0 0 0
-0.027344 -0.132812 0.022905 7 7 11
-0.023438 -0.132812 0.032406 16 18 23
-0.019531 -0.132812 0.040598 19 20 24
-0.015625 -0.132812 0.047025 19 19 23
-0.011719 -0.132812 0.051809 19 19 23
-0.007812 -0.132812 0.055319 19 18 22
-0.003906 -0.132812 0.058626 19 18 22
0.000000 -0.132812 0.061873 18 18 22
0.003906 -0.132812 0.064502 18 18 23
0.007812 -0.132812 0.066600 19 18 23
0.011719 -0.132812 0.068487 19 18 23
0.015625 -0.132812 0.070275 20 19 24
0.019531 -0.132812 0.071748 19 18 23
0.023438 -0.132812 0.072788 19 18 23
0.027344 -0.132812 0.073689 20 19 23
0.031250 -0.132812 0.074549 19 19 23
0.035156 -0.132812 0.075083 19 19 23
0.039062 -0.132812 0.075199 19 19 23
0.042969 -0.132812 0.075125 18 18 22
0.046875 -0.132812 0.074898 18 18 22
0.050781 -0.132812 0.074290 19 19 23
0.054688 -0.132812 0.073252 19 19 23
0.058594 -0.132812 0.071921 20 20 24
0.062500 -0.132812 0.070606 21 21 25
0.066406 -0.132812 0.068808 21 22 26
0.070312 -0.132812 0.065920 23 23 28
0.074219 -0.132812 0.062753 23 24 29
0.078125 -0.132812 0.059424 23 23 29
0.082031 -0.132812 0.055776 23 23 28
0.085938 -0.132812 0.051536 21 20 24
0.089844 -0.132812 0.047825 22 20 23
0.093750 -0.132812 0.040749 25 22 25
0.097656 -0.132812 0.028862 48 34 36
0.101562 -0.132812 0.033837 137 92 80
0.105469 -0.132812 0.087728 179 125 108
0.109375 -0.132812 0.082976 161 100 92
0.113281 -0.132812 0.075435 104 59 55
0.117188 -0.132812 0.064483 65 45 43
-0.191406 -0.136719 0.097083 152 88 78
-0.187500 -0.136719 0.116031 184 112 97
-0.183594 -0.136719 0.119276 219 151 128
-0.179688 -0.136719 0.123055 215 145 122
-0.175781 -0.136719 0.094500 168 103 90
-0.171875 -0.136719 0.008797 75 44 43
-0.167969 -0.136719 0.022658 23 15 18
-0.164062 -0.136719 0.033050 18 13 19
-0.160156 -0.136719 0.033212 19 15 23
-0.156250 -0.136719 0.037634 18 16 23
-0.152344 -0.136719 0.040913 19 18 25
-0.148438 -0.136719 0.043287 18 17 23
-0.144531 -0.136719 0.045647 17 16 23
-0.140625 -0.136719 0.047745 18 17 24
-0.136719 -0.136719 0.049498 19 17 24
-0.132812 -0.136719 0.050694 18 17 24
-0.128906 -0.136719 0.051870 18 17 24
-0.125000 -0.136719 0.052966 18 18 24
-0.121094 -0.136719 0.053665 19 18 25
-0.117188 -0.136719 0.053909 19 19 25
-0.113281 -0.136719 0.053943 18 18 25
-0.109375 -0.136719 0.054019 18 19 25
-0.105469 -0.136719 0.053557 18 19 25
-0.101562 -0.136719 0.052346 18 19 25
-0.097656 -0.136719 0.050993 19 19 25
-0.093750 -0.136719 0.049709 19 19 25
-0.089844 -0.136719 0.047981 19 19 25
-0.085938 -0.136719 0.045702 18 18 24
-0.082031 -0.136719 0.043225 18 18 24
-0.078125 -0.136719 0.040583 20 20 25
-0.074219 -0.136719 0.037537 20 20 25
-0.070312 -0.136719 0.033572 20 19 24
-0.066406 -0.136719 0.029003 18 18 23
-0.062500 -0.136719 0.022732 17 17 22
-0.058594 -0.136719 0.012073 8 8 11
-0.054688 -0.136719 -0.002568 1 1 2
-0.050781 -0.136719 -0.021337 0 0 0
-0.027344 -0.136719 0.021369 5 4 7
-0.023438 -0.136719 0.030919 15 15 20
-0.019531 -0.136719 0.039360 19 20 24
-0.015625 -0.136719 0.045911 19 19 23
-0.011719 -0.136719 0.050750 19 19 23
-0.007812 -0.136719 0.054361 19 19 23
-0.003906 -0.136719 0.057762 19 18 22
0.000000 -0.136719 0.061072 18 18 22
0.003906 -0.136719 0.063745 18 18 22
0.007812 -0.136719 0.065875 19 19 23
0.011719 -0.136719 0.067784 19 19 23
0.015625 -0.136719 0.069601 20 19 24
0.019531 -0.136719 0.071097 20 19 24
0.023438 -0.136719 0.072136 20 19 24
0.027344 -0.136719 0.073030 20 19 24
0.031250 -0.136719 0.073882 20 19 24
0.035156 -0.136719 0.074400 20 19 24
0.039062 -0.136719 0.074492 20 20 24
0.042969 -0.136719 0.074386 19 19 23
0.046875 -0.136719 0.074132 18 18 22
0.050781 -0.136719 0.073502 19 19 23
0.054688 -0.136719 0.072440 19 19 23
0.058594 -0.136719 0.071093 19 19 23
0.062500 -0.136719 0.069756 20 20 24
0.066406 -0.136719 0.067925 21 21 25
0.070312 -0.136719 0.065030 22 23 28
0.074219 -0.136719 0.061916 22 23 29
0.078125 -0.136719 0.058647 22 23 29
0.082031 -0.136719 0.055208 23 23 29
0.085938 -0.136719 0.051004 21 20 26
0.089844 -0.136719 0.047152 25 22 27
0.093750 -0.136719 0.037923 29 25 30
0.097656 -0.136719 0.031106 46 33 38
0.101562 -0.136719 0.048015 128 88 79
0.105469 -0.136719 0.088339 180 131 112
0.109375 -0.136719 0.081725 151 93 86
0.113281 -0.136719 0.072470 77 42 42
0.117188 -0.136719 0.060819 73 50 51
-0.183594 -0.140625 0.113913 197 121 106
-0.179688 -0.140625 0.116089 213 143 123
-0.175781 -0.140625 0.122757 201 129 114
-0.171875 -0.140625 0.071769 148 86 77
-0.167969 -0.140625 0.007503 47 28 32
-0.164062 -0.140625 0.031581 21 14 21
-0.160156 -0.140625 0.033968 21 16 24
-0.156250 -0.140625 0.035955 20 17 24
-0.152344 -0.140625 0.038985 19 18 25
-0.148438 -0.140625 0.041613 19 18 24
-0.144531 -0.140625 0.044027 17 17 23
-0.140625 -0.140625 0.046226 18 17 24
-0.136719 -0.140625 0.048019 18 17 24
-0.132812 -0.140625 0.049236 18 17 24
-0.128906 -0.140625 0.050446 18 17 24
-0.125000 -0.140625 0.051565 18 17 24
-0.121094 -0.140625 0.052296 18 18 24
-0.117188 -0.140625 0.052565 18 18 25
-0.113281 -0.140625 0.052606 18 18 25
-0.109375 -0.140625 0.052674 18 19 25
-0.105469 -0.140625 0.052207 19 19 25
-0.101562 -0.140625 0.050991 18 19 25
-0.097656 -0.140625 0.049645 19 19 25
-0.093750 -0.140625 0.048370 19 19 25
-0.089844 -0.140625 0.046638 19 19 25
-0.085938 -0.140625 0.044341 18 18 24
-0.082031 -0.140625 0.041829 19 19 24
-0.078125 -0.140625 0.039131 19 19 24
-0.074219 -0.140625 0.035907 20 19 23
-0.070312 -0.140625 0.031637 20 19 23
-0.066406 -0.140625 0.026594 18 17 22
-0.062500 -0.140625 0.019762 17 16 22
-0.058594 -0.140625 0.008923 9 8 11
-0.054688 -0.140625 -0.005216 2 1 3
-0.050781 -0.140625 -0.022164 0 0 0
-0.027344 -0.140625 0.019659 5 4 7
-0.023438 -0.140625 0.029455 15 15 19
-0.019531 -0.140625 0.038146 20 20 25
-0.015625 -0.140625 0.044792 19 19 23
-0.011719 -0.140625 0.049719 19 19 23
-0.007812 -0.140625 0.053436 18 18 22
-0.003906 -0.140625 0.056915 18 17 22
0.000000 -0.140625 0.060292 18 17 22
0.003906 -0.140625 0.063009 18 18 22
0.007812 -0.140625 0.065167 19 18 23
0.011719 -0.140625 0.067096 19 18 23
0.015625 -0.140625 0.068942 20 19 24
0.019531 -0.140625 0.070462 20 19 24
0.023438 -0.140625 0.071499 20 19 24
0.027344 -0.140625 0.072389 20 19 24
0.031250 -0.140625 0.073237 20 19 24
0.035156 -0.140625 0.073739 20 20 24
0.039062 -0.140625 0.073809 20 20 24
0.042969 -0.140625 0.073678 19 19 23
0.046875 -0.140625 0.073405 19 19 23
0.050781 -0.140625 0.072752 20 20 24
0.054688 -0.140625 0.071661 19 19 24
0.058594 -0.140625 0.070295 19 19 23
0.062500 -0.140625 0.068936 20 20 24
0.066406 -0.140625 0.067080 20 20 25
0.070312 -0.140625 0.064197 21 22 27
0.074219 -0.140625 0.061145 22 22 28
0.078125 -0.140625 0.057923 22 23 29
0.082031 -0.140625 0.054673 23 23 30
0.085938 -0.140625 0.050637 23 22 28
0.089844 -0.140625 0.046669 28 25 30
0.093750 -0.140625 0.037882 33 29 35
0.097656 -0.140625 0.032089 37 29 35
0.101562 -0.140625 0.046429 92 67 63
0.105469 -0.140625 0.087010 164 120 103
0.109375 -0.140625 0.082070 134 80 73
0.113281 -0.140625 0.064087 56 28 29
-0.183594 -0.144531 0.076494 133 70 66
-0.179688 -0.144531 0.108008 177 111 99
-0.175781 -0.144531 0.116875 182 112 100
-0.171875 -0.144531 0.119100 170 104 92
-0.167969 -0.144531 0.045260 75 45 48
-0.164062 -0.144531 0.023100 22 14 21
-0.160156 -0.144531 0.031900 20 14 22
-0.156250 -0.144531 0.035430 20 16 24
-0.152344 -0.144531 0.037544 20 18 24
-0.148438 -0.144531 0.040259 20 18 24
-0.144531 -0.144531 0.042650 18 17 23
-0.140625 -0.144531 0.044845 19 18 24
-0.136719 -0.144531 0.046611 19 17 25
-0.132812 -0.144531 0.047801 18 16 24
-0.128906 -0.144531 0.049003 17 16 24
-0.125000 -0.144531 0.050138 17 17 24
-0.121094 -0.144531 0.050898 18 18 24
-0.117188 -0.144531 0.051192 18 18 25
-0.113281 -0.144531 0.051237 18 18 24
-0.109375 -0.144531 0.051292 18 18 24
-0.105469 -0.144531 0.050817 18 18 25
-0.101562 -0.144531 0.049600 17 18 24
-0.097656 -0.144531 0.048259 17 18 24
-0.093750 -0.144531 0.046985 18 18 24
-0.089844 -0.144531 0.045236 18 18 24
-0.085938 -0.144531 0.042902 18 18 24
-0.082031 -0.144531 0.040345 18 18 24
-0.078125 -0.144531 0.037584 18 18 23
-0.074219 -0.144531 0.034205 18 18 22
-0.070312 -0.144531 0.029696 19 19 23
-0.066406 -0.144531 0.024199 18 17 22
-0.062500 -0.144531 0.016923 19 17 23
-0.058594 -0.144531 0.006158 11 10 14
-0.054688 -0.144531 -0.007353 4 3 5
-0.050781 -0.144531 -0.022984 1 1 2
-0.027344 -0.144531 0.017590 5 4 7
-0.023438 -0.144531 0.028079 13 12 15
-0.019531 -0.144531 0.036961 19 19 23
-0.015625 -0.144531 0.043726 20 20 23
-0.011719 -0.144531 0.048748 19 19 23
-0.007812 -0.144531 0.052564 18 18 22
-0.003906 -0.144531 0.056090 18 17 21
0.000000 -0.144531 0.059520 17 17 21
0.003906 -0.144531 0.062280 18 18 22
0.007812 -0.144531 0.064461 19 18 23
0.011719 -0.144531 0.066409 19 18 23
0.015625 -0.144531 0.068282 19 18 23
0.019531 -0.144531 0.069822 19 18 23
0.023438 -0.144531 0.070861 19 18 23
0.027344 -0.144531 0.071754 20 18 24
0.031250 -0.144531 0.072603 20 19 23
0.035156 -0.144531 0.073091 20 19 23
0.039062 -0.144531 0.073143 20 20 24
0.042969 -0.144531 0.072994 20 20 24
0.046875 -0.144531 0.072701 20 20 24
0.050781 -0.144531 0.072026 21 21 25
0.054688 -0.144531 0.070912 20 20 24
0.058594 -0.144531 0.069531 19 19 24
0.062500 -0.144531 0.068150 20 20 24
0.066406 -0.144531 0.066279 20 20 25
0.070312 -0.144531 0.063415 21 21 26
0.074219 -0.144531 0.060405 21 22 27
0.078125 -0.144531 0.057249 22 23 29
0.082031 -0.144531 0.054113 24 24 30
0.085938 -0.144531 0.050195 25 24 29
0.089844 -0.144531 0.045429 28 26 32
0.093750 -0.144531 0.039374 34 31 38
0.097656 -0.144531 0.030022 30 25 32
0.101562 -0.144531 0.026539 52 38 41
0.105469 -0.144531 0.046050 112 73 70
-0.179688 -0.148438 0.064306 143 90 82
-0.175781 -0.148438 0.109767 161 98 91
-0.171875 -0.148438 0.124942 185 126 114
-0.167969 -0.148438 0.076090 117 78 82
-0.164062 -0.148438 0.027478 24 16 24
-0.160156 -0.148438 0.030936 18 12 19
-0.156250 -0.148438 0.033639 20 16 23
-0.152344 -0.148438 0.036058 21 18 25
-0.148438 -0.148438 0.039032 22 19 25
-0.144531 -0.148438 0.041386 19 18 24
-0.140625 -0.148438 0.043523 20 19 25
-0.136719 -0.148438 0.045234 20 18 26
-0.132812 -0.148438 0.046396 18 17 24
-0.128906 -0.148438 0.047589 18 17 24
-0.125000 -0.148438 0.048743 18 17 24
-0.121094 -0.148438 0.049519 18 18 25
-0.117188 -0.148438 0.049831 19 19 25
-0.113281 -0.148438 0.049879 18 18 25
-0.109375 -0.148438 0.049922 18 18 24
-0.105469 -0.148438 0.049444 18 19 25
-0.101562 -0.148438 0.048231 18 18 24
-0.097656 -0.148438 0.046886 18 18 24
-0.093750 -0.148438 0.045606 18 18 25
-0.089844 -0.148438 0.043830 18 18 24
-0.085938 -0.148438 0.041445 18 18 23
-0.082031 -0.148438 0.038832 19 19 24
-0.078125 -0.148438 0.036016 18 18 23
-0.074219 -0.148438 0.032505 18 18 22
-0.070312 -0.148438 0.027797 20 19 23
-0.066406 -0.148438 0.022021 18 17 23
-0.062500 -0.148438 0.014411 19 17 23
-0.058594 -0.148438 0.003606 11 10 15
-0.054688 -0.148438 -0.009680 5 4 7
-0.050781 -0.148438 -0.024334 2 1 3
-0.027344 -0.148438 0.015577 4 3 5
-0.023438 -0.148438 0.026785 9 8 11
-0.019531 -0.148438 0.035794 16 16 19
-0.015625 -0.148438 0.042666 20 20 23
-0.011719 -0.148438 0.047788 19 19 24
-0.007812 -0.148438 0.051715 18 18 23
-0.003906 -0.148438 0.055297 18 17 22
0.000000 -0.148438 0.058772 18 17 21
0.003906 -0.148438 0.061569 19 18 22
0.007812 -0.148438 0.063771 20 19 23
0.011719 -0.148438 0.065738 19 18 23
0.015625 -0.148438 0.067631 19 18 23
0.019531 -0.148438 0.069189 19 17 23
0.023438 -0.148438 0.070231 18 17 23
0.027344 -0.148438 0.071129 19 18 23
0.031250 -0.148438 0.071983 20 19 24
0.035156 -0.148438 0.072460 20 19 24
0.039062 -0.148438 0.072495 21 20 24
0.042969 -0.148438 0.072326 20 20 24
0.046875 -0.148438 0.072009 20 20 24
0.050781 -0.148438 0.071312 21 20 25
0.054688 -0.148438 0.070177 20 20 24
0.058594 -0.148438 0.068778 20 20 24
0.062500 -0.148438 0.067364 21 21 25
0.066406 -0.148438 0.065460 20 21 25
0.070312 -0.148438 0.062597 21 22 27
0.074219 -0.148438 0.059598 22 23 28
0.078125 -0.148438 0.056451 23 24 29
0.082031 -0.148438 0.053333 25 24 30
0.085938 -0.148438 0.049687 26 25 30
0.089844 -0.148438 0.044226 28 25 32
0.093750 -0.148438 0.038823 34 31 38
0.097656 -0.148438 0.028710 31 27 34
0.101562 -0.148438 0.014115 39 30 35
-0.179688 -0.152344 -0.021516 89 55 53
-0.175781 -0.152344 0.047839 113 64 67
-0.171875 -0.152344 0.084139 186 134 127
-0.167969 -0.152344 0.038083 157 119 122
-0.164062 -0.152344 0.021768 30 22 32
-0.160156 -0.152344 0.028831 18 14 21
-0.156250 -0.152344 0.032105 22 17 25
-0.152344 -0.152344 0.034485 23 18 25
-0.148438 -0.152344 0.037689 23 20 26
-0.144531 -0.152344 0.040015 20 18 24
-0.140625 -0.152344 0.042169 20 19 25
-0.136719 -0.152344 0.043875 19 18 25
-0.132812 -0.152344 0.045036 18 17 24
-0.128906 -0.152344 0.046233 18 17 24
-0.125000 -0.152344 0.047403 17 17 24
-0.121094 -0.152344 0.048192 18 18 24
-0.117188 -0.152344 0.048511 18 18 24
-0.113281 -0.152344 0.048559 17 18 24
-0.109375 -0.152344 0.048593 17 18 24
-0.105469 -0.152344 0.048108 18 18 24
-0.101562 -0.152344 0.046891 18 18 24
-0.097656 -0.152344 0.045533 18 18 24
-0.093750 -0.152344 0.044237 18 18 24
-0.089844 -0.152344 0.042430 18 18 24
-0.085938 -0.152344 0.039996 17 17 23
-0.082031 -0.152344 0.037329 18 19 23
-0.078125 -0.152344 0.034454 18 18 23
-0.074219 -0.152344 0.030838 18 18 21
-0.070312 -0.152344 0.025958 19 18 22
-0.066406 -0.152344 0.019953 17 16 21
-0.062500 -0.152344 0.012074 18 16 23
-0.058594 -0.152344 0.001294 11 9 14
-0.054688 -0.152344 -0.011962 7 6 9
-0.027344 -0.152344 0.013899 5 4 6
-0.023438 -0.152344 0.025569 7 6 9
-0.019531 -0.152344 0.034623 15 14 18
-0.015625 -0.152344 0.041596 20 20 24
-0.011719 -0.152344 0.046817 19 19 24
-0.007812 -0.152344 0.050873 18 18 23
-0.003906 -0.152344 0.054539 18 17 22
0.000000 -0.152344 0.058061 17 16 21
0.003906 -0.152344 0.060883 18 18 22
0.007812 -0.152344 0.063098 19 18 23
0.011719 -0.152344 0.065078 19 18 24
0.015625 -0.152344 0.066989 19 18 24
0.019531 -0.152344 0.068562 19 17 23
0.023438 -0.152344 0.069610 19 17 23
0.027344 -0.152344 0.070511 19 18 23
0.031250 -0.152344 0.071367 20 18 24
0.035156 -0.152344 0.071835 20 19 24
0.039062 -0.152344 0.071855 21 20 24
0.042969 -0.152344 0.071664 20 20 24
0.046875 -0.152344 0.071328 20 19 24
0.050781 -0.152344 0.070611 20 20 24
0.054688 -0.152344 0.069461 20 20 24
0.058594 -0.152344 0.068058 21 20 25
0.062500 -0.152344 0.066623 21 21 25
0.066406 -0.152344 0.064696 21 21 25
0.070312 -0.152344 0.061859 22 22 27
0.074219 -0.152344 0.058875 23 23 28
0.078125 -0.152344 0.055782 25 25 30
0.082031 -0.152344 0.052613 26 26 31
0.085938 -0.152344 0.048898 29 27 32
0.089844 -0.152344 0.043553 28 26 32
0.093750 -0.152344 0.037381 32 30 36
0.097656 -0.152344 0.028044 34 31 38
0.101562 -0.152344 0.014870 37 30 36
-0.175781 -0.156250 -0.009079 43 24 29
-0.171875 -0.156250 0.001057 105 64 69
-0.167969 -0.156250 0.013191 96 66 79
-0.164062 -0.156250 0.020588 21 16 26
-0.160156 -0.156250 0.025805 19 14 22
-0.156250 -0.156250 0.030830 23 18 26
-0.152344 -0.156250 0.033775 22 18 24
-0.148438 -0.156250 0.036657 23 19 25
-0.144531 -0.156250 0.038824 20 18 24
-0.140625 -0.156250 0.040899 20 18 24
-0.136719 -0.156250 0.042580 19 18 25
-0.132812 -0.156250 0.043739 18 18 24
-0.128906 -0.156250 0.044938 18 17 24
-0.125000 -0.156250 0.046121 18 18 24
-0.121094 -0.156250 0.046917 18 18 25
-0.117188 -0.156250 0.047228 18 18 24
-0.113281 -0.156250 0.047276 18 18 24
-0.109375 -0.156250 0.047299 18 18 24
-0.105469 -0.156250 0.046801 18 18 24
-0.101562 -0.156250 0.045570 17 18 24
-0.097656 -0.156250 0.044190 17 17 23
-0.093750 -0.156250 0.042869 17 18 23
-0.089844 -0.156250 0.041024 17 18 24
-0.085938 -0.156250 0.038536 17 17 22
-0.082031 -0.156250 0.035815 18 18 23
-0.078125 -0.156250 0.032865 18 18 22
-0.074219 -0.156250 0.029141 17 17 21
-0.070312 -0.156250 0.024135 19 18 22
-0.066406 -0.156250 0.017924 17 16 22
-0.062500 -0.156250 0.009792 19 16 24
-0.058594 -0.156250 -0.000958 10 8 14
-0.054688 -0.156250 -0.014529 8 6 10
-0.027344 -0.156250 0.012668 4 3 5
-0.023438 -0.156250 0.024567 5 4 6
-0.019531 -0.156250 0.033498 13 13 16
-0.015625 -0.156250 0.040514 19 20 23
-0.011719 -0.156250 0.045829 18 19 23
-0.007812 -0.156250 0.050035 18 18 23
-0.003906 -0.156250 0.053774 18 17 22
0.000000 -0.156250 0.057342 17 17 21
0.003906 -0.156250 0.060198 19 18 23
0.007812 -0.156250 0.062422 20 19 23
0.011719 -0.156250 0.064412 20 19 24
0.015625 -0.156250 0.066339 20 19 24
0.019531 -0.156250 0.067927 19 18 23
0.023438 -0.156250 0.068980 19 17 23
0.027344 -0.156250 0.069881 19 18 23
0.031250 -0.156250 0.070732 19 18 23
0.035156 -0.156250 0.071189 19 18 23
0.039062 -0.156250 0.071191 20 19 24
0.042969 -0.156250 0.070976 20 19 24
0.046875 -0.156250 0.070622 20 19 24
0.050781 -0.156250 0.069888 20 20 24
0.054688 -0.156250 0.068714 20 20 24
0.058594 -0.156250 0.067296 21 20 25
0.062500 -0.156250 0.065839 21 20 25
0.066406 -0.156250 0.063881 20 21 25
0.070312 -0.156250 0.061054 22 22 27
0.074219 -0.156250 0.058065 24 24 28
0.078125 -0.156250 0.054995 25 25 29
0.082031 -0.156250 0.051731 27 26 30
0.085938 -0.156250 0.047692 28 27 32
0.089844 -0.156250 0.042419 26 24 30
0.093750 -0.156250 0.035805 29 26 33
0.097656 -0.156250 0.026653 29 26 36
0.101562 -0.156250 0.011099 20 16 24
-0.175781 -0.160156 -0.004850 17 9 12
-0.171875 -0.160156 0.000125 30 17 23
-0.167969 -0.160156 0.012348 30 20 30
-0.164062 -0.160156 0.019976 15 10 19
-0.160156 -0.160156 0.024306 21 16 25
-0.156250 -0.160156 0.029225 24 18 26
-0.152344 -0.160156 0.032815 21 17 23
-0.148438 -0.160156 0.035557 21 18 24
-0.144531 -0.160156 0.037592 20 18 24
-0.140625 -0.160156 0.039626 19 18 24
-0.136719 -0.160156 0.041329 19 18 24
-0.132812 -0.160156 0.042535 18 18 24
-0.128906 -0.160156 0.043742 18 17 24
-0.125000 -0.160156 0.044931 18 18 24
-0.121094 -0.160156 0.045717 19 18 24
-0.117188 -0.160156 0.046009 18 18 24
-0.113281 -0.160156 0.046051 18 19 24
-0.109375 -0.160156 0.046054 19 19 25
-0.105469 -0.160156 0.045536 19 19 25
-0.101562 -0.160156 0.044283 18 19 25
-0.097656 -0.160156 0.042872 18 18 24
-0.093750 -0.160156 0.041521 18 19 24
-0.089844 -0.160156 0.039635 18 19 24
-0.085938 -0.160156 0.037092 17 18 23
-0.082031 -0.160156 0.034318 19 19 24
-0.078125 -0.160156 0.031306 19 19 23
-0.074219 -0.160156 0.027502 18 19 22
-0.070312 -0.160156 0.022413 19 19 23
-0.066406 -0.160156 0.016027 18 17 23
-0.062500 -0.160156 0.007724 18 15 23
-0.058594 -0.160156 -0.003110 7 5 11
-0.054688 -0.160156 -0.017365 6 4 8
-0.027344 -0.160156 0.011505 2 1 3
-0.023438 -0.160156 0.023525 2 2 3
-0.019531 -0.160156 0.032399 12 12 15
-0.015625 -0.160156 0.039454 20 21 24
-0.011719 -0.160156 0.044842 19 19 24
-0.007812 -0.160156 0.049171 19 19 24
-0.003906 -0.160156 0.052978 18 17 22
0.000000 -0.160156 0.056603 18 17 21
0.003906 -0.160156 0.059505 20 19 23
0.007812 -0.160156 0.061744 20 19 23
0.011719 -0.160156 0.063747 20 19 24
0.015625 -0.160156 0.065693 21 19 25
0.019531 -0.160156 0.067292 20 18 24
0.023438 -0.160156 0.068339 19 18 24
0.027344 -0.160156 0.069232 20 18 24
0.031250 -0.160156 0.070077 19 18 24
0.035156 -0.160156 0.070518 20 18 24
0.039062 -0.160156 0.070498 20 19 24
0.042969 -0.160156 0.070258 20 19 24
0.046875 -0.160156 0.069880 20 19 24
0.050781 -0.160156 0.069129 20 20 24
0.054688 -0.160156 0.067927 20 20 24
0.058594 -0.160156 0.066487 21 20 25
0.062500 -0.160156 0.065006 21 21 26
0.066406 -0.160156 0.063014 21 21 26
0.070312 -0.160156 0.060189 22 22 27
0.074219 -0.160156 0.057199 24 24 28
0.078125 -0.160156 0.054129 26 25 29
0.082031 -0.160156 0.050699 27 26 30
0.085938 -0.160156 0.046458 28 27 32
0.089844 -0.160156 0.041108 24 23 30
0.093750 -0.160156 0.033815 27 25 34
0.097656 -0.160156 0.023802 34 30 42
0.101562 -0.160156 0.010606 17 14 21
-0.171875 -0.164062 0.000365 13 8 13
-0.167969 -0.164062 0.008711 18 12 20
-0.164062 -0.164062 0.016665 17 12 21
-0.160156 -0.164062 0.022089 26 19 29
-0.156250 -0.164062 0.027563 25 20 27
-0.152344 -0.164062 0.031641 20 17 23
-0.148438 -0.164062 0.034235 20 18 24
-0.144531 -0.164062 0.036320 19 18 24
-0.140625 -0.164062 0.038383 18 17 24
-0.136719 -0.164062 0.040134 18 18 24
-0.132812 -0.164062 0.041393 18 17 24
-0.128906 -0.164062 0.042605 18 17 24
-0.125000 -0.164062 0.043785 18 18 24
-0.121094 -0.164062 0.044559 18 18 24
-0.117188 -0.164062 0.044827 18 18 24
-0.113281 -0.164062 0.044854 18 18 24
-0.109375 -0.164062 0.044828 19 19 25
-0.105469 -0.164062 0.044289 18 19 25
-0.101562 -0.164062 0.043017 18 18 24
-0.097656 -0.164062 0.041581 18 18 24
-0.093750 -0.164062 0.040202 18 18 24
-0.089844 -0.164062 0.038279 18 19 24
-0.085938 -0.164062 0.035684 17 18 23
-0.082031 -0.164062 0.032851 18 19 23
-0.078125 -0.164062 0.029776 19 19 23
-0.074219 -0.164062 0.025907 19 19 22
-0.070312 -0.164062 0.020756 20 19 24
-0.066406 -0.164062 0.014203 19 18 24
-0.062500 -0.164062 0.005736 18 15 24
-0.058594 -0.164062 -0.005311 8 6 12
-0.054688 -0.164062 -0.020053 7 6 11
-0.027344 -0.164062 0.010252 2 2 3
-0.023438 -0.164062 0.022467 1 1 2
-0.019531 -0.164062 0.031300 12 11 14
-0.015625 -0.164062 0.038334 21 21 25
-0.011719 -0.164062 0.043774 18 19 24
-0.007812 -0.164062 0.048254 19 19 23
-0.003906 -0.164062 0.052135 17 16 21
0.000000 -0.164062 0.055819 18 16 21
0.003906 -0.164062 0.058763 20 18 23
0.007812 -0.164062 0.061014 20 19 23
0.011719 -0.164062 0.063033 20 19 24
0.015625 -0.164062 0.065001 21 20 25
0.019531 -0.164062 0.066613 20 19 24
0.023438 -0.164062 0.067658 20 18 24
0.027344 -0.164062 0.068544 19 18 24
0.031250 -0.164062 0.069388 19 17 23
0.035156 -0.164062 0.069818 19 18 24
0.039062 -0.164062 0.069777 20 19 24
0.042969 -0.164062 0.069511 20 19 24
0.046875 -0.164062 0.069106 20 19 24
0.050781 -0.164062 0.068331 20 20 24
0.054688 -0.164062 0.067099 20 20 24
0.058594 -0.164062 0.065641 21 20 25
0.062500 -0.164062 0.064139 22 21 26
0.066406 -0.164062 0.062114 22 22 26
0.070312 -0.164062 0.059274 22 22 27
0.074219 -0.164062 0.056255 24 24 28
0.078125 -0.164062 0.053189 25 25 28
0.082031 -0.164062 0.049621 27 26 30
0.085938 -0.164062 0.045043 28 28 32
0.089844 -0.164062 0.039418 23 23 30
0.093750 -0.164062 0.031911 27 26 35
0.097656 -0.164062 0.021054 46 44 56
-0.171875 -0.167969 -0.003292 13 8 17
-0.167969 -0.167969 0.006785 18 12 21
-0.164062 -0.167969 0.014358 19 13 22
-0.160156 -0.167969 0.020987 23 18 26
-0.156250 -0.167969 0.026611 22 18 26
-0.152344 -0.167969 0.030444 21 18 24
-0.148438 -0.167969 0.032898 20 18 25
-0.144531 -0.167969 0.035130 19 18 24
-0.140625 -0.167969 0.037287 19 18 24
-0.136719 -0.167969 0.039073 18 18 24
-0.132812 -0.167969 0.040353 18 18 24
-0.128906 -0.167969 0.041548 18 18 24
-0.125000 -0.167969 0.042710 18 18 24
-0.121094 -0.167969 0.043470 18 18 24
-0.117188 -0.167969 0.043706 18 18 24
-0.113281 -0.167969 0.043711 18 18 24
-0.109375 -0.167969 0.043651 18 19 24
-0.105469 -0.167969 0.043092 18 18 24
-0.101562 -0.167969 0.041807 17 18 24
-0.097656 -0.167969 0.040347 18 18 24
-0.093750 -0.167969 0.038945 18 18 24
-0.089844 -0.167969 0.036989 18 19 24
-0.085938 -0.167969 0.034344 17 18 23
-0.082031 -0.167969 0.031459 18 18 23
-0.078125 -0.167969 0.028327 18 18 22
-0.074219 -0.167969 0.024403 18 18 22
-0.070312 -0.167969 0.019254 19 19 23
-0.066406 -0.167969 0.012595 20 18 25
-0.062500 -0.167969 0.003984 20 16 25
-0.058594 -0.167969 -0.007131 8 6 13
-0.054688 -0.167969 -0.022128 9 7 14
-0.023438 -0.167969 0.021300 1 0 1
-0.019531 -0.167969 0.030238 10 9 12
-0.015625 -0.167969 0.037208 20 20 24
-0.011719 -0.167969 0.042672 19 19 24
-0.007812 -0.167969 0.047327 20 20 24
-0.003906 -0.167969 0.051272 18 17 22
0.000000 -0.167969 0.055008 18 17 21
0.003906 -0.167969 0.057988 20 18 23
0.007812 -0.167969 0.060246 20 19 23
0.011719 -0.167969 0.062279 20 19 24
0.015625 -0.167969 0.064272 21 19 24
0.019531 -0.167969 0.065899 20 18 24
0.023438 -0.167969 0.066947 19 18 24
0.027344 -0.167969 0.067829 19 18 24
0.031250 -0.167969 0.068677 19 17 23
0.035156 -0.167969 0.069100 19 18 24
0.039062 -0.167969 0.069043 20 18 24
0.042969 -0.167969 0.068760 20 19 24
0.046875 -0.167969 0.068331 20 19 24
0.050781 -0.167969 0.067532 20 20 24
0.054688 -0.167969 0.066268 20 20 25
0.058594 -0.167969 0.064786 21 20 25
0.062500 -0.167969 0.063255 22 21 26
0.066406 -0.167969 0.061185 22 22 27
0.070312 -0.167969 0.058303 22 22 27
0.074219 -0.167969 0.055221 23 23 27
0.078125 -0.167969 0.052079 24 23 27
0.082031 -0.167969 0.048400 25 25 28
0.085938 -0.167969 0.043539 27 27 31
0.089844 -0.167969 0.037521 20 20 27
0.093750 -0.167969 0.029615 21 21 29
0.097656 -0.167969 0.017720 38 35 45
-0.171875 -0.171875 -0.004860 14 9 21
-0.167969 -0.171875 0.005847 19 13 21
-0.164062 -0.171875 0.013780 19 13 21
-0.160156 -0.171875 0.019961 21 17 24
-0.156250 -0.171875 0.025247 21 18 25
-0.152344 -0.171875 0.028839 21 19 25
-0.148438 -0.171875 0.031444 20 18 25
-0.144531 -0.171875 0.033880 18 17 24
-0.140625 -0.171875 0.036197 18 17 24
-0.136719 -0.171875 0.038044 18 17 24
-0.132812 -0.171875 0.039337 18 17 24
-0.128906 -0.171875 0.040511 18 17 24
-0.125000 -0.171875 0.041666 17 17 23
-0.121094 -0.171875 0.042400 18 17 23
-0.117188 -0.171875 0.042596 18 18 24
-0.113281 -0.171875 0.042570 18 18 24
-0.109375 -0.171875 0.042477 18 19 24
-0.105469 -0.171875 0.041900 18 19 25
-0.101562 -0.171875 0.040606 18 19 25
-0.097656 -0.171875 0.039134 18 19 25
-0.093750 -0.171875 0.037719 18 19 25
-0.089844 -0.171875 0.035734 18 19 25
-0.085938 -0.171875 0.033042 17 18 23
-0.082031 -0.171875 0.030107 18 18 23
-0.078125 -0.171875 0.026927 18 18 22
-0.074219 -0.171875 0.022967 18 18 21
-0.070312 -0.171875 0.017844 19 18 23
-0.066406 -0.171875 0.011147 20 19 24
-0.062500 -0.171875 0.002499 19 16 24
-0.058594 -0.171875 -0.008481 8 6 13
-0.054688 -0.171875 -0.023824 9 8 14
-0.023438 -0.171875 0.019449 1 0 1
-0.019531 -0.171875 0.029146 10 8 11
-0.015625 -0.171875 0.036171 19 18 21
-0.011719 -0.171875 0.041528 18 18 23
-0.007812 -0.171875 0.046340 20 20 24
-0.003906 -0.171875 0.050373 18 17 21
0.000000 -0.171875 0.054161 18 17 21
0.003906 -0.171875 0.057175 19 18 22
0.007812 -0.171875 0.059442 20 18 23
0.011719 -0.171875 0.061491 20 19 24
0.015625 -0.171875 0.063512 20 19 24
0.019531 -0.171875 0.065157 20 18 24
0.023438 -0.171875 0.066208 19 18 24
0.027344 -0.171875 0.067093 19 18 24
0.031250 -0.171875 0.067952 19 18 24
0.035156 -0.171875 0.068369 19 18 24
0.039062 -0.171875 0.068295 19 18 23
0.042969 -0.171875 0.067996 19 18 24
0.046875 -0.171875 0.067544 20 19 24
0.050781 -0.171875 0.066718 20 19 24
0.054688 -0.171875 0.065417 20 19 24
0.058594 -0.171875 0.063909 20 20 25
0.062500 -0.171875 0.062347 21 21 26
0.066406 -0.171875 0.060231 21 22 27
0.070312 -0.171875 0.057296 22 22 27
0.074219 -0.171875 0.054142 22 22 26
0.078125 -0.171875 0.050902 23 23 27
0.082031 -0.171875 0.047070 24 24 27
0.085938 -0.171875 0.041946 27 27 30
0.089844 -0.171875 0.035523 20 20 26
0.093750 -0.171875 0.027014 21 21 28
0.097656 -0.171875 0.013893 32 29 36
-0.171875 -0.175781 -0.006670 16 12 25
-0.167969 -0.175781 0.004882 23 16 23
-0.164062 -0.175781 0.012848 22 15 22
-0.160156 -0.175781 0.018803 22 18 25
-0.156250 -0.175781 0.023829 21 18 25
-0.152344 -0.175781 0.027332 21 19 26
-0.148438 -0.175781 0.030096 19 18 25
-0.144531 -0.175781 0.032679 18 17 24
-0.140625 -0.175781 0.035112 18 17 24
-0.136719 -0.175781 0.037026 18 17 24
-0.132812 -0.175781 0.038320 18 17 24
-0.128906 -0.175781 0.039491 18 18 25
-0.125000 -0.175781 0.040650 17 17 24
-0.121094 -0.175781 0.041359 18 17 24
-0.117188 -0.175781 0.041513 18 18 24
-0.113281 -0.175781 0.041450 17 17 23
-0.109375 -0.175781 0.041323 18 18 24
-0.105469 -0.175781 0.040723 17 18 24
-0.101562 -0.175781 0.039418 17 18 24
-0.097656 -0.175781 0.037937 17 18 24
-0.093750 -0.175781 0.036510 17 18 24
-0.089844 -0.175781 0.034502 17 18 24
-0.085938 -0.175781 0.031768 17 17 23
-0.082031 -0.175781 0.028789 18 18 23
-0.078125 -0.175781 0.025568 18 18 22
-0.074219 -0.175781 0.021575 18 18 21
-0.070312 -0.175781 0.016496 20 19 23
-0.066406 -0.175781 0.009790 21 19 24
-0.062500 -0.175781 0.001172 20 17 25
-0.058594 -0.175781 -0.009382 9 7 14
-0.054688 -0.175781 -0.025783 12 11 18
-0.023438 -0.175781 0.017946 1 1 2
-0.019531 -0.175781 0.027771 11 9 12
-0.015625 -0.175781 0.034901 17 16 19
-0.011719 -0.175781 0.040405 17 17 23
-0.007812 -0.175781 0.045400 19 19 24
-0.003906 -0.175781 0.049501 17 17 21
0.000000 -0.175781 0.053310 18 17 21
0.003906 -0.175781 0.056355 19 17 22
0.007812 -0.175781 0.058624 20 18 23
0.011719 -0.175781 0.060677 20 18 23
0.015625 -0.175781 0.062725 20 18 23
0.019531 -0.175781 0.064385 19 18 23
0.023438 -0.175781 0.065440 19 18 24
0.027344 -0.175781 0.066329 19 18 24
0.031250 -0.175781 0.067200 19 18 24
0.035156 -0.175781 0.067610 19 17 23
0.039062 -0.175781 0.067520 19 17 23
0.042969 -0.175781 0.067206 19 18 24
0.046875 -0.175781 0.066733 20 19 24
0.050781 -0.175781 0.065881 20 19 24
0.054688 -0.175781 0.064546 20 19 24
0.058594 -0.175781 0.063012 20 19 25
0.062500 -0.175781 0.061422 20 20 25
0.066406 -0.175781 0.059260 21 21 26
0.070312 -0.175781 0.056258 21 22 26
0.074219 -0.175781 0.053027 21 22 26
0.078125 -0.175781 0.049708 23 23 27
0.082031 -0.175781 0.045785 25 25 28
0.085938 -0.175781 0.040297 28 28 31
0.089844 -0.175781 0.033288 21 21 27
0.093750 -0.175781 0.024323 21 22 28
0.097656 -0.175781 0.010143 27 25 30
-0.171875 -0.179688 -0.009791 22 17 33
-0.167969 -0.179688 0.002902 27 19 26
-0.164062 -0.179688 0.011013 23 17 23
-0.160156 -0.179688 0.017243 22 18 25
-0.156250 -0.179688 0.022160 21 18 25
-0.152344 -0.179688 0.025674 21 19 26
-0.148438 -0.179688 0.028641 20 18 25
-0.144531 -0.179688 0.031396 19 18 25
-0.140625 -0.179688 0.033987 18 18 24
-0.136719 -0.179688 0.035992 18 17 24
-0.132812 -0.179688 0.037301 17 17 24
-0.128906 -0.179688 0.038477 18 17 24
-0.125000 -0.179688 0.039634 17 17 24
-0.121094 -0.179688 0.040322 18 17 24
-0.117188 -0.179688 0.040436 18 18 24
-0.113281 -0.179688 0.040341 17 17 23
-0.109375 -0.179688 0.040185 18 18 24
-0.105469 -0.179688 0.039564 18 18 24
-0.101562 -0.179688 0.038251 17 18 24
-0.097656 -0.179688 0.036759 17 18 24
-0.093750 -0.179688 0.035317 17 18 24
-0.089844 -0.179688 0.033284 17 18 24
-0.085938 -0.179688 0.030509 17 17 23
-0.082031 -0.179688 0.027493 18 18 23
-0.078125 -0.179688 0.024243 18 18 22
-0.074219 -0.179688 0.020236 18 18 21
-0.070312 -0.179688 0.015215 20 19 23
-0.066406 -0.179688 0.008505 20 19 24
-0.062500 -0.179688 -0.000119 19 16 23
-0.058594 -0.179688 -0.010684 9 7 14
-0.023438 -0.179688 0.015731 2 1 3
-0.019531 -0.179688 0.026228 11 8 11
-0.015625 -0.179688 0.033667 16 14 18
-0.011719 -0.179688 0.039415 18 17 23
-0.007812 -0.179688 0.044432 19 19 24
-0.003906 -0.179688 0.048608 17 17 21
0.000000 -0.179688 0.052469 17 17 21
0.003906 -0.179688 0.055539 18 17 21
0.007812 -0.179688 0.057802 19 17 22
0.011719 -0.179688 0.059858 18 17 22
0.015625 -0.179688 0.061929 18 17 22
0.019531 -0.179688 0.063600 19 17 23
0.023438 -0.179688 0.064656 19 18 23
0.027344 -0.179688 0.065546 19 18 24
0.031250 -0.179688 0.066423 19 18 24
0.035156 -0.179688 0.066823 19 18 23
0.039062 -0.179688 0.066710 19 17 23
0.042969 -0.179688 0.066378 20 18 24
0.046875 -0.179688 0.065881 20 19 24
0.050781 -0.179688 0.065005 20 19 24
0.054688 -0.179688 0.063640 20 19 24
0.058594 -0.179688 0.062084 20 19 24
0.062500 -0.179688 0.060470 20 20 25
0.066406 -0.179688 0.058268 20 21 26
0.070312 -0.179688 0.055197 21 22 26
0.074219 -0.179688 0.051886 21 22 26
0.078125 -0.179688 0.048461 23 23 27
0.082031 -0.179688 0.044428 24 25 27
0.085938 -0.179688 0.038671 28 28 31
0.089844 -0.179688 0.031056 21 22 27
0.093750 -0.179688 0.021318 19 20 26
0.097656 -0.179688 0.005596 17 16 20
-0.171875 -0.183594 -0.014404 17 13 28
-0.167969 -0.183594 -0.000187 26 19 24
-0.164062 -0.183594 0.008781 24 18 24
-0.160156 -0.183594 0.015425 24 19 27
-0.156250 -0.183594 0.020400 22 19 26
-0.152344 -0.183594 0.024048 22 20 27
-0.148438 -0.183594 0.027231 20 19 25
-0.144531 -0.183594 0.030183 20 18 25
-0.140625 -0.183594 0.032945 19 18 24
-0.136719 -0.183594 0.035041 18 17 24
-0.132812 -0.183594 0.036356 18 17 24
-0.128906 -0.183594 0.037518 17 17 23
-0.125000 -0.183594 0.038672 17 17 23
-0.121094 -0.183594 0.039329 17 17 23
-0.117188 -0.183594 0.039396 17 17 23
-0.113281 -0.183594 0.039265 17 18 23
-0.109375 -0.183594 0.039079 18 18 24
-0.105469 -0.183594 0.038431 19 19 25
-0.101562 -0.183594 0.037106 18 19 25
-0.097656 -0.183594 0.035597 18 19 25
-0.093750 -0.183594 0.034132 17 18 24
-0.089844 -0.183594 0.032074 17 18 24
-0.085938 -0.183594 0.029263 17 17 23
-0.082031 -0.183594 0.026210 18 18 23
-0.078125 -0.183594 0.022935 18 18 22
-0.074219 -0.183594 0.018927 18 17 21
-0.070312 -0.183594 0.013916 20 19 23
-0.066406 -0.183594 0.007216 19 18 23
-0.062500 -0.183594 -0.001486 19 18 23
-0.058594 -0.183594 -0.013008 11 10 16
-0.023438 -0.183594 0.013504 3 2 5
-0.019531 -0.183594 0.024678 12 9 12
-0.015625 -0.183594 0.032205 15 13 17
-0.011719 -0.183594 0.038391 18 17 23
-0.007812 -0.183594 0.043506 19 19 24
-0.003906 -0.183594 0.047752 18 17 22
0.000000 -0.183594 0.051645 18 17 21
0.003906 -0.183594 0.054744 18 17 22
0.007812 -0.183594 0.056998 19 18 22
0.011719 -0.183594 0.059047 18 17 22
0.015625 -0.183594 0.061134 18 17 22
0.019531 -0.183594 0.062802 18 17 22
0.023438 -0.183594 0.063849 19 18 23
0.027344 -0.183594 0.064734 19 18 24
0.031250 -0.183594 0.065606 20 18 24
0.035156 -0.183594 0.065989 19 18 24
0.039062 -0.183594 0.065849 19 17 23
0.042969 -0.183594 0.065493 20 18 24
0.046875 -0.183594 0.064969 20 19 24
0.050781 -0.183594 0.064071 20 19 24
0.054688 -0.183594 0.062686 20 19 24
0.058594 -0.183594 0.061116 20 19 25
0.062500 -0.183594 0.059485 20 20 25
0.066406 -0.183594 0.057245 21 21 26
0.070312 -0.183594 0.054099 22 22 27
0.074219 -0.183594 0.050693 22 23 27
0.078125 -0.183594 0.047149 24 24 27
0.082031 -0.183594 0.042932 25 25 28
0.085938 -0.183594 0.036892 28 28 31
0.089844 -0.183594 0.028874 23 23 28
0.093750 -0.183594 0.018254 21 21 27
-0.171875 -0.187500 -0.019257 19 15 30
-0.167969 -0.187500 -0.003647 26 20 25
-0.164062 -0.187500 0.006507 24 18 24
-0.160156 -0.187500 0.013614 24 19 27
-0.156250 -0.187500 0.018794 22 19 26
-0.152344 -0.187500 0.022498 22 20 27
-0.148438 -0.187500 0.025840 21 19 26
-0.144531 -0.187500 0.028978 20 19 25
-0.140625 -0.187500 0.031886 20 18 25
-0.136719 -0.187500 0.034070 19 18 24
-0.132812 -0.187500 0.035403 19 18 24
-0.128906 -0.187500 0.036563 18 17 24
-0.125000 -0.187500 0.037723 18 18 24
-0.121094 -0.187500 0.038356 18 18 23
-0.117188 -0.187500 0.038384 18 18 24
-0.113281 -0.187500 0.038221 18 18 23
-0.109375 -0.187500 0.038005 18 18 24
-0.105469 -0.187500 0.037333 18 19 25
-0.101562 -0.187500 0.035995 18 19 25
-0.097656 -0.187500 0.034467 17 18 24
-0.093750 -0.187500 0.032975 17 18 23
-0.089844 -0.187500 0.030893 17 17 23
-0.085938 -0.187500 0.028056 17 17 22
-0.082031 -0.187500 0.024985 18 18 23
-0.078125 -0.187500 0.021703 19 18 22
-0.074219 -0.187500 0.017713 18 17 21
-0.070312 -0.187500 0.012709 20 19 23
-0.066406 -0.187500 0.005965 19 18 22
-0.062500 -0.187500 -0.002904 19 18 23
-0.058594 -0.187500 -0.015207 11 10 16
-0.019531 -0.187500 0.022754 13 9 12
-0.015625 -0.187500 0.030740 15 12 16
-0.011719 -0.187500 0.037239 19 18 24
-0.007812 -0.187500 0.042567 20 20 25
-0.003906 -0.187500 0.046916 18 18 22
0.000000 -0.187500 0.050863 18 18 22
0.003906 -0.187500 0.053973 19 18 22
0.007812 -0.187500 0.056205 20 19 23
0.011719 -0.187500 0.058245 19 18 23
0.015625 -0.187500 0.060343 18 17 22
0.019531 -0.187500 0.062006 19 18 23
0.023438 -0.187500 0.063038 20 18 23
0.027344 -0.187500 0.063906 20 19 24
0.031250 -0.187500 0.064767 20 18 24
0.035156 -0.187500 0.065129 20 18 24
0.039062 -0.187500 0.064961 19 18 23
0.042969 -0.187500 0.064579 20 19 24
0.046875 -0.187500 0.064031 20 19 24
0.050781 -0.187500 0.063119 20 19 24
0.054688 -0.187500 0.061723 20 19 24
0.058594 -0.187500 0.060139 20 20 25
0.062500 -0.187500 0.058492 20 20 25
0.066406 -0.187500 0.056211 21 21 26
0.070312 -0.187500 0.052988 22 22 26
0.074219 -0.187500 0.049480 22 22 26
0.078125 -0.187500 0.045833 23 23 27
0.082031 -0.187500 0.041444 24 25 28
0.085938 -0.187500 0.035177 28 28 31
0.089844 -0.187500 0.026855 22 22 27
0.093750 -0.187500 0.015548 20 20 26
-0.171875 -0.191406 -0.018945 18 15 30
-0.167969 -0.191406 -0.007734 22 17 23
-0.164062 -0.191406 0.003893 21 16 22
-0.160156 -0.191406 0.011547 23 19 27
-0.156250 -0.191406 0.017006 22 19 27
-0.152344 -0.191406 0.020935 23 20 28
-0.148438 -0.191406 0.024471 22 19 26
-0.144531 -0.191406 0.027738 21 19 25
-0.140625 -0.191406 0.030792 19 18 24
-0.136719 -0.191406 0.033087 19 18 24
-0.132812 -0.191406 0.034452 19 18 24
-0.128906 -0.191406 0.035613 18 18 23
-0.125000 -0.191406 0.036781 18 18 24
-0.121094 -0.191406 0.037399 17 18 23
-0.117188 -0.191406 0.037395 17 18 23
-0.113281 -0.191406 0.037205 18 18 24
-0.109375 -0.191406 0.036965 18 18 24
-0.105469 -0.191406 0.036268 18 19 24
-0.101562 -0.191406 0.034920 18 19 25
-0.097656 -0.191406 0.033376 17 18 24
-0.093750 -0.191406 0.031862 17 17 23
-0.089844 -0.191406 0.029759 18 17 23
-0.085938 -0.191406 0.026898 17 17 22
-0.082031 -0.191406 0.023809 18 17 23
-0.078125 -0.191406 0.020518 18 17 22
-0.074219 -0.191406 0.016552 17 16 20
-0.070312 -0.191406 0.011551 20 19 23
-0.066406 -0.191406 0.004687 18 17 21
-0.062500 -0.191406 -0.004271 19 17 22
-0.058594 -0.191406 -0.016619 12 11 17
-0.019531 -0.191406 0.019866 11 7 10
-0.015625 -0.191406 0.029371 14 10 14
-0.011719 -0.191406 0.036062 20 18 24
-0.007812 -0.191406 0.041586 21 20 24
-0.003906 -0.191406 0.046097 18 18 22
0.000000 -0.191406 0.050090 18 18 21
0.003906 -0.191406 0.053180 19 18 22
0.007812 -0.191406 0.055391 20 19 23
0.011719 -0.191406 0.057426 19 18 23
0.015625 -0.191406 0.059534 19 18 22
0.019531 -0.191406 0.061189 19 18 23
0.023438 -0.191406 0.062200 20 19 23
0.027344 -0.191406 0.063045 20 19 24
0.031250 -0.191406 0.063895 20 18 23
0.035156 -0.191406 0.064239 19 18 23
0.039062 -0.191406 0.064041 19 18 23
0.042969 -0.191406 0.063635 19 18 23
0.046875 -0.191406 0.063071 19 18 23
0.050781 -0.191406 0.062151 19 18 23
0.054688 -0.191406 0.060745 19 19 23
0.058594 -0.191406 0.059148 20 19 24
0.062500 -0.191406 0.057484 20 20 24
0.066406 -0.191406 0.055161 21 20 25
0.070312 -0.191406 0.051868 21 22 26
0.074219 -0.191406 0.048255 22 22 26
0.078125 -0.191406 0.044492 23 23 27
0.082031 -0.191406 0.039934 25 25 28
0.085938 -0.191406 0.033458 28 28 30
0.089844 -0.191406 0.024824 22 22 26
0.093750 -0.191406 0.013052 20 19 25
-0.167969 -0.195312 -0.012655 24 19 25
-0.164062 -0.195312 0.000976 21 16 22
-0.160156 -0.195312 0.009526 25 20 28
-0.156250 -0.195312 0.015257 23 20 27
-0.152344 -0.195312 0.019371 23 20 28
-0.148438 -0.195312 0.023092 21 19 26
-0.144531 -0.195312 0.026485 20 18 25
-0.140625 -0.195312 0.029685 19 18 24
-0.136719 -0.195312 0.032074 19 18 24
-0.132812 -0.195312 0.033472 19 18 24
-0.128906 -0.195312 0.034650 18 18 23
-0.125000 -0.195312 0.035836 18 18 24
-0.121094 -0.195312 0.036444 18 18 23
-0.117188 -0.195312 0.036409 17 18 23
-0.113281 -0.195312 0.036196 18 18 23
-0.109375 -0.195312 0.035940 17 18 23
-0.105469 -0.195312 0.035223 18 19 24
-0.101562 -0.195312 0.033864 18 19 25
-0.097656 -0.195312 0.032309 18 18 24
-0.093750 -0.195312 0.030778 17 18 24
-0.089844 -0.195312 0.028659 18 18 24
-0.085938 -0.195312 0.025781 17 17 23
-0.082031 -0.195312 0.022675 18 17 23
-0.078125 -0.195312 0.019384 18 17 22
-0.074219 -0.195312 0.015447 17 16 20
-0.070312 -0.195312 0.010425 20 19 23
-0.066406 -0.195312 0.003463 17 16 21
-0.062500 -0.195312 -0.005546 18 16 21
-0.058594 -0.195312 -0.017799 16 14 20
-0.019531 -0.195312 0.016042 9 5 8
-0.015625 -0.195312 0.027336 11 8 12
-0.011719 -0.195312 0.034853 19 17 22
-0.007812 -0.195312 0.040611 21 20 24
-0.003906 -0.195312 0.045238 19 19 22
0.000000 -0.195312 0.049296 18 19 22
0.003906 -0.195312 0.052372 19 19 22
0.007812 -0.195312 0.054569 20 20 23
0.011719 -0.195312 0.056600 19 19 23
0.015625 -0.195312 0.058710 19 18 23
0.019531 -0.195312 0.060347 20 19 23
0.023438 -0.195312 0.061330 20 19 23
0.027344 -0.195312 0.062155 20 19 23
0.031250 -0.195312 0.062994 20 18 23
0.035156 -0.195312 0.063316 19 18 23
0.039062 -0.195312 0.063087 19 18 23
0.042969 -0.195312 0.062660 19 18 23
0.046875 -0.195312 0.062085 20 19 23
0.050781 -0.195312 0.061156 20 19 24
0.054688 -0.195312 0.059736 20 19 24
0.058594 -0.195312 0.058126 20 19 24
0.062500 -0.195312 0.056446 20 19 24
0.066406 -0.195312 0.054086 20 20 25
0.070312 -0.195312 0.050735 21 21 26
0.074219 -0.195312 0.047031 22 23 26
0.078125 -0.195312 0.043160 23 24 27
0.082031 -0.195312 0.038452 25 26 29
0.085938 -0.195312 0.031804 27 27 30
0.089844 -0.195312 0.022858 23 23 27
0.093750 -0.195312 0.010578 25 25 31
-0.167969 -0.199219 -0.017696 30 24 29
-0.164062 -0.199219 -0.002082 23 17 23
-0.160156 -0.199219 0.007326 26 21 29
-0.156250 -0.199219 0.013277 23 19 27
-0.152344 -0.199219 0.017658 22 19 27
-0.148438 -0.199219 0.021587 21 18 25
-0.144531 -0.199219 0.025109 20 18 25
-0.140625 -0.199219 0.028469 19 18 24
-0.136719 -0.199219 0.030955 19 18 24
-0.132812 -0.199219 0.032402 19 18 23
-0.128906 -0.199219 0.033620 18 18 23
-0.125000 -0.199219 0.034839 19 19 24
-0.121094 -0.199219 0.035448 18 18 23
-0.117188 -0.199219 0.035396 17 18 23
-0.113281 -0.199219 0.035173 18 18 23
-0.109375 -0.199219 0.034909 18 18 23
-0.105469 -0.199219 0.034178 18 18 24
-0.101562 -0.199219 0.032814 18 18 24
-0.097656 -0.199219 0.031253 18 18 24
-0.093750 -0.199219 0.029713 18 18 23
-0.089844 -0.199219 0.027585 18 18 24
-0.085938 -0.199219 0.024695 18 17 23
-0.082031 -0.199219 0.021579 18 17 23
-0.078125 -0.199219 0.018293 18 17 22
-0.074219 -0.199219 0.014383 17 16 21
-0.070312 -0.199219 0.009303 20 19 24
-0.066406 -0.199219 0.002257 17 16 21
-0.062500 -0.199219 -0.006887 17 15 19
-0.058594 -0.199219 -0.019196 16 13 19
-0.019531 -0.199219 0.012227 5 3 5
-0.015625 -0.199219 0.025318 7 4 8
-0.011719 -0.199219 0.033597 15 13 19
-0.007812 -0.199219 0.039529 19 18 22
-0.003906 -0.199219 0.044254 19 19 22
0.000000 -0.199219 0.048457 18 18 21
0.003906 -0.199219 0.051527 19 18 22
0.007812 -0.199219 0.053712 20 20 23
0.011719 -0.199219 0.055736 19 19 22
0.015625 -0.199219 0.057841 19 19 23
0.019531 -0.199219 0.059458 20 19 23
0.023438 -0.199219 0.060418 20 19 23
0.027344 -0.199219 0.061223 20 18 23
0.031250 -0.199219 0.062046 19 18 23
0.035156 -0.199219 0.062345 19 17 22
0.039062 -0.199219 0.062087 19 17 22
0.042969 -0.199219 0.061638 19 18 23
0.046875 -0.199219 0.061047 20 19 23
0.050781 -0.199219 0.060105 20 19 23
0.054688 -0.199219 0.058671 20 19 23
0.058594 -0.199219 0.057045 20 19 24
0.062500 -0.199219 0.055354 20 19 24
0.066406 -0.199219 0.052977 20 20 24
0.070312 -0.199219 0.049590 21 21 25
0.074219 -0.199219 0.045819 21 22 26
0.078125 -0.199219 0.041847 23 23 27
0.082031 -0.199219 0.036991 24 24 28
0.085938 -0.199219 0.030146 26 26 29
0.089844 -0.199219 0.020912 24 25 29
0.093750 -0.199219 0.008186 30 31 36
-0.167969 -0.203125 -0.023148 22 16 22
-0.164062 -0.203125 -0.005409 22 17 23
-0.160156 -0.203125 0.005003 27 23 30
-0.156250 -0.203125 0.011222 23 20 27
-0.152344 -0.203125 0.015896 22 20 27
-0.148438 -0.203125 0.020048 21 19 26
-0.144531 -0.203125 0.023704 20 18 25
-0.140625 -0.203125 0.027216 19 18 24
-0.136719 -0.203125 0.029793 19 18 23
-0.132812 -0.203125 0.031291 18 18 23
-0.128906 -0.203125 0.032547 18 18 22
-0.125000 -0.203125 0.033801 18 18 23
-0.121094 -0.203125 0.034429 18 18 23
-0.117188 -0.203125 0.034379 17 18 23
-0.113281 -0.203125 0.034157 18 18 23
-0.109375 -0.203125 0.033890 18 18 23
-0.105469 -0.203125 0.033151 18 18 23
-0.101562 -0.203125 0.031789 18 18 23
-0.097656 -0.203125 0.030227 18 18 23
-0.093750 -0.203125 0.028679 18 18 23
-0.089844 -0.203125 0.026546 18 19 24
-0.085938 -0.203125 0.023651 18 18 23
-0.082031 -0.203125 0.020522 18 17 22
-0.078125 -0.203125 0.017234 18 17 22
-0.074219 -0.203125 0.013345 17 16 21
-0.070312 -0.203125 0.008207 20 19 24
-0.066406 -0.203125 0.001118 17 16 21
-0.062500 -0.203125 -0.008209 17 15 19
-0.058594 -0.203125 -0.020795 16 14 19
-0.015625 -0.203125 0.022522 7 4 8
-0.011719 -0.203125 0.032285 15 13 19
-0.007812 -0.203125 0.038577 19 17 22
-0.003906 -0.203125 0.043321 19 19 23
0.000000 -0.203125 0.047580 18 18 22
0.003906 -0.203125 0.050635 18 18 22
0.007812 -0.203125 0.052822 20 20 23
0.011719 -0.203125 0.054841 18 19 22
