ply
    format ascii 1.0
    element vertex 70498
    property float x
    property float y
    property float z
    property uchar red
    property uchar green
    property uchar blue
    end_header
-0.156250 -0.738281 -0.079439 189 135 116
-0.152344 -0.738281 -0.082697 193 141 124
-0.148438 -0.738281 -0.084637 208 157 139
-0.144531 -0.738281 -0.086567 218 170 153
-0.140625 -0.738281 -0.087446 223 177 161
-0.136719 -0.738281 -0.087272 227 181 167
-0.132812 -0.738281 -0.084317 227 180 168
-0.128906 -0.738281 -0.082857 228 181 166
-0.125000 -0.738281 -0.078251 225 185 165
-0.121094 -0.738281 -0.070753 215 170 164
0.191406 -0.738281 -0.054972 109 123 144
0.195312 -0.738281 -0.095859 179 144 138
0.199219 -0.738281 -0.097832 176 138 131
0.203125 -0.738281 -0.101326 186 149 142
0.207031 -0.738281 -0.104031 197 160 155
0.210938 -0.738281 -0.104667 206 169 165
0.214844 -0.738281 -0.105753 208 170 163
0.218750 -0.738281 -0.106139 221 183 173
0.222656 -0.738281 -0.105604 224 184 172
0.226562 -0.738281 -0.103353 226 184 171
0.230469 -0.738281 -0.101371 234 197 185
0.234375 -0.738281 -0.098081 236 198 186
0.238281 -0.738281 -0.093750 236 198 184
0.242188 -0.738281 -0.088004 228 189 175
0.246094 -0.738281 -0.066259 236 198 186
-0.167969 -0.742188 -0.059653 191 149 134
-0.164062 -0.742188 -0.069141 192 134 117
-0.160156 -0.742188 -0.075024 192 131 109
-0.156250 -0.742188 -0.079375 203 144 123
-0.152344 -0.742188 -0.082771 211 154 136
-0.148438 -0.742188 -0.084824 221 164 146
-0.144531 -0.742188 -0.086857 228 172 156
-0.140625 -0.742188 -0.087773 232 178 164
-0.136719 -0.742188 -0.087605 235 182 171
-0.132812 -0.742188 -0.084517 236 184 176
-0.128906 -0.742188 -0.082901 237 187 176
-0.125000 -0.742188 -0.078695 232 185 170
-0.121094 -0.742188 -0.072488 222 176 168
0.191406 -0.742188 -0.032991 155 162 171
0.195312 -0.742188 -0.092794 200 153 130
0.199219 -0.742188 -0.097103 186 133 114
0.203125 -0.742188 -0.100027 198 147 131
0.207031 -0.742188 -0.102860 208 158 143
0.210938 -0.742188 -0.103580 218 171 159
0.214844 -0.742188 -0.104899 225 181 170
0.218750 -0.742188 -0.105363 232 190 179
0.222656 -0.742188 -0.104907 236 196 182
0.226562 -0.742188 -0.102631 238 197 183
0.230469 -0.742188 -0.100623 241 202 190
0.234375 -0.742188 -0.097364 241 200 189
0.238281 -0.742188 -0.092903 240 196 184
0.242188 -0.742188 -0.087288 235 193 179
0.246094 -0.742188 -0.066411 241 200 189
-0.167969 -0.746094 -0.059123 205 169 150
-0.164062 -0.746094 -0.069241 202 148 126
-0.160156 -0.746094 -0.075302 201 145 121
-0.156250 -0.746094 -0.079582 203 146 125
-0.152344 -0.746094 -0.082979 210 152 134
-0.148438 -0.746094 -0.085072 219 160 142
-0.144531 -0.746094 -0.087167 227 171 154
-0.140625 -0.746094 -0.088102 233 181 166
-0.136719 -0.746094 -0.087925 236 185 175
-0.132812 -0.746094 -0.084918 238 188 180
-0.128906 -0.746094 -0.082409 239 192 181
-0.125000 -0.746094 -0.078607 235 188 173
-0.121094 -0.746094 -0.070980 223 175 163
0.191406 -0.746094 -0.069113 163 150 164
0.195312 -0.746094 -0.089650 212 164 142
0.199219 -0.746094 -0.095635 196 133 116
0.203125 -0.746094 -0.099176 208 152 135
0.207031 -0.746094 -0.101928 214 162 144
0.210938 -0.746094 -0.102699 221 172 155
0.214844 -0.746094 -0.104024 227 180 165
0.218750 -0.746094 -0.104553 230 182 169
0.222656 -0.746094 -0.104137 235 188 174
0.226562 -0.746094 -0.101898 237 191 178
0.230469 -0.746094 -0.099893 239 195 184
0.234375 -0.746094 -0.096575 240 194 184
0.238281 -0.746094 -0.092088 239 193 182
0.242188 -0.746094 -0.086465 235 195 183
0.246094 -0.746094 -0.069924 240 194 184
-0.167969 -0.750000 -0.059402 193 152 133
-0.164062 -0.750000 -0.069560 196 141 121
-0.160156 -0.750000 -0.075591 204 150 127
-0.156250 -0.750000 -0.079946 206 152 131
-0.152344 -0.750000 -0.083353 214 158 140
-0.148438 -0.750000 -0.085459 222 165 148
-0.144531 -0.750000 -0.087577 229 174 157
-0.140625 -0.750000 -0.088517 234 181 167
-0.136719 -0.750000 -0.088239 237 185 176
-0.132812 -0.750000 -0.085316 239 189 182
-0.128906 -0.750000 -0.082248 240 192 181
-0.125000 -0.750000 -0.078281 236 189 173
-0.121094 -0.750000 -0.070126 226 179 165
0.191406 -0.750000 -0.075472 204 144 130
0.195312 -0.750000 -0.088578 223 179 159
0.199219 -0.750000 -0.095162 195 128 116
0.203125 -0.750000 -0.098373 204 144 130
0.207031 -0.750000 -0.101182 212 156 141
0.210938 -0.750000 -0.101930 221 169 155
0.214844 -0.750000 -0.103279 229 180 167
0.218750 -0.750000 -0.103816 232 183 170
0.222656 -0.750000 -0.103362 235 187 173
0.226562 -0.750000 -0.101062 238 190 177
0.230469 -0.750000 -0.098993 240 194 183
0.234375 -0.750000 -0.095702 240 194 184
0.238281 -0.750000 -0.091373 239 195 185
0.242188 -0.750000 -0.085918 237 197 187
0.246094 -0.750000 -0.072582 240 194 184
-0.167969 -0.753906 -0.059999 199 159 138
-0.164062 -0.753906 -0.070126 199 145 127
-0.160156 -0.753906 -0.075909 205 152 131
-0.156250 -0.753906 -0.080306 205 151 133
-0.152344 -0.753906 -0.083796 214 160 144
-0.148438 -0.753906 -0.085930 222 167 152
-0.144531 -0.753906 -0.088035 229 174 159
-0.140625 -0.753906 -0.088978 233 180 166
-0.136719 -0.753906 -0.088567 236 185 175
-0.132812 -0.753906 -0.085899 239 190 182
-0.128906 -0.753906 -0.082874 240 192 182
-0.125000 -0.753906 -0.078847 237 190 175
-0.121094 -0.753906 -0.071645 230 188 173
0.191406 -0.753906 -0.063977 208 150 134
0.195312 -0.753906 -0.088434 219 171 148
0.199219 -0.753906 -0.094828 204 143 126
0.203125 -0.753906 -0.097753 208 150 134
0.207031 -0.753906 -0.100364 213 158 143
0.210938 -0.753906 -0.101154 221 170 156
0.214844 -0.753906 -0.102571 229 183 170
0.218750 -0.753906 -0.103136 233 187 175
0.222656 -0.753906 -0.102622 235 186 174
0.226562 -0.753906 -0.100257 237 189 176
0.230469 -0.753906 -0.098188 239 193 183
0.234375 -0.753906 -0.095052 239 194 185
0.238281 -0.753906 -0.090901 240 197 188
0.242188 -0.753906 -0.085169 237 200 189
0.246094 -0.753906 -0.073758 239 194 185
-0.167969 -0.757812 -0.060619 196 154 138
-0.164062 -0.757812 -0.070565 198 143 127
-0.160156 -0.757812 -0.076520 203 149 130
-0.156250 -0.757812 -0.080795 205 151 134
-0.152344 -0.757812 -0.084311 215 163 147
-0.148438 -0.757812 -0.086472 223 170 154
-0.144531 -0.757812 -0.088570 228 173 158
-0.140625 -0.757812 -0.089531 231 177 164
-0.136719 -0.757812 -0.088977 235 183 174
-0.132812 -0.757812 -0.086247 239 190 183
-0.128906 -0.757812 -0.082847 240 191 182
-0.125000 -0.757812 -0.078707 238 192 180
-0.121094 -0.757812 -0.071980 234 195 180
-0.117188 -0.757812 -0.052716 208 169 150
0.191406 -0.757812 -0.038294 208 148 130
0.195312 -0.757812 -0.086727 188 135 114
0.199219 -0.757812 -0.094098 203 144 121
0.203125 -0.757812 -0.097144 208 148 130
0.207031 -0.757812 -0.099414 213 156 142
0.210938 -0.757812 -0.100374 220 167 154
0.214844 -0.757812 -0.101757 229 182 170
0.218750 -0.757812 -0.102344 233 188 178
0.222656 -0.757812 -0.101752 234 185 174
0.226562 -0.757812 -0.099313 236 187 176
0.230469 -0.757812 -0.097191 238 191 181
0.234375 -0.757812 -0.093994 238 192 183
0.238281 -0.757812 -0.090003 239 196 186
0.242188 -0.757812 -0.084512 236 196 184
0.246094 -0.757812 -0.074183 238 192 183
-0.167969 -0.761719 -0.061666 191 149 134
-0.164062 -0.761719 -0.071034 200 148 132
-0.160156 -0.761719 -0.077219 203 149 131
-0.156250 -0.761719 -0.081396 207 153 137
-0.152344 -0.761719 -0.084966 217 166 151
-0.148438 -0.761719 -0.087179 224 171 157
-0.144531 -0.761719 -0.089289 228 173 159
-0.140625 -0.761719 -0.090262 231 177 165
-0.136719 -0.761719 -0.089607 235 183 174
-0.132812 -0.761719 -0.086884 237 189 181
-0.128906 -0.761719 -0.083227 238 188 181
-0.125000 -0.761719 -0.078958 239 193 185
-0.121094 -0.761719 -0.071096 236 195 183
-0.117188 -0.761719 -0.063805 207 163 146
0.195312 -0.761719 -0.082528 210 177 146
0.199219 -0.761719 -0.093401 207 153 126
0.203125 -0.761719 -0.096725 206 142 126
0.207031 -0.761719 -0.098661 211 153 141
0.210938 -0.761719 -0.099797 218 163 152
0.214844 -0.761719 -0.100992 227 180 170
0.218750 -0.761719 -0.101559 233 189 180
0.222656 -0.761719 -0.100910 234 187 177
0.226562 -0.761719 -0.098353 237 191 180
0.230469 -0.761719 -0.096206 238 193 183
0.234375 -0.761719 -0.092987 238 194 185
0.238281 -0.761719 -0.088956 238 194 184
0.242188 -0.761719 -0.083752 235 191 179
0.246094 -0.761719 -0.074065 225 189 186
-0.167969 -0.765625 -0.062791 196 155 135
-0.164062 -0.765625 -0.072231 203 151 136
-0.160156 -0.765625 -0.077900 200 145 129
-0.156250 -0.765625 -0.082243 206 152 137
-0.152344 -0.765625 -0.085806 217 165 151
-0.148438 -0.765625 -0.088012 224 171 157
-0.144531 -0.765625 -0.090105 228 175 161
-0.140625 -0.765625 -0.091091 232 180 168
-0.136719 -0.765625 -0.090333 235 185 175
-0.132812 -0.765625 -0.087420 236 188 180
-0.128906 -0.765625 -0.083719 237 190 182
-0.125000 -0.765625 -0.079334 238 195 187
-0.121094 -0.765625 -0.072210 235 192 181
-0.117188 -0.765625 -0.063221 229 196 181
0.195312 -0.765625 -0.081824 219 171 148
0.199219 -0.765625 -0.092036 204 150 125
0.203125 -0.765625 -0.096099 205 142 127
0.207031 -0.765625 -0.098160 212 154 144
0.210938 -0.765625 -0.099134 217 163 154
0.214844 -0.765625 -0.100233 227 181 171
0.218750 -0.765625 -0.100839 232 189 180
0.222656 -0.765625 -0.100129 233 187 178
0.226562 -0.765625 -0.097455 236 192 182
0.230469 -0.765625 -0.095254 238 195 186
0.234375 -0.765625 -0.091930 240 199 190
0.238281 -0.765625 -0.087897 238 194 186
0.242188 -0.765625 -0.082638 236 194 183
0.246094 -0.765625 -0.072494 233 208 199
-0.171875 -0.769531 -0.040725 199 144 128
-0.167969 -0.769531 -0.065976 192 148 135
-0.164062 -0.769531 -0.073170 200 147 133
-0.160156 -0.769531 -0.078848 199 144 128
-0.156250 -0.769531 -0.083295 208 155 140
-0.152344 -0.769531 -0.086734 219 168 154
-0.148438 -0.769531 -0.088920 226 174 160
-0.144531 -0.769531 -0.091005 230 178 165
-0.140625 -0.769531 -0.091964 233 181 169
-0.136719 -0.769531 -0.091119 235 184 174
-0.132812 -0.769531 -0.087881 236 189 180
-0.128906 -0.769531 -0.084038 239 196 187
-0.125000 -0.769531 -0.079514 239 200 190
-0.121094 -0.769531 -0.073316 233 188 176
-0.117188 -0.769531 -0.064286 237 209 195
0.195312 -0.769531 -0.083882 188 135 114
0.199219 -0.769531 -0.090341 201 142 123
0.203125 -0.769531 -0.095348 206 143 129
0.207031 -0.769531 -0.097997 214 157 147
0.210938 -0.769531 -0.098520 217 164 156
0.214844 -0.769531 -0.099661 227 181 172
0.218750 -0.769531 -0.100317 231 188 181
0.222656 -0.769531 -0.099490 232 186 178
0.226562 -0.769531 -0.096730 234 188 181
0.230469 -0.769531 -0.094300 237 193 185
0.234375 -0.769531 -0.090692 240 200 192
0.238281 -0.769531 -0.087101 237 192 185
0.242188 -0.769531 -0.081755 235 195 185
0.246094 -0.769531 -0.070098 225 193 185
-0.171875 -0.773438 -0.060419 199 146 131
-0.167969 -0.773438 -0.067098 210 169 158
-0.164062 -0.773438 -0.074182 197 141 131
-0.160156 -0.773438 -0.080163 199 146 131
-0.156250 -0.773438 -0.084413 208 156 142
-0.152344 -0.773438 -0.087826 219 167 154
-0.148438 -0.773438 -0.089982 226 174 160
-0.144531 -0.773438 -0.092037 231 178 165
-0.140625 -0.773438 -0.092976 233 179 168
-0.136719 -0.773438 -0.092043 233 181 171
-0.132812 -0.773438 -0.088580 236 188 180
-0.128906 -0.773438 -0.084600 239 198 189
-0.125000 -0.773438 -0.079752 240 203 192
-0.121094 -0.773438 -0.073627 234 188 175
-0.117188 -0.773438 -0.065611 232 198 182
0.195312 -0.773438 -0.080379 210 177 146
0.199219 -0.773438 -0.089639 208 151 138
0.203125 -0.773438 -0.095281 206 142 130
0.207031 -0.773438 -0.097677 215 161 151
0.210938 -0.773438 -0.098133 217 166 157
0.214844 -0.773438 -0.099287 224 178 170
0.218750 -0.773438 -0.099993 229 187 180
0.222656 -0.773438 -0.099057 231 186 180
0.226562 -0.773438 -0.096195 233 187 180
0.230469 -0.773438 -0.093507 235 191 184
0.234375 -0.773438 -0.089862 239 199 193
0.238281 -0.773438 -0.086353 237 193 187
0.242188 -0.773438 -0.080392 237 195 188
0.246094 -0.773438 -0.074029 225 189 186
-0.171875 -0.777344 -0.057901 199 148 135
-0.167969 -0.777344 -0.067399 208 166 147
-0.164062 -0.777344 -0.075388 188 133 122
-0.160156 -0.777344 -0.081410 199 148 135
-0.156250 -0.777344 -0.085604 208 156 143
-0.152344 -0.777344 -0.089018 217 164 151
-0.148438 -0.777344 -0.091131 224 170 156
-0.144531 -0.777344 -0.093148 230 175 162
-0.140625 -0.777344 -0.094068 232 178 166
-0.136719 -0.777344 -0.093012 234 182 172
-0.132812 -0.777344 -0.089350 237 190 181
-0.128906 -0.777344 -0.085154 239 197 189
-0.125000 -0.777344 -0.079979 240 202 192
-0.121094 -0.777344 -0.074229 237 193 181
-0.117188 -0.777344 -0.066210 234 201 184
0.195312 -0.777344 -0.081909 219 169 160
0.199219 -0.777344 -0.089648 202 146 134
0.203125 -0.777344 -0.095531 202 140 129
0.207031 -0.777344 -0.097541 219 169 160
0.210938 -0.777344 -0.098150 220 173 165
0.214844 -0.777344 -0.099241 224 181 173
0.218750 -0.777344 -0.099946 229 190 183
0.222656 -0.777344 -0.098931 231 190 184
0.226562 -0.777344 -0.095921 232 189 183
0.230469 -0.777344 -0.092992 235 192 186
0.234375 -0.777344 -0.089365 238 199 193
0.238281 -0.777344 -0.085613 236 191 186
0.242188 -0.777344 -0.080074 233 191 182
0.246094 -0.777344 -0.072444 233 208 199
-0.171875 -0.781250 -0.056864 199 150 137
-0.167969 -0.781250 -0.069027 196 151 128
-0.164062 -0.781250 -0.076630 187 136 122
-0.160156 -0.781250 -0.082435 199 150 137
-0.156250 -0.781250 -0.086748 207 154 142
-0.152344 -0.781250 -0.090186 215 161 148
-0.148438 -0.781250 -0.092278 223 168 154
-0.144531 -0.781250 -0.094277 229 173 160
-0.140625 -0.781250 -0.095174 232 177 166
-0.136719 -0.781250 -0.094043 234 182 172
-0.132812 -0.781250 -0.090228 236 189 180
-0.128906 -0.781250 -0.085796 239 197 188
-0.125000 -0.781250 -0.080530 241 202 193
-0.121094 -0.781250 -0.074705 237 193 182
-0.117188 -0.781250 -0.066721 233 199 184
0.195312 -0.781250 -0.082155 220 173 164
0.199219 -0.781250 -0.089809 204 147 135
0.203125 -0.781250 -0.095906 205 145 134
0.207031 -0.781250 -0.098019 220 173 164
0.210938 -0.781250 -0.098584 223 178 171
0.214844 -0.781250 -0.099564 225 186 178
0.218750 -0.781250 -0.100244 230 193 187
0.222656 -0.781250 -0.099138 231 193 187
0.226562 -0.781250 -0.095981 232 191 184
0.230469 -0.781250 -0.092822 234 193 187
0.234375 -0.781250 -0.089009 237 197 192
0.238281 -0.781250 -0.084923 233 187 182
0.242188 -0.781250 -0.080494 225 178 169
0.246094 -0.781250 -0.073114 225 193 185
-0.171875 -0.785156 -0.059329 195 144 132
-0.167969 -0.785156 -0.070461 210 169 145
-0.164062 -0.785156 -0.077319 196 145 130
-0.160156 -0.785156 -0.083509 195 144 132
-0.156250 -0.785156 -0.087942 201 147 135
-0.152344 -0.785156 -0.091432 212 156 143
-0.148438 -0.785156 -0.093606 222 165 151
-0.144531 -0.785156 -0.095592 229 173 159
-0.140625 -0.785156 -0.096414 232 177 165
-0.136719 -0.785156 -0.095157 234 182 172
-0.132812 -0.785156 -0.091129 237 189 180
-0.128906 -0.785156 -0.086503 239 195 187
-0.125000 -0.785156 -0.081093 240 200 190
-0.121094 -0.785156 -0.074959 236 189 178
-0.117188 -0.785156 -0.067154 231 197 184
0.195312 -0.785156 -0.081622 216 168 160
0.199219 -0.785156 -0.090458 203 147 135
0.203125 -0.785156 -0.096671 204 146 135
0.207031 -0.785156 -0.098918 216 168 160
0.210938 -0.785156 -0.099417 220 176 169
0.214844 -0.785156 -0.100329 224 185 178
0.218750 -0.785156 -0.100973 229 193 187
0.222656 -0.785156 -0.099765 230 193 186
0.226562 -0.785156 -0.096458 230 190 183
0.230469 -0.785156 -0.093121 234 193 188
0.234375 -0.785156 -0.089182 236 196 191
0.238281 -0.785156 -0.084676 235 191 187
0.242188 -0.785156 -0.079803 232 189 183
0.246094 -0.785156 -0.073703 224 188 180
-0.171875 -0.789062 -0.059228 196 143 131
-0.167969 -0.789062 -0.071001 209 166 144
-0.164062 -0.789062 -0.078130 197 144 129
-0.160156 -0.789062 -0.084606 196 143 131
-0.156250 -0.789062 -0.089063 200 143 131
-0.152344 -0.789062 -0.092555 210 153 140
-0.148438 -0.789062 -0.094826 221 163 149
-0.144531 -0.789062 -0.096803 229 172 158
-0.140625 -0.789062 -0.097569 232 175 164
-0.136719 -0.789062 -0.096196 235 182 172
-0.132812 -0.789062 -0.092011 238 191 182
-0.128906 -0.789062 -0.087252 239 196 187
-0.125000 -0.789062 -0.081713 240 199 189
-0.121094 -0.789062 -0.075471 235 188 177
-0.117188 -0.789062 -0.067658 231 199 187
0.195312 -0.789062 -0.084414 171 115 133
0.199219 -0.789062 -0.092078 201 145 133
0.203125 -0.789062 -0.097730 204 149 138
0.207031 -0.789062 -0.100072 214 167 160
0.210938 -0.789062 -0.100616 221 178 171
0.214844 -0.789062 -0.101519 225 187 180
0.218750 -0.789062 -0.102086 229 194 187
0.222656 -0.789062 -0.100770 230 194 187
0.226562 -0.789062 -0.097287 230 191 184
0.230469 -0.789062 -0.093752 233 195 189
0.234375 -0.789062 -0.089649 234 194 190
0.238281 -0.789062 -0.085019 234 191 187
0.242188 -0.789062 -0.079924 236 199 190
0.246094 -0.789062 -0.073674 230 198 187
-0.171875 -0.792969 -0.055633 193 137 126
-0.167969 -0.792969 -0.071394 212 166 145
-0.164062 -0.792969 -0.079260 194 136 124
-0.160156 -0.792969 -0.085700 193 137 126
-0.156250 -0.792969 -0.090376 201 143 131
-0.152344 -0.792969 -0.093711 212 154 141
-0.148438 -0.792969 -0.095989 221 163 149
-0.144531 -0.792969 -0.098001 230 173 160
-0.140625 -0.792969 -0.098731 232 176 165
-0.136719 -0.792969 -0.097265 235 182 172
-0.132812 -0.792969 -0.092988 238 190 181
-0.128906 -0.792969 -0.088071 239 195 186
-0.125000 -0.792969 -0.082347 240 200 190
-0.121094 -0.792969 -0.075956 234 188 176
-0.117188 -0.792969 -0.068181 227 195 181
0.195312 -0.792969 -0.084415 174 120 133
0.199219 -0.792969 -0.093540 202 146 136
0.203125 -0.792969 -0.099434 203 149 139
0.207031 -0.792969 -0.101603 211 164 157
0.210938 -0.792969 -0.102189 220 178 170
0.214844 -0.792969 -0.103134 224 187 179
0.218750 -0.792969 -0.103617 228 194 186
0.222656 -0.792969 -0.102194 229 194 186
0.226562 -0.792969 -0.098530 230 192 185
0.230469 -0.792969 -0.094770 233 197 190
0.234375 -0.792969 -0.090467 234 195 190
0.238281 -0.792969 -0.085689 233 190 185
0.242188 -0.792969 -0.080755 234 195 186
0.246094 -0.792969 -0.074469 226 188 179
-0.171875 -0.796875 -0.060703 187 128 119
-0.167969 -0.796875 -0.071274 214 167 151
-0.164062 -0.796875 -0.079396 193 132 122
-0.160156 -0.796875 -0.086430 187 128 119
-0.156250 -0.796875 -0.091447 198 139 128
-0.152344 -0.796875 -0.094910 210 152 139
-0.148438 -0.796875 -0.097202 219 161 147
-0.144531 -0.796875 -0.099224 230 174 161
-0.140625 -0.796875 -0.099918 234 178 167
-0.136719 -0.796875 -0.098362 236 184 174
-0.132812 -0.796875 -0.094012 239 191 183
-0.128906 -0.796875 -0.088934 239 196 187
-0.125000 -0.796875 -0.083016 240 202 191
-0.121094 -0.796875 -0.076458 229 181 169
-0.117188 -0.796875 -0.068512 213 174 161
0.195312 -0.796875 -0.083959 180 130 142
0.199219 -0.796875 -0.096076 198 141 131
0.203125 -0.796875 -0.101358 200 146 136
0.207031 -0.796875 -0.103158 209 161 154
0.210938 -0.796875 -0.104029 219 177 169
0.214844 -0.796875 -0.104997 223 186 178
0.218750 -0.796875 -0.105411 227 193 185
0.222656 -0.796875 -0.103912 230 194 187
0.226562 -0.796875 -0.100116 230 193 186
0.230469 -0.796875 -0.096175 233 197 191
0.234375 -0.796875 -0.091646 233 195 190
0.238281 -0.796875 -0.086624 231 187 181
0.242188 -0.796875 -0.081519 233 192 182
0.246094 -0.796875 -0.075130 227 188 178
0.250000 -0.796875 -0.057978 231 187 181
-0.171875 -0.800781 -0.034747 186 129 116
-0.167969 -0.800781 -0.070913 191 136 128
-0.164062 -0.800781 -0.079557 189 128 118
-0.160156 -0.800781 -0.087375 186 129 116
-0.156250 -0.800781 -0.092437 199 143 129
-0.152344 -0.800781 -0.096253 208 151 138
-0.148438 -0.800781 -0.098533 216 156 143
-0.144531 -0.800781 -0.100473 228 170 157
-0.140625 -0.800781 -0.101140 232 173 163
-0.136719 -0.800781 -0.099481 235 179 170
-0.132812 -0.800781 -0.095029 238 190 182
-0.128906 -0.800781 -0.089812 239 196 188
-0.125000 -0.800781 -0.083919 240 202 192
-0.121094 -0.800781 -0.077135 222 170 159
-0.117188 -0.800781 -0.068251 190 147 138
0.195312 -0.800781 -0.089394 171 115 133
0.199219 -0.800781 -0.099536 197 139 130
0.203125 -0.800781 -0.102957 201 146 136
0.207031 -0.800781 -0.105079 209 162 154
0.210938 -0.800781 -0.106083 218 176 168
0.214844 -0.800781 -0.107080 224 187 178
0.218750 -0.800781 -0.107454 228 193 185
0.222656 -0.800781 -0.105916 231 196 187
0.226562 -0.800781 -0.102029 231 193 185
0.230469 -0.800781 -0.097937 233 197 190
0.234375 -0.800781 -0.093070 233 195 188
0.238281 -0.800781 -0.087744 229 182 176
0.242188 -0.800781 -0.082527 229 185 175
0.246094 -0.800781 -0.075621 224 185 175
0.250000 -0.800781 -0.060069 229 182 176
-0.167969 -0.804688 -0.071466 178 132 126
-0.164062 -0.804688 -0.080463 189 135 124
-0.160156 -0.804688 -0.088878 192 138 122
-0.156250 -0.804688 -0.094146 204 149 134
-0.152344 -0.804688 -0.097918 208 151 138
-0.148438 -0.804688 -0.100100 215 156 143
-0.144531 -0.804688 -0.101944 228 170 159
-0.140625 -0.804688 -0.102472 231 171 162
-0.136719 -0.804688 -0.100665 234 175 167
-0.132812 -0.804688 -0.096117 238 188 180
-0.128906 -0.804688 -0.090734 239 194 187
-0.125000 -0.804688 -0.084733 240 203 194
-0.121094 -0.804688 -0.077316 218 170 158
-0.117188 -0.804688 -0.068141 173 135 126
0.191406 -0.804688 -0.063208 196 140 130
0.195312 -0.804688 -0.095153 174 120 133
0.199219 -0.804688 -0.100729 196 140 131
0.203125 -0.804688 -0.104675 196 140 130
0.207031 -0.804688 -0.107540 204 156 147
0.210938 -0.804688 -0.108225 212 169 161
0.214844 -0.804688 -0.109315 221 182 175
0.218750 -0.804688 -0.109644 227 190 183
0.222656 -0.804688 -0.108063 230 191 183
0.226562 -0.804688 -0.104068 229 188 180
0.230469 -0.804688 -0.099800 232 194 186
0.234375 -0.804688 -0.094685 234 196 188
0.238281 -0.804688 -0.089256 229 184 176
0.242188 -0.804688 -0.083613 229 185 174
0.246094 -0.804688 -0.076234 223 184 173
0.250000 -0.804688 -0.059797 229 184 176
-0.167969 -0.808594 -0.073866 192 159 150
-0.164062 -0.808594 -0.082756 194 145 133
-0.160156 -0.808594 -0.091092 197 143 126
-0.156250 -0.808594 -0.096539 205 151 136
-0.152344 -0.808594 -0.100211 206 150 137
-0.148438 -0.808594 -0.102085 216 157 145
-0.144531 -0.808594 -0.103684 230 174 163
-0.140625 -0.808594 -0.103971 233 175 166
-0.136719 -0.808594 -0.101982 235 177 169
-0.132812 -0.808594 -0.097261 238 190 182
-0.128906 -0.808594 -0.091736 239 193 186
-0.125000 -0.808594 -0.085676 239 201 191
-0.121094 -0.808594 -0.077288 219 175 163
-0.117188 -0.808594 -0.069109 167 131 125
0.191406 -0.808594 -0.093056 162 122 139
0.195312 -0.808594 -0.096265 180 130 142
0.199219 -0.808594 -0.102781 197 145 135
0.203125 -0.808594 -0.106677 190 134 123
0.207031 -0.808594 -0.109761 199 150 141
0.210938 -0.808594 -0.110378 207 162 154
0.214844 -0.808594 -0.111557 218 179 172
0.218750 -0.808594 -0.111926 226 189 182
0.222656 -0.808594 -0.110314 228 188 181
0.226562 -0.808594 -0.106236 228 184 177
0.230469 -0.808594 -0.101810 232 193 185
0.234375 -0.808594 -0.096396 235 197 189
0.238281 -0.808594 -0.090854 231 186 178
0.242188 -0.808594 -0.084691 230 187 174
0.246094 -0.808594 -0.077851 221 180 168
0.250000 -0.808594 -0.056248 222 189 180
-0.167969 -0.812500 -0.078652 191 153 137
-0.164062 -0.812500 -0.087895 194 142 127
-0.160156 -0.812500 -0.094885 196 142 124
-0.156250 -0.812500 -0.099747 204 150 134
-0.152344 -0.812500 -0.103061 207 151 138
-0.148438 -0.812500 -0.104520 217 158 147
-0.144531 -0.812500 -0.105683 229 173 162
-0.140625 -0.812500 -0.105639 233 175 166
-0.136719 -0.812500 -0.103388 235 178 170
-0.132812 -0.812500 -0.098498 239 190 182
-0.128906 -0.812500 -0.092843 239 190 183
-0.125000 -0.812500 -0.086800 237 196 187
-0.121094 -0.812500 -0.077706 225 185 175
-0.117188 -0.812500 -0.069226 183 148 141
0.191406 -0.812500 -0.087139 193 158 166
0.195312 -0.812500 -0.099540 186 136 148
0.199219 -0.812500 -0.105456 198 147 136
0.203125 -0.812500 -0.109177 191 137 124
0.207031 -0.812500 -0.111851 197 148 140
0.210938 -0.812500 -0.112640 204 159 152
0.214844 -0.812500 -0.113888 216 177 170
0.218750 -0.812500 -0.114275 225 188 182
0.222656 -0.812500 -0.112650 229 189 182
0.226562 -0.812500 -0.108536 229 187 180
0.230469 -0.812500 -0.103996 232 193 185
0.234375 -0.812500 -0.098328 233 194 186
0.238281 -0.812500 -0.092557 229 182 173
0.242188 -0.812500 -0.086313 227 180 168
0.246094 -0.812500 -0.078861 222 182 174
0.250000 -0.812500 -0.056902 242 227 218
-0.171875 -0.816406 -0.079543 199 144 126
-0.167969 -0.816406 -0.085165 189 144 133
-0.164062 -0.816406 -0.093012 196 140 126
-0.160156 -0.816406 -0.099809 199 144 126
-0.156250 -0.816406 -0.103592 202 147 132
-0.152344 -0.816406 -0.106165 208 151 140
-0.148438 -0.816406 -0.107179 217 158 147
-0.144531 -0.816406 -0.107903 228 169 160
-0.140625 -0.816406 -0.107495 233 174 166
-0.136719 -0.816406 -0.104990 236 181 173
-0.132812 -0.816406 -0.099953 239 192 184
-0.128906 -0.816406 -0.094128 239 191 183
-0.125000 -0.816406 -0.087820 237 194 185
-0.121094 -0.816406 -0.078763 232 199 187
-0.117188 -0.816406 -0.069487 203 171 159
0.187500 -0.816406 -0.019871 195 144 134
0.191406 -0.816406 -0.093202 184 145 147
0.195312 -0.816406 -0.101881 189 138 147
0.199219 -0.816406 -0.107478 195 144 134
0.203125 -0.816406 -0.111354 194 143 130
0.207031 -0.816406 -0.113711 198 150 141
0.210938 -0.816406 -0.114817 203 158 150
0.214844 -0.816406 -0.116147 215 175 168
0.218750 -0.816406 -0.116533 223 185 179
0.222656 -0.816406 -0.114908 228 188 181
0.226562 -0.816406 -0.110800 230 189 182
0.230469 -0.816406 -0.106171 232 193 186
0.234375 -0.816406 -0.100480 233 194 187
0.238281 -0.816406 -0.094541 232 187 178
0.242188 -0.816406 -0.088152 232 188 174
0.246094 -0.816406 -0.079429 227 189 180
0.250000 -0.816406 -0.063013 220 187 183
-0.171875 -0.820312 -0.082544 217 193 174
-0.167969 -0.820312 -0.091289 208 165 156
-0.164062 -0.820312 -0.098335 192 132 123
-0.160156 -0.820312 -0.104609 198 144 128
-0.156250 -0.820312 -0.107613 200 145 132
-0.152344 -0.820312 -0.109643 208 151 141
-0.148438 -0.820312 -0.110091 216 157 147
-0.144531 -0.820312 -0.110330 226 166 158
-0.140625 -0.820312 -0.109552 233 174 167
-0.136719 -0.820312 -0.106762 237 182 175
-0.132812 -0.820312 -0.101523 240 191 184
-0.128906 -0.820312 -0.095659 239 192 184
-0.125000 -0.820312 -0.089209 236 193 185
-0.121094 -0.820312 -0.079928 234 200 190
-0.117188 -0.820312 -0.069436 207 170 160
0.187500 -0.820312 -0.082911 192 145 138
0.191406 -0.820312 -0.097595 162 122 139
0.195312 -0.820312 -0.103427 201 159 163
0.199219 -0.820312 -0.109698 192 145 138
0.203125 -0.820312 -0.113378 193 143 134
0.207031 -0.820312 -0.115681 196 149 141
0.210938 -0.820312 -0.116913 201 155 147
0.214844 -0.820312 -0.118267 213 172 164
0.218750 -0.820312 -0.118712 222 183 176
0.222656 -0.820312 -0.117120 226 185 178
0.226562 -0.820312 -0.113062 230 188 182
0.230469 -0.820312 -0.108364 232 193 186
0.234375 -0.820312 -0.102550 234 194 187
0.238281 -0.820312 -0.096447 236 195 186
0.242188 -0.820312 -0.089964 237 197 184
0.246094 -0.820312 -0.080892 229 188 178
0.250000 -0.820312 -0.069690 222 189 180
-0.171875 -0.824219 -0.090795 219 197 179
-0.167969 -0.824219 -0.097858 207 161 145
-0.164062 -0.824219 -0.103499 185 125 118
-0.160156 -0.824219 -0.109012 201 150 137
-0.156250 -0.824219 -0.111448 202 149 138
-0.152344 -0.824219 -0.113065 210 155 146
-0.148438 -0.824219 -0.113032 218 161 151
-0.144531 -0.824219 -0.112792 228 170 161
-0.140625 -0.824219 -0.111673 234 177 170
-0.136719 -0.824219 -0.108577 237 182 176
-0.132812 -0.824219 -0.103233 238 188 182
-0.128906 -0.824219 -0.097431 239 190 185
-0.125000 -0.824219 -0.090804 237 193 187
-0.121094 -0.824219 -0.081740 234 199 190
-0.117188 -0.824219 -0.070292 212 175 163
0.187500 -0.824219 -0.089968 195 151 147
0.191406 -0.824219 -0.097606 193 158 166
0.195312 -0.824219 -0.105609 208 171 174
0.199219 -0.824219 -0.111298 195 151 147
0.203125 -0.824219 -0.115047 194 146 140
0.207031 -0.824219 -0.117468 195 148 142
0.210938 -0.824219 -0.118783 200 154 147
0.214844 -0.824219 -0.120184 212 170 163
0.218750 -0.824219 -0.120672 222 182 176
0.222656 -0.824219 -0.119135 227 185 178
0.226562 -0.824219 -0.115157 229 187 180
0.230469 -0.824219 -0.110470 231 188 182
0.234375 -0.824219 -0.104506 231 186 179
0.238281 -0.824219 -0.098414 234 190 182
0.242188 -0.824219 -0.091990 237 194 186
0.246094 -0.824219 -0.082128 229 188 180
0.250000 -0.824219 -0.072292 242 227 218
-0.175781 -0.828125 -0.084520 188 130 123
-0.171875 -0.828125 -0.096443 207 169 155
-0.167969 -0.828125 -0.102407 194 142 128
-0.164062 -0.828125 -0.108046 188 130 123
-0.160156 -0.828125 -0.112663 204 154 145
-0.156250 -0.828125 -0.114881 205 153 144
-0.152344 -0.828125 -0.116193 213 161 152
-0.148438 -0.828125 -0.115774 220 164 155
-0.144531 -0.828125 -0.115199 229 173 164
-0.140625 -0.828125 -0.113797 234 180 172
-0.136719 -0.828125 -0.110505 237 183 176
-0.132812 -0.828125 -0.105058 238 187 182
-0.128906 -0.828125 -0.099119 240 193 188
-0.125000 -0.828125 -0.092529 238 197 190
-0.121094 -0.828125 -0.083785 234 195 185
-0.117188 -0.828125 -0.074575 211 172 162
0.187500 -0.828125 -0.090963 197 155 151
0.191406 -0.828125 -0.099872 184 145 147
0.195312 -0.828125 -0.107477 199 159 161
0.199219 -0.828125 -0.112588 197 155 151
0.203125 -0.828125 -0.116525 196 150 145
0.207031 -0.828125 -0.119142 197 150 145
0.210938 -0.828125 -0.120525 201 156 150
0.214844 -0.828125 -0.121930 210 167 161
0.218750 -0.828125 -0.122467 220 179 173
0.222656 -0.828125 -0.121023 226 183 177
0.226562 -0.828125 -0.117153 229 185 179
0.230469 -0.828125 -0.112527 231 187 180
0.234375 -0.828125 -0.106508 232 188 180
0.238281 -0.828125 -0.100486 236 196 187
0.242188 -0.828125 -0.093664 240 203 194
0.246094 -0.828125 -0.084027 228 184 178
0.250000 -0.828125 -0.072429 220 187 183
-0.175781 -0.832031 -0.088937 191 137 129
-0.171875 -0.832031 -0.099575 217 193 174
-0.167969 -0.832031 -0.106538 194 149 132
-0.164062 -0.832031 -0.111786 191 137 129
-0.160156 -0.832031 -0.115794 203 153 145
-0.156250 -0.832031 -0.118038 206 154 147
-0.152344 -0.832031 -0.119139 214 162 154
-0.148438 -0.832031 -0.118404 219 163 155
-0.144531 -0.832031 -0.117556 228 173 165
-0.140625 -0.832031 -0.115868 234 179 172
-0.136719 -0.832031 -0.112445 236 180 176
-0.132812 -0.832031 -0.106890 238 185 181
-0.128906 -0.832031 -0.100769 240 192 189
-0.125000 -0.832031 -0.094638 239 198 191
-0.121094 -0.832031 -0.084984 232 193 183
-0.117188 -0.832031 -0.077758 225 195 183
0.187500 -0.832031 -0.090726 202 161 158
0.191406 -0.832031 -0.101878 201 168 162
0.195312 -0.832031 -0.108498 199 162 161
0.199219 -0.832031 -0.113610 202 161 158
0.203125 -0.832031 -0.117672 197 151 149
0.207031 -0.832031 -0.120425 196 149 147
0.210938 -0.832031 -0.121939 202 156 152
0.214844 -0.832031 -0.123428 210 167 162
0.218750 -0.832031 -0.124035 221 179 174
0.222656 -0.832031 -0.122682 228 186 179
0.226562 -0.832031 -0.118944 230 187 180
0.230469 -0.832031 -0.114440 232 189 182
0.234375 -0.832031 -0.108541 233 190 182
0.238281 -0.832031 -0.102637 236 196 187
0.242188 -0.832031 -0.095193 240 204 195
0.246094 -0.832031 -0.086605 231 185 177
0.250000 -0.832031 -0.074578 210 163 161
-0.175781 -0.835938 -0.093499 192 139 131
-0.171875 -0.835938 -0.103035 219 197 179
-0.167969 -0.835938 -0.110491 190 145 130
-0.164062 -0.835938 -0.115235 192 139 131
-0.160156 -0.835938 -0.118874 203 153 147
-0.156250 -0.835938 -0.121012 207 155 149
-0.152344 -0.835938 -0.121830 213 160 152
-0.148438 -0.835938 -0.120805 219 162 153
-0.144531 -0.835938 -0.119731 229 174 166
-0.140625 -0.835938 -0.117853 234 180 174
-0.136719 -0.835938 -0.114364 235 180 176
-0.132812 -0.835938 -0.108782 237 183 180
-0.128906 -0.835938 -0.102649 239 189 186
-0.125000 -0.835938 -0.096564 238 197 189
-0.121094 -0.835938 -0.086888 234 195 183
-0.117188 -0.835938 -0.079148 237 215 200
0.187500 -0.835938 -0.090697 205 162 160
0.191406 -0.835938 -0.102930 215 187 179
0.195312 -0.835938 -0.109332 199 161 158
0.199219 -0.835938 -0.114720 205 162 160
0.203125 -0.835938 -0.118673 198 151 150
0.207031 -0.835938 -0.121368 194 147 146
0.210938 -0.835938 -0.123047 202 157 154
0.214844 -0.835938 -0.124639 214 171 166
0.218750 -0.835938 -0.125317 223 182 176
0.222656 -0.835938 -0.124078 229 187 181
0.226562 -0.835938 -0.120520 231 187 180
0.230469 -0.835938 -0.116214 232 189 181
0.234375 -0.835938 -0.110452 232 188 180
0.238281 -0.835938 -0.104681 234 191 183
0.242188 -0.835938 -0.096872 236 196 188
0.246094 -0.835938 -0.088357 226 175 168
0.250000 -0.835938 -0.077205 227 186 176
-0.175781 -0.839844 -0.099429 194 140 131
-0.171875 -0.839844 -0.107085 207 169 155
-0.167969 -0.839844 -0.114339 189 140 125
-0.164062 -0.839844 -0.118509 194 140 131
-0.160156 -0.839844 -0.121804 203 152 145
-0.156250 -0.839844 -0.123781 207 156 149
-0.152344 -0.839844 -0.124315 211 157 149
-0.148438 -0.839844 -0.123020 218 160 152
-0.144531 -0.839844 -0.121781 229 174 166
-0.140625 -0.839844 -0.119798 234 180 175
-0.136719 -0.839844 -0.116253 235 180 177
-0.132812 -0.839844 -0.110773 237 183 181
-0.128906 -0.839844 -0.104638 238 187 183
-0.125000 -0.839844 -0.098141 238 196 188
-0.121094 -0.839844 -0.089445 233 192 181
-0.117188 -0.839844 -0.079059 222 188 171
0.187500 -0.839844 -0.088135 203 159 155
0.191406 -0.839844 -0.103570 200 173 159
0.195312 -0.839844 -0.109929 195 157 146
0.199219 -0.839844 -0.115275 203 159 155
0.203125 -0.839844 -0.119468 199 153 151
0.207031 -0.839844 -0.122054 195 149 148
0.210938 -0.839844 -0.123896 203 157 155
0.214844 -0.839844 -0.125556 214 170 166
0.218750 -0.839844 -0.126329 222 179 174
0.222656 -0.839844 -0.125232 227 183 177
0.226562 -0.839844 -0.121885 229 183 176
0.230469 -0.839844 -0.117794 230 186 178
0.234375 -0.839844 -0.112219 232 188 181
0.238281 -0.839844 -0.106484 234 195 187
0.242188 -0.839844 -0.098598 238 202 193
0.246094 -0.839844 -0.090034 228 179 170
0.250000 -0.839844 -0.081415 215 163 155
0.253906 -0.839844 -0.042576 211 181 175
-0.175781 -0.843750 -0.103088 192 138 128
-0.171875 -0.843750 -0.111980 198 150 140
-0.167969 -0.843750 -0.117886 190 140 125
-0.164062 -0.843750 -0.121424 192 138 128
-0.160156 -0.843750 -0.124448 198 146 139
-0.156250 -0.843750 -0.126267 204 151 144
-0.152344 -0.843750 -0.126580 209 153 145
-0.148438 -0.843750 -0.125140 218 160 151
-0.144531 -0.843750 -0.123759 228 173 166
-0.140625 -0.843750 -0.121612 233 180 175
-0.136719 -0.843750 -0.117968 236 181 179
-0.132812 -0.843750 -0.112649 237 182 180
-0.128906 -0.843750 -0.106531 237 183 180
-0.125000 -0.843750 -0.099937 237 194 186
-0.121094 -0.843750 -0.091178 230 191 183
-0.117188 -0.843750 -0.077773 203 162 151
0.187500 -0.843750 -0.093932 200 159 154
0.191406 -0.843750 -0.102328 188 156 150
0.195312 -0.843750 -0.109822 204 169 157
0.199219 -0.843750 -0.114774 200 159 154
0.203125 -0.843750 -0.119436 198 152 152
0.207031 -0.843750 -0.122187 197 151 150
0.210938 -0.843750 -0.124266 205 159 157
0.214844 -0.843750 -0.126150 215 170 166
0.218750 -0.843750 -0.127034 221 177 172
0.222656 -0.843750 -0.126076 227 181 175
0.226562 -0.843750 -0.122956 228 181 174
0.230469 -0.843750 -0.119088 229 184 176
0.234375 -0.843750 -0.113781 231 188 181
0.238281 -0.843750 -0.107983 234 195 187
0.242188 -0.843750 -0.100273 237 203 194
0.246094 -0.843750 -0.091577 232 190 181
0.250000 -0.843750 -0.082286 224 176 171
0.253906 -0.843750 -0.071724 215 178 172
-0.175781 -0.847656 -0.108047 208 177 164
-0.171875 -0.847656 -0.115076 201 150 142
-0.167969 -0.847656 -0.121075 196 142 130
-0.164062 -0.847656 -0.124083 189 134 126
-0.160156 -0.847656 -0.126666 194 141 135
-0.156250 -0.847656 -0.128322 201 147 139
-0.152344 -0.847656 -0.128481 208 153 143
-0.148438 -0.847656 -0.126964 219 162 151
-0.144531 -0.847656 -0.125468 228 173 164
-0.140625 -0.847656 -0.123208 232 178 173
-0.136719 -0.847656 -0.119464 235 181 179
-0.132812 -0.847656 -0.114136 236 181 180
-0.128906 -0.847656 -0.107964 237 185 180
-0.125000 -0.847656 -0.101413 235 193 185
-0.121094 -0.847656 -0.092172 230 193 187
-0.117188 -0.847656 -0.079779 237 215 200
0.187500 -0.847656 -0.063277 197 156 153
0.191406 -0.847656 -0.097606 215 187 179
0.195312 -0.847656 -0.108625 211 179 165
0.199219 -0.847656 -0.115124 197 156 153
0.203125 -0.847656 -0.118819 196 151 151
0.207031 -0.847656 -0.122143 198 152 151
0.210938 -0.847656 -0.124357 207 162 159
0.214844 -0.847656 -0.126342 215 171 167
0.218750 -0.847656 -0.127387 220 174 170
0.222656 -0.847656 -0.126637 226 179 173
0.226562 -0.847656 -0.123778 227 179 172
0.230469 -0.847656 -0.120176 228 182 175
0.234375 -0.847656 -0.115163 231 188 181
0.238281 -0.847656 -0.109332 233 194 187
0.242188 -0.847656 -0.102079 235 199 191
0.246094 -0.847656 -0.092993 231 191 183
0.250000 -0.847656 -0.082305 228 190 182
0.253906 -0.847656 -0.069663 226 200 194
-0.175781 -0.851562 -0.111030 179 131 120
-0.171875 -0.851562 -0.118060 197 142 135
-0.167969 -0.851562 -0.123770 200 147 135
-0.164062 -0.851562 -0.126254 194 138 131
-0.160156 -0.851562 -0.128549 194 141 134
-0.156250 -0.851562 -0.130130 199 144 135
-0.152344 -0.851562 -0.130213 209 153 143
-0.148438 -0.851562 -0.128659 219 162 151
-0.144531 -0.851562 -0.127094 227 171 163
-0.140625 -0.851562 -0.124701 231 175 170
-0.136719 -0.851562 -0.120966 234 180 178
-0.132812 -0.851562 -0.115800 237 182 181
-0.128906 -0.851562 -0.109209 239 189 184
-0.125000 -0.851562 -0.102759 235 191 184
-0.121094 -0.851562 -0.093909 229 189 183
-0.117188 -0.851562 -0.080379 222 188 171
0.191406 -0.851562 -0.101013 200 173 159
0.195312 -0.851562 -0.106741 204 167 159
0.199219 -0.851562 -0.114107 199 160 154
0.203125 -0.851562 -0.118849 198 154 149
0.207031 -0.851562 -0.122151 200 153 151
0.210938 -0.851562 -0.124158 207 162 159
0.214844 -0.851562 -0.126314 214 168 164
0.218750 -0.851562 -0.127522 216 169 164
0.222656 -0.851562 -0.126915 224 177 170
0.226562 -0.851562 -0.124304 226 178 170
0.230469 -0.851562 -0.121026 228 181 174
0.234375 -0.851562 -0.116368 231 188 180
0.238281 -0.851562 -0.110676 233 195 187
0.242188 -0.851562 -0.103600 236 200 194
0.246094 -0.851562 -0.093948 233 195 186
0.250000 -0.851562 -0.084263 223 185 174
0.253906 -0.851562 -0.070512 211 181 175
0.257812 -0.851562 -0.048258 233 195 186
-0.179688 -0.855469 -0.101068 194 141 132
-0.175781 -0.855469 -0.114282 200 151 139
-0.171875 -0.855469 -0.120771 186 135 130
-0.167969 -0.855469 -0.125895 194 141 132
-0.164062 -0.855469 -0.128072 193 138 131
-0.160156 -0.855469 -0.130154 192 138 131
-0.156250 -0.855469 -0.131669 197 143 134
-0.152344 -0.855469 -0.131668 210 156 145
-0.148438 -0.855469 -0.130049 219 163 151
-0.144531 -0.855469 -0.128420 227 171 162
-0.140625 -0.855469 -0.125868 231 176 170
-0.136719 -0.855469 -0.122328 235 180 178
-0.132812 -0.855469 -0.117311 237 182 181
-0.128906 -0.855469 -0.111159 239 190 186
-0.125000 -0.855469 -0.103591 236 191 183
-0.121094 -0.855469 -0.092137 232 192 183
-0.117188 -0.855469 -0.065895 203 162 151
0.191406 -0.855469 -0.043720 188 156 150
0.195312 -0.855469 -0.103325 157 106 122
0.199219 -0.855469 -0.112998 197 155 147
0.203125 -0.855469 -0.118317 197 150 141
0.207031 -0.855469 -0.122007 199 149 147
0.210938 -0.855469 -0.123973 208 161 158
0.214844 -0.855469 -0.126035 215 171 166
0.218750 -0.855469 -0.127406 215 168 164
0.222656 -0.855469 -0.126926 224 178 171
0.226562 -0.855469 -0.124564 227 181 173
0.230469 -0.855469 -0.121575 229 184 175
0.234375 -0.855469 -0.117199 232 190 181
0.238281 -0.855469 -0.111702 234 196 188
0.242188 -0.855469 -0.104623 236 198 192
0.246094 -0.855469 -0.094541 234 192 186
0.250000 -0.855469 -0.084486 231 190 183
0.253906 -0.855469 -0.073311 215 178 172
0.257812 -0.855469 -0.050538 234 192 186
-0.179688 -0.859375 -0.102556 194 142 135
-0.175781 -0.859375 -0.116867 208 177 164
-0.171875 -0.859375 -0.122638 183 134 129
-0.167969 -0.859375 -0.127074 194 142 135
-0.164062 -0.859375 -0.129275 193 139 133
-0.160156 -0.859375 -0.131367 194 141 133
-0.156250 -0.859375 -0.132848 200 147 137
-0.152344 -0.859375 -0.132829 214 161 148
-0.148438 -0.859375 -0.131177 221 166 154
-0.144531 -0.859375 -0.129500 228 172 163
-0.140625 -0.859375 -0.126864 232 178 172
-0.136719 -0.859375 -0.123460 235 181 179
-0.132812 -0.859375 -0.118069 238 184 183
-0.128906 -0.859375 -0.112398 239 191 185
-0.125000 -0.859375 -0.103178 237 195 182
-0.121094 -0.859375 -0.090882 236 197 185
0.195312 -0.859375 -0.098672 211 179 165
0.199219 -0.859375 -0.111565 205 169 162
0.203125 -0.859375 -0.118150 201 155 146
0.207031 -0.859375 -0.121185 199 149 147
0.210938 -0.859375 -0.123920 207 158 155
0.214844 -0.859375 -0.125531 216 171 166
0.218750 -0.859375 -0.126927 215 168 164
0.222656 -0.859375 -0.126594 222 176 169
0.226562 -0.859375 -0.124489 225 179 171
0.230469 -0.859375 -0.121834 228 182 174
0.234375 -0.859375 -0.117806 232 190 181
0.238281 -0.859375 -0.112624 236 198 190
0.242188 -0.859375 -0.105599 236 199 192
0.246094 -0.859375 -0.095791 235 193 186
0.250000 -0.859375 -0.084949 235 198 189
0.253906 -0.859375 -0.073082 228 198 187
0.257812 -0.859375 -0.049915 235 193 186
-0.179688 -0.863281 -0.105961 199 149 142
-0.175781 -0.863281 -0.118288 179 131 120
-0.171875 -0.863281 -0.123715 194 141 133
-0.167969 -0.863281 -0.127674 199 149 142
-0.164062 -0.863281 -0.129968 193 140 133
-0.160156 -0.863281 -0.132213 195 142 134
-0.156250 -0.863281 -0.133710 199 145 134
-0.152344 -0.863281 -0.133721 212 156 143
-0.148438 -0.863281 -0.132054 221 163 151
-0.144531 -0.863281 -0.130346 229 173 163
-0.140625 -0.863281 -0.127563 234 179 173
-0.136719 -0.863281 -0.124233 235 180 177
-0.132812 -0.863281 -0.118362 238 184 182
-0.128906 -0.863281 -0.112454 239 188 182
-0.125000 -0.863281 -0.104075 237 191 180
-0.121094 -0.863281 -0.090812 225 170 162
0.195312 -0.863281 -0.074654 204 167 159
0.199219 -0.863281 -0.110642 168 115 119
0.203125 -0.863281 -0.117162 191 134 130
0.207031 -0.863281 -0.120459 197 143 141
0.210938 -0.863281 -0.123413 203 153 149
0.214844 -0.863281 -0.125178 215 170 164
0.218750 -0.863281 -0.126363 216 168 164
0.222656 -0.863281 -0.125993 220 173 167
0.226562 -0.863281 -0.124059 223 176 168
0.230469 -0.863281 -0.121718 226 181 170
0.234375 -0.863281 -0.118067 231 189 178
0.238281 -0.863281 -0.113216 235 196 187
0.242188 -0.863281 -0.106146 236 197 190
0.246094 -0.863281 -0.096452 234 190 183
0.250000 -0.863281 -0.085644 231 187 177
0.253906 -0.863281 -0.074162 216 178 167
0.257812 -0.863281 -0.047247 203 165 158
-0.179688 -0.867188 -0.108832 210 176 173
-0.175781 -0.867188 -0.118237 200 151 139
-0.171875 -0.867188 -0.124248 201 145 138
-0.167969 -0.867188 -0.128180 200 148 141
-0.164062 -0.867188 -0.130442 192 139 132
-0.160156 -0.867188 -0.132712 195 142 133
-0.156250 -0.867188 -0.134182 198 142 131
-0.152344 -0.867188 -0.134229 208 149 137
-0.148438 -0.867188 -0.132582 219 158 146
-0.144531 -0.867188 -0.130873 229 171 162
-0.140625 -0.867188 -0.128079 234 178 172
-0.136719 -0.867188 -0.124822 235 176 173
-0.132812 -0.867188 -0.118864 237 181 178
-0.128906 -0.867188 -0.112246 238 185 180
-0.125000 -0.867188 -0.103195 239 197 189
-0.121094 -0.867188 -0.058194 223 175 168
0.199219 -0.867188 -0.104742 197 155 147
0.203125 -0.867188 -0.115239 184 123 128
0.207031 -0.867188 -0.120414 190 135 133
0.210938 -0.867188 -0.122932 201 149 144
0.214844 -0.867188 -0.124498 215 169 163
0.218750 -0.867188 -0.125486 216 169 164
0.222656 -0.867188 -0.125096 219 171 165
0.226562 -0.867188 -0.123387 222 176 167
0.230469 -0.867188 -0.121329 226 185 170
0.234375 -0.867188 -0.118064 230 189 175
0.238281 -0.867188 -0.113539 232 190 181
0.242188 -0.867188 -0.106614 235 192 186
0.246094 -0.867188 -0.097131 235 190 183
0.250000 -0.867188 -0.086034 233 185 177
0.253906 -0.867188 -0.074704 226 186 175
0.257812 -0.867188 -0.045635 228 194 190
-0.179688 -0.871094 -0.112487 201 158 156
-0.175781 -0.871094 -0.118982 202 150 142
-0.171875 -0.871094 -0.124227 195 136 131
-0.167969 -0.871094 -0.128540 198 146 139
-0.164062 -0.871094 -0.130594 194 142 135
-0.160156 -0.871094 -0.132902 199 147 138
-0.156250 -0.871094 -0.134347 203 148 136
-0.152344 -0.871094 -0.134488 209 150 137
-0.148438 -0.871094 -0.132945 219 156 145
-0.144531 -0.871094 -0.131262 230 171 162
-0.140625 -0.871094 -0.128560 234 177 171
-0.136719 -0.871094 -0.125085 234 174 170
-0.132812 -0.871094 -0.118808 237 181 177
-0.128906 -0.871094 -0.111846 238 185 179
-0.125000 -0.871094 -0.102961 239 204 194
0.199219 -0.871094 -0.084303 205 169 162
0.203125 -0.871094 -0.113876 204 154 165
0.207031 -0.871094 -0.119347 196 144 144
0.210938 -0.871094 -0.122134 204 153 150
0.214844 -0.871094 -0.123236 213 164 160
0.218750 -0.871094 -0.124284 215 166 162
0.222656 -0.871094 -0.123888 219 169 164
0.226562 -0.871094 -0.122367 222 177 166
0.230469 -0.871094 -0.120568 227 189 171
0.234375 -0.871094 -0.117735 231 194 177
0.238281 -0.871094 -0.113525 232 191 180
0.242188 -0.871094 -0.106930 235 193 186
0.246094 -0.871094 -0.097867 235 191 184
0.250000 -0.871094 -0.086519 232 183 177
0.253906 -0.871094 -0.076024 230 195 184
0.257812 -0.871094 -0.045054 232 200 190
-0.183594 -0.875000 -0.097208 192 133 128
-0.179688 -0.875000 -0.114753 192 139 140
-0.175781 -0.875000 -0.119307 198 145 137
-0.171875 -0.875000 -0.123978 192 133 128
-0.167969 -0.875000 -0.128396 198 146 141
-0.164062 -0.875000 -0.130352 195 143 137
-0.160156 -0.875000 -0.132713 200 148 139
-0.156250 -0.875000 -0.134161 205 149 139
-0.152344 -0.875000 -0.134407 211 151 139
-0.148438 -0.875000 -0.132973 219 157 146
-0.144531 -0.875000 -0.131312 228 168 158
-0.140625 -0.875000 -0.128620 232 173 165
-0.136719 -0.875000 -0.124896 234 173 168
-0.132812 -0.875000 -0.118461 237 181 177
-0.128906 -0.875000 -0.111190 236 179 176
-0.125000 -0.875000 -0.101954 233 189 183
-0.121094 -0.875000 -0.051748 224 196 187
0.203125 -0.875000 -0.107661 159 102 124
0.207031 -0.875000 -0.117820 198 146 145
0.210938 -0.875000 -0.120766 211 162 157
0.214844 -0.875000 -0.121593 212 163 159
0.218750 -0.875000 -0.122752 215 165 161
0.222656 -0.875000 -0.122319 219 170 163
0.226562 -0.875000 -0.120953 220 174 160
0.230469 -0.875000 -0.119391 225 189 166
0.234375 -0.875000 -0.116938 231 197 176
0.238281 -0.875000 -0.113022 233 195 182
0.242188 -0.875000 -0.106726 235 196 186
0.246094 -0.875000 -0.097942 235 194 185
0.250000 -0.875000 -0.086929 233 189 181
0.253906 -0.875000 -0.076933 228 191 180
0.257812 -0.875000 -0.052022 203 165 158
-0.183594 -0.878906 -0.103412 191 133 129
-0.179688 -0.878906 -0.113272 210 176 173
-0.175781 -0.878906 -0.119282 194 140 133
-0.171875 -0.878906 -0.123519 191 133 129
-0.167969 -0.878906 -0.127480 199 146 141
-0.164062 -0.878906 -0.129914 195 141 136
-0.160156 -0.878906 -0.132321 199 145 137
-0.156250 -0.878906 -0.133796 206 149 139
-0.152344 -0.878906 -0.134150 213 153 142
-0.148438 -0.878906 -0.132875 220 158 147
-0.144531 -0.878906 -0.131313 225 163 154
-0.140625 -0.878906 -0.128701 229 167 159
-0.136719 -0.878906 -0.124805 234 174 167
-0.132812 -0.878906 -0.118406 239 187 181
-0.128906 -0.878906 -0.110243 235 181 174
-0.125000 -0.878906 -0.098752 231 190 180
-0.121094 -0.878906 -0.082507 246 238 229
0.203125 -0.878906 -0.099905 121 70 94
0.207031 -0.878906 -0.115559 204 146 146
0.210938 -0.878906 -0.119396 214 161 158
0.214844 -0.878906 -0.119903 212 162 158
0.218750 -0.878906 -0.120984 214 164 160
0.222656 -0.878906 -0.120478 218 169 162
0.226562 -0.878906 -0.119273 217 172 156
0.230469 -0.878906 -0.117980 223 187 160
0.234375 -0.878906 -0.115882 229 196 170
0.238281 -0.878906 -0.112323 231 192 174
0.242188 -0.878906 -0.106523 232 190 177
0.246094 -0.878906 -0.098246 234 193 183
0.250000 -0.878906 -0.088059 236 198 188
0.253906 -0.878906 -0.076907 232 196 186
0.257812 -0.878906 -0.060387 228 194 190
-0.183594 -0.882812 -0.099707 200 158 150
-0.179688 -0.882812 -0.113036 201 158 156
-0.175781 -0.882812 -0.118708 188 134 129
-0.171875 -0.882812 -0.122948 192 135 131
-0.167969 -0.882812 -0.126415 198 145 139
-0.164062 -0.882812 -0.129214 193 139 134
-0.160156 -0.882812 -0.131656 197 142 135
-0.156250 -0.882812 -0.133205 206 149 140
-0.152344 -0.882812 -0.133666 214 155 144
-0.148438 -0.882812 -0.132564 221 161 150
-0.144531 -0.882812 -0.131081 225 165 155
-0.140625 -0.882812 -0.128501 229 167 158
-0.136719 -0.882812 -0.124364 233 173 166
-0.132812 -0.882812 -0.117851 238 188 180
-0.128906 -0.882812 -0.109073 234 180 171
-0.125000 -0.882812 -0.096240 229 188 175
-0.121094 -0.882812 -0.081996 244 235 226
0.203125 -0.882812 -0.089049 204 154 165
