ply
    format ascii 1.0
    element vertex 100968
    property float x
    property float y
    property float z
    property uchar red
    property uchar green
    property uchar blue
    end_header
-0.078125 0.792969 -0.128498 76 49 38
-0.074219 0.792969 -0.129126 76 51 38
-0.070312 0.792969 -0.129554 78 49 38
-0.066406 0.792969 -0.129402 76 51 38
-0.062500 0.792969 -0.129147 76 49 38
-0.058594 0.792969 -0.128604 76 50 39
-0.054688 0.792969 -0.127770 76 49 38
-0.050781 0.792969 -0.126844 76 51 39
-0.046875 0.792969 -0.125912 75 49 38
-0.042969 0.792969 -0.125323 75 50 40
-0.039062 0.792969 -0.124713 75 49 38
-0.035156 0.792969 -0.124230 74 49 40
-0.031250 0.792969 -0.123691 73 48 39
-0.027344 0.792969 -0.122729 73 49 40
-0.023438 0.792969 -0.121656 72 48 40
-0.019531 0.792969 -0.120388 71 49 40
-0.015625 0.792969 -0.119352 72 48 41
-0.011719 0.792969 -0.118200 70 48 41
-0.007812 0.792969 -0.116782 70 49 42
-0.003906 0.792969 -0.115640 71 50 44
0.000000 0.792969 -0.114326 74 52 45
0.003906 0.792969 -0.112678 77 54 46
0.007812 0.792969 -0.111055 80 56 48
0.011719 0.792969 -0.109498 80 55 45
0.015625 0.792969 -0.107851 78 52 41
0.019531 0.792969 -0.105571 75 48 36
0.023438 0.792969 -0.102215 75 47 36
0.027344 0.792969 -0.098581 74 48 35
0.031250 0.792969 -0.095192 67 44 30
0.035156 0.792969 -0.091854 60 39 25
0.039062 0.792969 -0.087747 86 60 42
0.042969 0.792969 -0.083862 83 57 41
0.046875 0.792969 -0.079972 94 61 41
0.050781 0.792969 -0.075490 117 74 52
0.054688 0.792969 -0.070153 146 97 73
0.058594 0.792969 -0.064895 158 108 85
0.062500 0.792969 -0.059088 145 99 77
0.066406 0.792969 -0.053476 177 142 117
0.070312 0.792969 -0.046224 197 180 165
0.074219 0.792969 -0.036913 145 99 77
-0.242188 0.789062 0.003464 102 52 32
-0.238281 0.789062 -0.006298 104 51 31
-0.234375 0.789062 -0.015602 75 37 24
-0.230469 0.789062 -0.024094 79 41 26
-0.226562 0.789062 -0.032332 74 39 23
-0.222656 0.789062 -0.040301 60 32 19
-0.218750 0.789062 -0.047827 54 29 17
-0.214844 0.789062 -0.054502 54 31 18
-0.210938 0.789062 -0.060863 58 34 22
-0.207031 0.789062 -0.066377 58 35 25
-0.203125 0.789062 -0.071448 82 52 37
-0.199219 0.789062 -0.075070 115 79 59
-0.195312 0.789062 -0.077783 101 66 50
-0.191406 0.789062 -0.080596 82 52 37
-0.187500 0.789062 -0.083624 72 43 31
-0.183594 0.789062 -0.085936 44 24 17
-0.179688 0.789062 -0.087213 73 38 30
-0.175781 0.789062 -0.088860 63 33 26
-0.171875 0.789062 -0.091273 61 32 25
-0.167969 0.789062 -0.093602 63 34 27
-0.164062 0.789062 -0.095918 61 33 25
-0.160156 0.789062 -0.096843 61 32 27
-0.156250 0.789062 -0.097708 60 34 25
-0.152344 0.789062 -0.098778 60 32 26
-0.148438 0.789062 -0.100060 59 33 26
-0.144531 0.789062 -0.101499 59 32 25
-0.140625 0.789062 -0.103093 59 34 27
-0.136719 0.789062 -0.104835 58 33 26
-0.132812 0.789062 -0.106417 58 34 26
-0.128906 0.789062 -0.108310 58 34 27
-0.125000 0.789062 -0.110233 58 34 27
-0.121094 0.789062 -0.112198 58 35 28
-0.117188 0.789062 -0.114191 59 35 28
-0.113281 0.789062 -0.116156 59 35 28
-0.109375 0.789062 -0.117956 60 36 29
-0.105469 0.789062 -0.119532 60 36 29
-0.101562 0.789062 -0.120957 61 37 30
-0.097656 0.789062 -0.122309 62 37 30
-0.093750 0.789062 -0.123430 62 37 30
-0.089844 0.789062 -0.124792 64 39 30
-0.085938 0.789062 -0.126143 69 43 33
-0.082031 0.789062 -0.127247 73 46 36
-0.078125 0.789062 -0.128225 79 51 37
-0.074219 0.789062 -0.128827 76 49 38
-0.070312 0.789062 -0.129162 76 50 38
-0.066406 0.789062 -0.128906 78 51 38
-0.062500 0.789062 -0.128620 76 49 38
-0.058594 0.789062 -0.128047 77 51 38
-0.054688 0.789062 -0.127211 76 49 38
-0.050781 0.789062 -0.126295 76 49 39
-0.046875 0.789062 -0.125346 76 50 38
-0.042969 0.789062 -0.124700 76 49 39
-0.039062 0.789062 -0.124017 75 49 38
-0.035156 0.789062 -0.123481 75 49 39
-0.031250 0.789062 -0.122923 74 49 38
-0.027344 0.789062 -0.121976 73 48 39
-0.023438 0.789062 -0.120962 72 48 39
-0.019531 0.789062 -0.119798 71 47 39
-0.015625 0.789062 -0.118850 70 47 40
-0.011719 0.789062 -0.117817 68 47 40
-0.007812 0.789062 -0.116514 69 47 41
-0.003906 0.789062 -0.115544 69 48 42
0.000000 0.789062 -0.114487 71 50 44
0.003906 0.789062 -0.113053 75 53 47
0.007812 0.789062 -0.111642 80 57 50
0.011719 0.789062 -0.110278 83 58 50
0.015625 0.789062 -0.108777 79 53 44
0.019531 0.789062 -0.106298 72 47 37
0.023438 0.789062 -0.103253 78 49 37
0.027344 0.789062 -0.099726 103 60 49
0.031250 0.789062 -0.096474 40 24 19
0.035156 0.789062 -0.093262 67 44 29
0.039062 0.789062 -0.089304 82 57 38
0.042969 0.789062 -0.085603 73 48 35
0.046875 0.789062 -0.081832 93 60 42
0.050781 0.789062 -0.077351 119 76 54
0.054688 0.789062 -0.072144 146 96 71
0.058594 0.789062 -0.066954 153 102 79
0.062500 0.789062 -0.061282 143 98 77
0.066406 0.789062 -0.055719 175 140 117
0.070312 0.789062 -0.048899 166 144 132
0.074219 0.789062 -0.042449 143 98 77
-0.246094 0.785156 0.015248 137 81 56
-0.242188 0.785156 0.003367 109 56 33
-0.238281 0.785156 -0.005911 109 56 32
-0.234375 0.785156 -0.014401 81 42 26
-0.230469 0.785156 -0.022514 80 43 26
-0.226562 0.785156 -0.030808 78 41 25
-0.222656 0.785156 -0.038888 67 36 21
-0.218750 0.785156 -0.046595 61 34 20
-0.214844 0.785156 -0.053556 60 34 21
-0.210938 0.785156 -0.060176 64 39 26
-0.207031 0.785156 -0.065820 74 48 36
-0.203125 0.785156 -0.070912 105 72 53
-0.199219 0.785156 -0.074633 133 95 72
-0.195312 0.785156 -0.077560 108 70 53
-0.191406 0.785156 -0.080505 71 42 31
-0.187500 0.785156 -0.083656 59 32 23
-0.183594 0.785156 -0.086007 37 18 13
-0.179688 0.785156 -0.087327 55 28 22
-0.175781 0.785156 -0.088847 52 27 21
-0.171875 0.785156 -0.091062 58 31 24
-0.167969 0.785156 -0.093448 61 33 26
-0.164062 0.785156 -0.095834 60 34 25
-0.160156 0.785156 -0.096728 60 33 24
-0.156250 0.785156 -0.097405 60 34 27
-0.152344 0.785156 -0.098306 59 33 25
-0.148438 0.785156 -0.099414 59 34 25
-0.144531 0.785156 -0.100663 58 33 26
-0.140625 0.785156 -0.102119 58 33 26
-0.136719 0.785156 -0.103746 58 34 26
-0.132812 0.785156 -0.105237 58 34 27
-0.128906 0.785156 -0.107152 57 35 27
-0.125000 0.785156 -0.109178 59 35 28
-0.121094 0.785156 -0.111101 59 35 28
-0.117188 0.785156 -0.113031 59 36 29
-0.113281 0.785156 -0.115041 60 36 29
-0.109375 0.785156 -0.116899 61 36 30
-0.105469 0.785156 -0.118573 61 37 30
-0.101562 0.785156 -0.120136 62 37 30
-0.097656 0.785156 -0.121669 63 37 31
-0.093750 0.785156 -0.123014 63 38 30
-0.089844 0.785156 -0.124417 64 38 33
-0.085938 0.785156 -0.125686 70 43 34
-0.082031 0.785156 -0.126851 72 45 35
-0.078125 0.785156 -0.127872 76 50 37
-0.074219 0.785156 -0.128431 79 50 38
-0.070312 0.785156 -0.128723 76 50 37
-0.066406 0.785156 -0.128505 76 49 38
-0.062500 0.785156 -0.128240 78 50 37
-0.058594 0.785156 -0.127585 76 49 39
-0.054688 0.785156 -0.126685 78 50 37
-0.050781 0.785156 -0.125733 76 50 38
-0.046875 0.785156 -0.124755 76 49 38
-0.042969 0.785156 -0.124049 76 49 38
-0.039062 0.785156 -0.123303 76 50 38
-0.035156 0.785156 -0.122725 75 49 38
-0.031250 0.785156 -0.122159 75 49 39
-0.027344 0.785156 -0.121243 74 49 38
-0.023438 0.785156 -0.120299 73 48 38
-0.019531 0.785156 -0.119210 72 48 39
-0.015625 0.785156 -0.118246 70 47 38
-0.011719 0.785156 -0.117352 69 47 39
-0.007812 0.785156 -0.116247 68 46 39
-0.003906 0.785156 -0.115408 66 46 40
0.000000 0.785156 -0.114641 67 47 42
0.003906 0.785156 -0.113561 71 51 45
0.007812 0.785156 -0.112389 79 57 51
0.011719 0.785156 -0.111145 88 63 55
0.015625 0.785156 -0.109445 85 60 51
0.019531 0.785156 -0.107161 67 44 36
0.023438 0.785156 -0.104337 65 41 33
0.027344 0.785156 -0.100924 51 29 24
0.031250 0.785156 -0.097688 48 29 24
0.035156 0.785156 -0.094535 78 49 35
0.039062 0.785156 -0.090642 75 50 34
0.042969 0.785156 -0.087126 70 47 33
0.046875 0.785156 -0.083505 94 62 43
0.050781 0.785156 -0.079063 123 79 56
0.054688 0.785156 -0.074028 149 98 72
0.058594 0.785156 -0.068798 156 105 81
0.062500 0.785156 -0.062991 152 107 84
0.066406 0.785156 -0.057222 173 133 113
0.070312 0.785156 -0.050932 172 141 130
0.074219 0.785156 -0.044363 152 107 84
-0.246094 0.781250 0.012314 121 71 48
-0.242188 0.781250 0.003490 111 60 35
-0.238281 0.781250 -0.005367 111 59 34
-0.234375 0.781250 -0.013380 91 48 29
-0.230469 0.781250 -0.021015 88 48 29
-0.226562 0.781250 -0.029172 87 47 28
-0.222656 0.781250 -0.037434 75 42 25
-0.218750 0.781250 -0.045381 66 38 23
-0.214844 0.781250 -0.052649 62 36 23
-0.210938 0.781250 -0.059517 69 44 30
-0.207031 0.781250 -0.065309 94 65 49
-0.203125 0.781250 -0.070452 121 87 67
-0.199219 0.781250 -0.074322 138 99 75
-0.195312 0.781250 -0.077415 118 78 58
-0.191406 0.781250 -0.080347 72 43 32
-0.187500 0.781250 -0.083543 50 27 19
-0.183594 0.781250 -0.085971 32 16 11
-0.179688 0.781250 -0.087513 42 21 17
-0.175781 0.781250 -0.088858 54 29 22
-0.171875 0.781250 -0.090542 61 33 25
-0.167969 0.781250 -0.092999 61 33 25
-0.164062 0.781250 -0.095490 61 33 26
-0.160156 0.781250 -0.096386 60 33 25
-0.156250 0.781250 -0.097011 59 33 26
-0.152344 0.781250 -0.097808 58 33 25
-0.148438 0.781250 -0.098713 58 32 27
-0.144531 0.781250 -0.099750 58 34 26
-0.140625 0.781250 -0.101079 57 34 27
-0.136719 0.781250 -0.102653 58 34 27
-0.132812 0.781250 -0.104112 57 35 28
-0.128906 0.781250 -0.106021 59 35 28
-0.125000 0.781250 -0.108067 59 36 29
-0.121094 0.781250 -0.109946 59 36 29
-0.117188 0.781250 -0.111829 60 36 29
-0.113281 0.781250 -0.113825 61 37 30
-0.109375 0.781250 -0.115695 62 37 30
-0.105469 0.781250 -0.117394 62 38 31
-0.101562 0.781250 -0.119064 63 37 30
-0.097656 0.781250 -0.120720 63 39 31
-0.093750 0.781250 -0.122224 64 37 32
-0.089844 0.781250 -0.123738 65 39 31
-0.085938 0.781250 -0.124966 68 41 33
-0.082031 0.781250 -0.126142 72 45 35
-0.078125 0.781250 -0.127132 77 49 36
-0.074219 0.781250 -0.127656 77 51 38
-0.070312 0.781250 -0.128010 79 50 37
-0.066406 0.781250 -0.127921 77 52 39
-0.062500 0.781250 -0.127785 77 49 37
-0.058594 0.781250 -0.127180 77 51 38
-0.054688 0.781250 -0.126308 76 49 37
-0.050781 0.781250 -0.125359 77 49 39
-0.046875 0.781250 -0.124354 76 51 37
-0.042969 0.781250 -0.123550 77 49 39
-0.039062 0.781250 -0.122689 76 49 37
-0.035156 0.781250 -0.122018 76 49 39
-0.031250 0.781250 -0.121410 75 49 37
-0.027344 0.781250 -0.120516 75 49 39
-0.023438 0.781250 -0.119618 74 48 37
-0.019531 0.781250 -0.118609 73 48 39
-0.015625 0.781250 -0.117653 71 47 37
-0.011719 0.781250 -0.116920 69 46 39
-0.007812 0.781250 -0.115888 67 45 37
-0.003906 0.781250 -0.115170 65 44 38
0.000000 0.781250 -0.114856 63 44 39
0.003906 0.781250 -0.113773 64 46 41
0.007812 0.781250 -0.112685 73 53 48
0.011719 0.781250 -0.111864 92 67 59
0.015625 0.781250 -0.110165 100 72 63
0.019531 0.781250 -0.107739 68 47 39
0.023438 0.781250 -0.105025 68 43 35
0.027344 0.781250 -0.101770 47 28 23
0.031250 0.781250 -0.098665 71 47 35
0.035156 0.781250 -0.095763 73 49 33
0.039062 0.781250 -0.092016 70 47 31
0.042969 0.781250 -0.088493 76 52 35
0.046875 0.781250 -0.084969 98 65 44
0.050781 0.781250 -0.080625 126 82 56
0.054688 0.781250 -0.075670 147 96 68
0.058594 0.781250 -0.070438 158 107 79
0.062500 0.781250 -0.064664 159 112 86
0.066406 0.781250 -0.059032 160 112 96
0.070312 0.781250 -0.052886 184 145 135
0.074219 0.781250 -0.047104 159 112 86
-0.250000 0.777344 0.018119 179 146 114
-0.246094 0.777344 0.009656 105 64 41
-0.242188 0.777344 0.003397 116 65 40
-0.238281 0.777344 -0.004652 110 59 35
-0.234375 0.777344 -0.012301 99 52 32
-0.230469 0.777344 -0.019572 97 52 32
-0.226562 0.777344 -0.027528 97 53 31
-0.222656 0.777344 -0.035884 86 48 29
-0.218750 0.777344 -0.044084 72 42 27
-0.214844 0.777344 -0.051736 63 37 25
-0.210938 0.777344 -0.058876 76 49 34
-0.207031 0.777344 -0.064840 115 81 61
-0.203125 0.777344 -0.070019 130 93 72
-0.199219 0.777344 -0.074021 128 88 67
-0.195312 0.777344 -0.077264 118 77 57
-0.191406 0.777344 -0.080219 79 47 35
-0.187500 0.777344 -0.083436 50 27 19
-0.183594 0.777344 -0.085936 32 16 11
-0.179688 0.777344 -0.087784 34 17 14
-0.175781 0.777344 -0.089172 104 60 47
-0.171875 0.777344 -0.090713 68 38 29
-0.167969 0.777344 -0.093076 63 35 26
-0.164062 0.777344 -0.095534 62 34 26
-0.160156 0.777344 -0.096367 60 34 26
-0.156250 0.777344 -0.096811 58 33 25
-0.152344 0.777344 -0.097444 57 32 25
-0.148438 0.777344 -0.098114 57 34 26
-0.144531 0.777344 -0.098858 56 34 26
-0.140625 0.777344 -0.099897 57 34 27
-0.136719 0.777344 -0.101305 57 35 28
-0.132812 0.777344 -0.102799 57 36 28
-0.128906 0.777344 -0.104661 58 36 29
-0.125000 0.777344 -0.106582 59 36 29
-0.121094 0.777344 -0.108422 60 37 30
-0.117188 0.777344 -0.110328 61 37 30
-0.113281 0.777344 -0.112334 62 37 31
-0.109375 0.777344 -0.114270 62 37 30
-0.105469 0.777344 -0.116115 63 37 31
-0.101562 0.777344 -0.118018 64 38 32
-0.097656 0.777344 -0.119844 64 37 31
-0.093750 0.777344 -0.121429 65 39 30
-0.089844 0.777344 -0.123051 64 38 32
-0.085938 0.777344 -0.124393 69 41 33
-0.082031 0.777344 -0.125602 72 45 35
-0.078125 0.777344 -0.126552 75 48 36
-0.074219 0.777344 -0.127140 77 50 38
-0.070312 0.777344 -0.127462 77 49 36
-0.066406 0.777344 -0.127329 77 51 37
-0.062500 0.777344 -0.127226 77 49 37
-0.058594 0.777344 -0.126666 79 49 38
-0.054688 0.777344 -0.125921 76 51 37
-0.050781 0.777344 -0.124964 78 49 38
-0.046875 0.777344 -0.123897 76 49 37
-0.042969 0.777344 -0.123024 77 50 38
-0.039062 0.777344 -0.122077 76 49 37
-0.035156 0.777344 -0.121353 77 50 37
-0.031250 0.777344 -0.120738 76 49 38
-0.027344 0.777344 -0.119867 76 49 37
-0.023438 0.777344 -0.118987 75 49 38
-0.019531 0.777344 -0.118045 74 48 37
-0.015625 0.777344 -0.117084 73 48 38
-0.011719 0.777344 -0.116454 71 47 37
-0.007812 0.777344 -0.115527 68 45 37
-0.003906 0.777344 -0.115030 63 43 36
0.000000 0.777344 -0.114898 59 41 35
0.003906 0.777344 -0.113434 56 39 36
0.007812 0.777344 -0.112679 60 43 40
0.011719 0.777344 -0.111900 90 67 60
0.015625 0.777344 -0.110231 154 115 101
0.019531 0.777344 -0.108071 92 65 57
0.023438 0.777344 -0.105610 37 25 22
0.027344 0.777344 -0.102471 61 40 29
0.031250 0.777344 -0.099446 80 55 37
0.035156 0.777344 -0.096565 58 39 25
0.039062 0.777344 -0.092987 64 42 27
0.042969 0.777344 -0.089654 75 51 33
0.046875 0.777344 -0.086175 96 64 42
0.050781 0.777344 -0.081868 125 82 54
0.054688 0.777344 -0.076980 141 92 62
0.058594 0.777344 -0.071810 154 102 72
0.062500 0.777344 -0.066177 159 110 82
0.066406 0.777344 -0.060838 144 95 83
0.070312 0.777344 -0.054965 163 122 117
0.074219 0.777344 -0.049211 159 110 82
-0.250000 0.773438 0.016148 157 118 91
-0.246094 0.773438 0.009439 106 61 41
-0.242188 0.773438 0.003558 123 72 45
-0.238281 0.773438 -0.003891 108 59 36
-0.234375 0.773438 -0.011044 108 58 35
-0.230469 0.773438 -0.018035 105 56 34
-0.226562 0.773438 -0.025650 105 57 34
-0.222656 0.773438 -0.034093 98 56 34
-0.218750 0.773438 -0.042653 84 50 33
-0.214844 0.773438 -0.050788 75 46 32
-0.210938 0.773438 -0.058243 90 59 42
-0.207031 0.773438 -0.064378 131 92 70
-0.203125 0.773438 -0.069589 134 92 71
-0.199219 0.773438 -0.073702 117 77 58
-0.195312 0.773438 -0.077078 109 69 50
-0.191406 0.773438 -0.080161 76 45 33
-0.187500 0.773438 -0.083461 45 25 18
-0.183594 0.773438 -0.086041 28 16 11
-0.179688 0.773438 -0.088150 25 14 11
-0.175781 0.773438 -0.089553 69 39 30
-0.171875 0.773438 -0.090548 58 33 25
-0.167969 0.773438 -0.092631 57 32 24
-0.164062 0.773438 -0.094987 56 32 25
-0.160156 0.773438 -0.095823 53 31 23
-0.156250 0.773438 -0.096206 54 32 25
-0.152344 0.773438 -0.096532 54 33 26
-0.148438 0.773438 -0.096946 55 34 26
-0.144531 0.773438 -0.097463 55 34 27
-0.140625 0.773438 -0.098197 56 35 28
-0.136719 0.773438 -0.099339 57 36 28
-0.132812 0.773438 -0.100746 58 36 29
-0.128906 0.773438 -0.102474 59 37 30
-0.125000 0.773438 -0.104285 60 37 30
-0.121094 0.773438 -0.106219 61 37 30
-0.117188 0.773438 -0.108289 62 37 30
-0.113281 0.773438 -0.110422 63 39 31
-0.109375 0.773438 -0.112548 63 37 32
-0.105469 0.773438 -0.114581 64 39 31
-0.101562 0.773438 -0.116569 64 37 30
-0.097656 0.773438 -0.118536 64 39 33
-0.093750 0.773438 -0.120221 64 37 31
-0.089844 0.773438 -0.121854 65 39 31
-0.085938 0.773438 -0.123264 66 39 32
-0.082031 0.773438 -0.124592 72 44 34
-0.078125 0.773438 -0.125709 74 47 35
-0.074219 0.773438 -0.126419 77 50 38
-0.070312 0.773438 -0.126725 78 50 37
-0.066406 0.773438 -0.126752 77 50 38
-0.062500 0.773438 -0.126830 79 50 36
-0.058594 0.773438 -0.126287 77 50 38
-0.054688 0.773438 -0.125571 79 49 36
-0.050781 0.773438 -0.124517 76 51 38
-0.046875 0.773438 -0.123358 78 49 37
-0.042969 0.773438 -0.122417 76 51 37
-0.039062 0.773438 -0.121438 78 49 39
-0.035156 0.773438 -0.120688 76 49 37
-0.031250 0.773438 -0.120036 77 50 37
-0.027344 0.773438 -0.119193 77 49 38
-0.023438 0.773438 -0.118350 76 49 37
-0.019531 0.773438 -0.117411 76 49 38
-0.015625 0.773438 -0.116451 75 49 37
-0.011719 0.773438 -0.116007 74 48 37
-0.007812 0.773438 -0.115201 72 47 37
-0.003906 0.773438 -0.114915 67 44 35
0.000000 0.773438 -0.114605 58 38 32
0.003906 0.773438 -0.113281 47 32 29
0.007812 0.773438 -0.112860 49 35 34
0.011719 0.773438 -0.111910 55 41 40
0.015625 0.773438 -0.110231 93 70 61
0.019531 0.773438 -0.108530 73 54 48
0.023438 0.773438 -0.106154 32 22 21
0.027344 0.773438 -0.103013 61 42 31
0.031250 0.773438 -0.099975 75 51 34
0.035156 0.773438 -0.097121 50 31 20
0.039062 0.773438 -0.093716 61 38 24
0.042969 0.773438 -0.090596 71 47 30
0.046875 0.773438 -0.087242 89 58 37
0.050781 0.773438 -0.083040 119 76 48
0.054688 0.773438 -0.078195 130 81 53
0.058594 0.773438 -0.073121 143 90 61
0.062500 0.773438 -0.067573 155 105 78
0.066406 0.773438 -0.062452 153 106 90
0.070312 0.773438 -0.056500 178 141 129
0.074219 0.773438 -0.050438 125 95 86
-0.250000 0.769531 0.018831 145 101 79
-0.246094 0.769531 0.010486 126 76 52
-0.242188 0.769531 0.003959 135 82 55
-0.238281 0.769531 -0.002762 114 64 41
-0.234375 0.769531 -0.009721 122 68 42
-0.230469 0.769531 -0.016381 111 59 36
-0.226562 0.769531 -0.023513 107 57 34
-0.222656 0.769531 -0.032100 100 56 34
-0.218750 0.769531 -0.041193 92 56 38
-0.214844 0.769531 -0.049887 92 59 43
-0.210938 0.769531 -0.057598 101 67 50
-0.207031 0.769531 -0.063896 127 86 66
-0.203125 0.769531 -0.069227 128 84 64
-0.199219 0.769531 -0.073416 114 73 53
-0.195312 0.769531 -0.076895 105 64 46
-0.191406 0.769531 -0.080116 74 43 31
-0.187500 0.769531 -0.083371 47 27 19
-0.183594 0.769531 -0.086027 31 19 12
-0.179688 0.769531 -0.088572 24 14 11
-0.175781 0.769531 -0.090078 47 28 22
-0.171875 0.769531 -0.090691 44 26 20
-0.167969 0.769531 -0.092644 48 28 21
-0.164062 0.769531 -0.094867 47 29 22
-0.160156 0.769531 -0.095652 49 30 23
-0.156250 0.769531 -0.096027 51 32 25
-0.152344 0.769531 -0.096143 52 33 26
-0.148438 0.769531 -0.096095 54 34 27
-0.144531 0.769531 -0.096236 55 35 28
-0.140625 0.769531 -0.096626 56 36 29
-0.136719 0.769531 -0.097342 57 36 29
-0.132812 0.769531 -0.098433 58 37 30
-0.128906 0.769531 -0.099965 59 37 30
-0.125000 0.769531 -0.101661 61 37 31
-0.121094 0.769531 -0.103776 62 38 30
-0.117188 0.769531 -0.106271 63 38 32
-0.113281 0.769531 -0.108723 63 37 31
-0.109375 0.769531 -0.111124 64 38 30
-0.105469 0.769531 -0.113289 64 37 32
-0.101562 0.769531 -0.115327 65 39 31
-0.097656 0.769531 -0.117428 64 37 31
-0.093750 0.769531 -0.119216 66 38 30
-0.089844 0.769531 -0.121013 64 37 32
-0.085938 0.769531 -0.122564 67 40 31
-0.082031 0.769531 -0.124085 71 44 35
-0.078125 0.769531 -0.125380 73 45 35
-0.074219 0.769531 -0.125992 76 49 36
-0.070312 0.769531 -0.126207 77 49 36
-0.066406 0.769531 -0.126324 77 50 37
-0.062500 0.769531 -0.126511 76 49 36
-0.058594 0.769531 -0.125951 77 51 38
-0.054688 0.769531 -0.125143 76 49 36
-0.050781 0.769531 -0.123998 78 51 37
-0.046875 0.769531 -0.122812 76 49 37
-0.042969 0.769531 -0.121793 78 49 37
-0.039062 0.769531 -0.120817 76 51 36
-0.035156 0.769531 -0.120043 78 49 38
-0.031250 0.769531 -0.119314 76 49 37
-0.027344 0.769531 -0.118509 77 50 37
-0.023438 0.769531 -0.117690 77 49 37
-0.019531 0.769531 -0.116771 77 50 37
-0.015625 0.769531 -0.115872 77 49 37
-0.011719 0.769531 -0.115520 77 50 37
-0.007812 0.769531 -0.114815 77 49 37
-0.003906 0.769531 -0.114723 74 48 36
0.000000 0.769531 -0.114325 67 43 32
0.003906 0.769531 -0.113419 44 26 21
0.007812 0.769531 -0.113060 23 15 15
0.011719 0.769531 -0.112291 26 18 18
0.015625 0.769531 -0.110542 87 67 57
0.019531 0.769531 -0.108730 119 99 83
0.023438 0.769531 -0.106297 43 32 30
0.027344 0.769531 -0.103201 49 34 27
0.031250 0.769531 -0.100267 67 45 30
0.035156 0.769531 -0.097540 48 30 19
0.039062 0.769531 -0.094274 61 37 22
0.042969 0.769531 -0.091315 70 44 27
0.046875 0.769531 -0.088098 83 52 31
0.050781 0.769531 -0.083981 111 68 41
0.054688 0.769531 -0.079124 119 70 43
0.058594 0.769531 -0.074245 132 79 51
0.062500 0.769531 -0.068859 152 101 72
0.066406 0.769531 -0.063692 170 122 100
0.070312 0.769531 -0.057813 206 173 152
0.074219 0.769531 -0.051910 181 151 130
-0.250000 0.765625 0.021534 149 104 83
-0.246094 0.765625 0.012400 148 94 67
-0.242188 0.765625 0.004871 141 86 60
-0.238281 0.765625 -0.001361 122 69 46
-0.234375 0.765625 -0.008155 140 83 53
-0.230469 0.765625 -0.014457 123 69 42
-0.226562 0.765625 -0.021197 115 62 38
-0.222656 0.765625 -0.029873 103 57 36
-0.218750 0.765625 -0.039406 100 61 43
-0.214844 0.765625 -0.048887 118 77 58
-0.210938 0.765625 -0.057016 120 80 60
-0.207031 0.765625 -0.063429 127 83 63
-0.203125 0.765625 -0.068855 119 74 56
-0.199219 0.765625 -0.073075 97 58 42
-0.195312 0.765625 -0.076672 81 47 33
-0.191406 0.765625 -0.080093 62 36 26
-0.187500 0.765625 -0.083606 46 28 19
-0.183594 0.765625 -0.086230 30 18 13
-0.179688 0.765625 -0.088835 20 12 10
-0.175781 0.765625 -0.090753 29 18 14
-0.171875 0.765625 -0.091073 39 24 18
-0.167969 0.765625 -0.092751 41 26 20
-0.164062 0.765625 -0.094284 44 28 22
-0.160156 0.765625 -0.095441 48 31 24
-0.156250 0.765625 -0.095922 51 33 26
-0.152344 0.765625 -0.095924 53 34 27
-0.148438 0.765625 -0.095568 55 35 28
-0.144531 0.765625 -0.095382 56 36 29
-0.140625 0.765625 -0.095348 57 37 29
-0.136719 0.765625 -0.095584 58 37 30
-0.132812 0.765625 -0.096324 59 38 30
-0.128906 0.765625 -0.097530 61 38 31
-0.125000 0.765625 -0.099074 62 38 31
-0.121094 0.765625 -0.101394 63 38 32
-0.117188 0.765625 -0.104346 63 37 31
-0.113281 0.765625 -0.107212 64 39 33
-0.109375 0.765625 -0.109902 64 37 31
-0.105469 0.765625 -0.112259 65 38 32
-0.101562 0.765625 -0.114442 64 37 31
-0.097656 0.765625 -0.116642 66 39 32
-0.093750 0.765625 -0.118599 64 37 31
-0.089844 0.765625 -0.120661 66 38 31
-0.085938 0.765625 -0.122421 65 37 32
-0.082031 0.765625 -0.124123 68 41 32
-0.078125 0.765625 -0.125522 71 44 34
-0.074219 0.765625 -0.126204 77 49 36
-0.070312 0.765625 -0.126479 76 49 36
-0.066406 0.765625 -0.126503 78 50 37
-0.062500 0.765625 -0.126520 77 49 36
-0.058594 0.765625 -0.125776 78 50 36
-0.054688 0.765625 -0.124817 77 49 37
-0.050781 0.765625 -0.123543 78 49 36
-0.046875 0.765625 -0.122211 77 51 37
-0.042969 0.765625 -0.121039 78 49 36
-0.039062 0.765625 -0.120018 77 49 37
-0.035156 0.765625 -0.119228 78 51 36
-0.031250 0.765625 -0.118450 78 49 37
-0.027344 0.765625 -0.117660 78 50 37
-0.023438 0.765625 -0.116920 78 50 37
-0.019531 0.765625 -0.116106 78 50 38
-0.015625 0.765625 -0.115346 80 51 38
-0.011719 0.765625 -0.115151 80 52 39
-0.007812 0.765625 -0.114656 81 52 39
-0.003906 0.765625 -0.114274 84 55 41
0.000000 0.765625 -0.114015 119 78 58
0.003906 0.765625 -0.113442 43 27 20
0.007812 0.765625 -0.113045 28 18 14
0.011719 0.765625 -0.112423 25 16 15
0.015625 0.765625 -0.110688 81 63 53
0.019531 0.765625 -0.108760 146 129 110
0.023438 0.765625 -0.106324 53 42 38
0.027344 0.765625 -0.103248 41 28 22
0.031250 0.765625 -0.100425 61 39 26
0.035156 0.765625 -0.097634 46 28 17
0.039062 0.765625 -0.094385 56 33 20
0.042969 0.765625 -0.091634 64 38 22
0.046875 0.765625 -0.088614 76 45 27
0.050781 0.765625 -0.084661 104 62 37
0.054688 0.765625 -0.079866 116 67 39
0.058594 0.765625 -0.075171 135 79 49
0.062500 0.765625 -0.069865 151 97 67
0.066406 0.765625 -0.064887 166 116 89
0.070312 0.765625 -0.058931 187 149 120
0.074219 0.765625 -0.052107 172 150 129
0.078125 0.765625 -0.040839 166 116 89
-0.250000 0.761719 0.022281 166 123 97
-0.246094 0.761719 0.014462 165 112 82
-0.242188 0.761719 0.006360 144 89 63
-0.238281 0.761719 0.000125 129 76 52
-0.234375 0.761719 -0.006511 155 97 66
-0.230469 0.761719 -0.012461 139 82 53
-0.226562 0.761719 -0.018551 134 77 48
-0.222656 0.761719 -0.027390 120 69 44
-0.218750 0.761719 -0.037622 115 72 50
-0.214844 0.761719 -0.047815 138 92 69
-0.210938 0.761719 -0.056428 135 88 67
-0.207031 0.761719 -0.062899 128 81 62
-0.203125 0.761719 -0.068373 113 68 51
-0.199219 0.761719 -0.072688 85 49 36
-0.195312 0.761719 -0.076494 69 40 28
-0.191406 0.761719 -0.080052 60 35 24
-0.187500 0.761719 -0.083708 49 31 21
-0.183594 0.761719 -0.086398 31 21 14
-0.179688 0.761719 -0.089144 21 14 11
-0.175781 0.761719 -0.091128 22 15 11
-0.171875 0.761719 -0.091600 52 32 24
-0.167969 0.761719 -0.092467 40 25 19
-0.164062 0.761719 -0.094000 46 29 23
-0.160156 0.761719 -0.095404 51 33 26
-0.156250 0.761719 -0.095965 53 35 28
-0.152344 0.761719 -0.095775 55 36 29
-0.148438 0.761719 -0.095062 56 37 30
-0.144531 0.761719 -0.094545 57 37 30
-0.140625 0.761719 -0.094110 58 38 30
-0.136719 0.761719 -0.094055 59 37 30
-0.132812 0.761719 -0.094757 61 38 32
-0.128906 0.761719 -0.095738 62 39 31
-0.125000 0.761719 -0.097076 63 37 31
-0.121094 0.761719 -0.099575 64 39 30
-0.117188 0.761719 -0.102816 64 37 32
-0.113281 0.761719 -0.105841 64 38 30
-0.109375 0.761719 -0.108671 65 37 32
-0.105469 0.761719 -0.111182 64 38 30
-0.101562 0.761719 -0.113453 65 37 31
-0.097656 0.761719 -0.115770 64 37 30
-0.093750 0.761719 -0.117915 66 36 32
-0.089844 0.761719 -0.120075 64 38 30
-0.085938 0.761719 -0.121845 67 37 31
-0.082031 0.761719 -0.123450 68 41 34
-0.078125 0.761719 -0.124731 71 44 34
-0.074219 0.761719 -0.125501 74 47 34
-0.070312 0.761719 -0.125818 76 50 37
-0.066406 0.761719 -0.125805 77 49 35
-0.062500 0.761719 -0.125809 76 50 37
-0.058594 0.761719 -0.125063 77 49 35
-0.054688 0.761719 -0.124155 77 51 37
-0.050781 0.761719 -0.122905 77 49 35
-0.046875 0.761719 -0.121548 77 49 36
-0.042969 0.761719 -0.120312 78 50 36
-0.039062 0.761719 -0.119251 77 49 36
-0.035156 0.761719 -0.118460 78 50 36
-0.031250 0.761719 -0.117613 77 49 36
-0.027344 0.761719 -0.116821 78 49 36
-0.023438 0.761719 -0.116131 78 50 36
-0.019531 0.761719 -0.115436 78 49 36
-0.015625 0.761719 -0.115060 79 50 37
-0.011719 0.761719 -0.114966 80 51 38
-0.007812 0.761719 -0.114733 81 52 38
-0.003906 0.761719 -0.114016 84 54 40
0.000000 0.761719 -0.114096 104 68 51
0.003906 0.761719 -0.113646 45 30 21
0.007812 0.761719 -0.113042 25 16 12
0.011719 0.761719 -0.112332 17 10 10
0.015625 0.761719 -0.110546 56 42 34
0.019531 0.761719 -0.108548 129 111 92
0.023438 0.761719 -0.106138 54 41 35
0.027344 0.761719 -0.103033 38 26 19
0.031250 0.761719 -0.100339 57 37 24
0.035156 0.761719 -0.097628 47 28 17
0.039062 0.761719 -0.094505 54 31 18
0.042969 0.761719 -0.091943 57 32 19
0.046875 0.761719 -0.089068 67 37 22
0.050781 0.761719 -0.085253 94 54 31
0.054688 0.761719 -0.080497 109 61 34
0.058594 0.761719 -0.075858 134 76 45
0.062500 0.761719 -0.070449 150 91 61
0.066406 0.761719 -0.065805 153 99 72
0.070312 0.761719 -0.059583 148 103 76
0.074219 0.761719 -0.052482 125 95 86
0.078125 0.761719 -0.029584 153 99 72
-0.250000 0.757812 0.023102 182 144 116
-0.246094 0.757812 0.015308 169 120 90
-0.242188 0.757812 0.007372 145 91 65
-0.238281 0.757812 0.001471 140 86 60
-0.234375 0.757812 -0.005015 159 102 72
-0.230469 0.757812 -0.010815 142 87 58
-0.226562 0.757812 -0.016730 145 89 57
-0.222656 0.757812 -0.024547 140 86 57
-0.218750 0.757812 -0.035554 134 85 59
-0.214844 0.757812 -0.046368 144 94 69
-0.210938 0.757812 -0.055575 132 82 61
-0.207031 0.757812 -0.062276 121 72 54
-0.203125 0.757812 -0.067911 105 60 44
-0.199219 0.757812 -0.072302 85 48 34
-0.195312 0.757812 -0.076232 69 39 27
-0.191406 0.757812 -0.079948 57 32 22
-0.187500 0.757812 -0.083696 48 28 18
-0.183594 0.757812 -0.086535 35 23 15
-0.179688 0.757812 -0.089234 30 21 14
-0.175781 0.757812 -0.091411 25 18 12
-0.171875 0.757812 -0.092799 36 24 18
-0.167969 0.757812 -0.092489 45 29 22
-0.164062 0.757812 -0.094055 53 34 27
-0.160156 0.757812 -0.094960 56 36 29
-0.156250 0.757812 -0.096225 57 37 30
-0.152344 0.757812 -0.096280 57 37 30
-0.148438 0.757812 -0.095562 57 37 30
-0.144531 0.757812 -0.094875 59 38 30
-0.140625 0.757812 -0.094061 59 37 32
-0.136719 0.757812 -0.093561 61 40 31
-0.132812 0.757812 -0.094001 62 38 31
-0.128906 0.757812 -0.094765 63 38 31
-0.125000 0.757812 -0.096109 64 38 33
-0.121094 0.757812 -0.098797 64 38 31
-0.117188 0.757812 -0.102141 65 37 31
-0.113281 0.757812 -0.105271 65 38 31
-0.109375 0.757812 -0.108312 64 37 31
-0.105469 0.757812 -0.111000 66 37 31
-0.101562 0.757812 -0.113372 64 37 31
-0.097656 0.757812 -0.115795 66 38 31
-0.093750 0.757812 -0.118066 64 37 30
-0.089844 0.757812 -0.120246 66 36 30
-0.085938 0.757812 -0.122022 65 39 32
-0.082031 0.757812 -0.123688 68 38 30
-0.078125 0.757812 -0.124986 71 43 33
-0.074219 0.757812 -0.125702 73 47 35
-0.070312 0.757812 -0.125912 76 48 35
-0.066406 0.757812 -0.125793 76 49 35
-0.062500 0.757812 -0.125746 77 48 36
-0.058594 0.757812 -0.125031 76 49 35
-0.054688 0.757812 -0.123981 77 48 35
-0.050781 0.757812 -0.122495 77 50 37
-0.046875 0.757812 -0.120963 77 48 36
-0.042969 0.757812 -0.119596 77 50 35
-0.039062 0.757812 -0.118535 77 48 36
-0.035156 0.757812 -0.117678 77 49 36
-0.031250 0.757812 -0.116787 78 50 37
-0.027344 0.757812 -0.116070 77 49 36
-0.023438 0.757812 -0.115486 78 49 36
-0.019531 0.757812 -0.115092 77 49 35
-0.015625 0.757812 -0.114841 77 49 35
-0.011719 0.757812 -0.114637 76 48 35
-0.007812 0.757812 -0.114502 75 47 34
-0.003906 0.757812 -0.113857 72 46 33
0.000000 0.757812 -0.114169 81 52 38
0.003906 0.757812 -0.113705 55 37 25
0.007812 0.757812 -0.112878 26 17 13
0.011719 0.757812 -0.112077 14 9 8
0.015625 0.757812 -0.110321 47 35 28
0.019531 0.757812 -0.108172 112 94 75
0.023438 0.757812 -0.105817 50 37 31
0.027344 0.757812 -0.102809 35 23 16
0.031250 0.757812 -0.100137 47 30 19
0.035156 0.757812 -0.097511 45 27 16
0.039062 0.757812 -0.094507 53 30 17
0.042969 0.757812 -0.092007 52 29 17
0.046875 0.757812 -0.089203 60 33 19
0.050781 0.757812 -0.085502 85 49 28
0.054688 0.757812 -0.080852 101 56 31
0.058594 0.757812 -0.076361 125 69 39
0.062500 0.757812 -0.070813 144 84 53
0.066406 0.757812 -0.066298 146 90 63
0.070312 0.757812 -0.060153 126 82 60
0.074219 0.757812 -0.053659 181 151 130
-0.250000 0.753906 0.023303 193 158 134
-0.246094 0.753906 0.015926 168 119 92
-0.242188 0.753906 0.008299 151 97 70
-0.238281 0.753906 0.002473 162 107 76
-0.234375 0.753906 -0.003769 163 109 77
-0.230469 0.753906 -0.009364 146 93 63
-0.226562 0.753906 -0.015246 159 106 70
-0.222656 0.753906 -0.022063 158 106 72
-0.218750 0.753906 -0.032963 141 90 64
-0.214844 0.753906 -0.044632 134 84 61
-0.210938 0.753906 -0.054603 120 72 52
-0.207031 0.753906 -0.061596 110 64 46
-0.203125 0.753906 -0.067388 93 51 37
-0.199219 0.753906 -0.071902 75 40 28
-0.195312 0.753906 -0.076019 60 32 22
-0.191406 0.753906 -0.079954 46 25 17
-0.187500 0.753906 -0.083867 37 21 14
-0.183594 0.753906 -0.086853 33 21 14
-0.179688 0.753906 -0.089249 35 23 15
-0.175781 0.753906 -0.091516 29 20 13
-0.171875 0.753906 -0.093689 33 23 18
-0.167969 0.753906 -0.093208 84 53 43
-0.164062 0.753906 -0.093806 58 37 30
-0.160156 0.753906 -0.095263 59 38 31
-0.156250 0.753906 -0.096722 60 40 32
-0.152344 0.753906 -0.096896 60 40 32
-0.148438 0.753906 -0.095924 59 39 31
-0.144531 0.753906 -0.095050 59 39 32
-0.140625 0.753906 -0.093695 60 39 31
-0.136719 0.753906 -0.092559 62 38 31
-0.132812 0.753906 -0.092579 63 39 33
-0.128906 0.753906 -0.093285 64 38 31
-0.125000 0.753906 -0.094965 65 38 31
-0.121094 0.753906 -0.097824 65 38 31
-0.117188 0.753906 -0.101176 64 38 31
-0.113281 0.753906 -0.104602 64 37 31
-0.109375 0.753906 -0.107862 65 37 31
-0.105469 0.753906 -0.110678 64 37 30
-0.101562 0.753906 -0.113150 65 37 30
-0.097656 0.753906 -0.115526 64 36 30
-0.093750 0.753906 -0.117746 66 38 30
-0.089844 0.753906 -0.119809 64 37 32
-0.085938 0.753906 -0.121573 65 37 30
-0.082031 0.753906 -0.123369 65 38 31
-0.078125 0.753906 -0.124787 71 44 34
-0.074219 0.753906 -0.125615 72 44 33
-0.070312 0.753906 -0.125919 76 48 36
-0.066406 0.753906 -0.125795 75 49 34
-0.062500 0.753906 -0.125611 76 48 35
-0.058594 0.753906 -0.124904 76 49 35
-0.054688 0.753906 -0.123740 76 48 35
-0.050781 0.753906 -0.121976 76 49 34
-0.046875 0.753906 -0.120139 76 48 35
-0.042969 0.753906 -0.118677 77 50 35
-0.039062 0.753906 -0.117710 77 48 35
-0.035156 0.753906 -0.116805 77 50 34
-0.031250 0.753906 -0.115864 77 48 34
-0.027344 0.753906 -0.115376 77 50 34
-0.023438 0.753906 -0.115055 77 49 35
-0.019531 0.753906 -0.114975 77 49 35
-0.015625 0.753906 -0.114827 77 48 34
-0.011719 0.753906 -0.114712 75 47 33
-0.007812 0.753906 -0.114091 72 44 31
-0.003906 0.753906 -0.113680 67 41 30
0.000000 0.753906 -0.114080 53 32 23
0.003906 0.753906 -0.113755 54 35 24
0.007812 0.753906 -0.112823 28 18 14
0.011719 0.753906 -0.111898 14 9 8
0.015625 0.753906 -0.110158 54 42 34
0.019531 0.753906 -0.107871 109 90 70
0.023438 0.753906 -0.105510 49 35 27
0.027344 0.753906 -0.102589 34 22 15
0.031250 0.753906 -0.099917 40 25 16
0.035156 0.753906 -0.097337 41 25 15
0.039062 0.753906 -0.094422 48 29 16
0.042969 0.753906 -0.091960 45 26 15
0.046875 0.753906 -0.089250 53 30 18
0.050781 0.753906 -0.085672 77 43 25
0.054688 0.753906 -0.081030 95 52 28
0.058594 0.753906 -0.076691 115 62 35
0.062500 0.753906 -0.071101 136 77 47
0.066406 0.753906 -0.066504 136 82 55
0.070312 0.753906 -0.060452 108 74 53
0.074219 0.753906 -0.053600 172 150 129
-0.250000 0.750000 0.024183 206 173 148
-0.246094 0.750000 0.015504 180 130 103
-0.242188 0.750000 0.008919 163 110 79
-0.238281 0.750000 0.003225 180 128 93
-0.234375 0.750000 -0.002907 167 115 82
-0.230469 0.750000 -0.008362 153 101 71
-0.226562 0.750000 -0.014112 172 122 85
-0.222656 0.750000 -0.020794 163 114 79
-0.218750 0.750000 -0.030360 133 84 59
-0.214844 0.750000 -0.042856 125 76 54
-0.210938 0.750000 -0.053457 118 71 50
-0.207031 0.750000 -0.060892 114 67 48
-0.203125 0.750000 -0.066916 96 53 38
-0.199219 0.750000 -0.071623 75 40 27
-0.195312 0.750000 -0.075824 61 33 22
-0.191406 0.750000 -0.079830 48 26 18
-0.187500 0.750000 -0.083767 41 24 17
-0.183594 0.750000 -0.086935 43 27 18
-0.179688 0.750000 -0.089577 45 29 19
-0.175781 0.750000 -0.091710 31 20 14
-0.171875 0.750000 -0.093603 34 22 18
-0.167969 0.750000 -0.094820 61 42 38
-0.164062 0.750000 -0.093744 60 40 33
-0.160156 0.750000 -0.095850 63 41 33
-0.156250 0.750000 -0.095703 60 40 32
-0.152344 0.750000 -0.096805 59 39 32
-0.148438 0.750000 -0.096018 58 39 31
-0.144531 0.750000 -0.094596 60 38 31
-0.140625 0.750000 -0.093261 62 39 31
-0.136719 0.750000 -0.091965 63 38 32
-0.132812 0.750000 -0.091572 64 38 31
-0.128906 0.750000 -0.092118 65 38 32
-0.125000 0.750000 -0.093799 65 38 31
-0.121094 0.750000 -0.096822 64 37 31
-0.117188 0.750000 -0.100366 66 37 31
-0.113281 0.750000 -0.103913 65 37 30
-0.109375 0.750000 -0.107231 65 37 30
-0.105469 0.750000 -0.110149 65 36 31
-0.101562 0.750000 -0.112792 64 36 30
-0.097656 0.750000 -0.115314 65 37 31
-0.093750 0.750000 -0.117581 64 36 30
-0.089844 0.750000 -0.119653 66 38 29
-0.085938 0.750000 -0.121406 65 37 32
-0.082031 0.750000 -0.122992 66 39 30
-0.078125 0.750000 -0.124355 68 41 32
-0.074219 0.750000 -0.125220 70 43 32
-0.070312 0.750000 -0.125505 74 47 35
-0.066406 0.750000 -0.125427 75 48 34
-0.062500 0.750000 -0.125205 75 48 35
-0.058594 0.750000 -0.124315 76 49 34
-0.054688 0.750000 -0.122932 75 48 35
-0.050781 0.750000 -0.120863 76 49 34
-0.046875 0.750000 -0.118787 76 48 36
-0.042969 0.750000 -0.117318 76 49 34
-0.039062 0.750000 -0.116535 77 49 36
-0.035156 0.750000 -0.115862 77 48 35
-0.031250 0.750000 -0.115180 77 50 37
-0.027344 0.750000 -0.114986 78 48 35
-0.023438 0.750000 -0.114787 77 49 35
-0.019531 0.750000 -0.114824 78 49 35
-0.015625 0.750000 -0.114855 78 49 35
-0.011719 0.750000 -0.114755 76 47 33
-0.007812 0.750000 -0.114158 75 45 32
-0.003906 0.750000 -0.113817 95 54 38
0.000000 0.750000 -0.114224 38 23 17
0.003906 0.750000 -0.113932 54 34 23
0.007812 0.750000 -0.112873 31 19 14
0.011719 0.750000 -0.111813 18 12 11
0.015625 0.750000 -0.110029 71 56 44
0.019531 0.750000 -0.107639 90 74 55
0.023438 0.750000 -0.105189 35 25 17
0.027344 0.750000 -0.102312 34 22 14
0.031250 0.750000 -0.099710 42 27 16
0.035156 0.750000 -0.097173 43 27 16
0.039062 0.750000 -0.094287 50 30 17
0.042969 0.750000 -0.091839 47 28 16
0.046875 0.750000 -0.089160 52 30 18
0.050781 0.750000 -0.085614 69 39 22
0.054688 0.750000 -0.080967 86 47 25
0.058594 0.750000 -0.076601 103 56 31
0.062500 0.750000 -0.070871 124 69 41
0.066406 0.750000 -0.066367 130 75 50
0.070312 0.750000 -0.060057 121 82 59
0.074219 0.750000 -0.052739 156 135 115
-0.253906 0.746094 0.035115 161 143 133
-0.250000 0.746094 0.022864 207 173 153
-0.246094 0.746094 0.015417 187 140 114
-0.242188 0.746094 0.009270 165 113 84
-0.238281 0.746094 0.003831 180 131 95
-0.234375 0.746094 -0.002200 165 116 84
-0.230469 0.746094 -0.007589 160 112 80
-0.226562 0.746094 -0.013236 184 137 100
-0.222656 0.746094 -0.019837 171 121 87
-0.218750 0.746094 -0.027519 136 85 60
-0.214844 0.746094 -0.040834 132 81 57
-0.210938 0.746094 -0.052284 128 79 55
-0.207031 0.746094 -0.060225 123 76 53
-0.203125 0.746094 -0.066509 103 58 42
-0.199219 0.746094 -0.071484 70 37 26
-0.195312 0.746094 -0.075751 53 29 20
-0.191406 0.746094 -0.079803 49 29 21
-0.187500 0.746094 -0.083860 52 32 22
-0.183594 0.746094 -0.087136 50 33 22
-0.179688 0.746094 -0.089630 38 25 17
-0.175781 0.746094 -0.091840 24 15 12
-0.171875 0.746094 -0.093987 36 23 19
-0.167969 0.746094 -0.095375 61 44 36
-0.164062 0.746094 -0.094659 87 58 45
-0.160156 0.746094 -0.094840 67 44 35
-0.156250 0.746094 -0.096819 57 39 31
-0.152344 0.746094 -0.097288 57 38 31
-0.148438 0.746094 -0.098582 58 39 32
-0.144531 0.746094 -0.096816 60 37 31
-0.140625 0.746094 -0.094192 63 39 32
-0.136719 0.746094 -0.092077 65 38 31
-0.132812 0.746094 -0.090589 66 38 31
-0.128906 0.746094 -0.090389 66 38 31
-0.125000 0.746094 -0.091724 65 37 31
-0.121094 0.746094 -0.095023 66 37 30
-0.117188 0.746094 -0.099204 65 37 30
-0.113281 0.746094 -0.103060 65 36 30
-0.109375 0.746094 -0.106519 65 36 30
-0.105469 0.746094 -0.109530 64 37 29
-0.101562 0.746094 -0.112286 65 37 30
-0.097656 0.746094 -0.115005 64 36 29
-0.093750 0.746094 -0.117432 65 37 31
-0.089844 0.746094 -0.119602 64 37 30
-0.085938 0.746094 -0.121392 66 38 31
-0.082031 0.746094 -0.122896 66 38 31
-0.078125 0.746094 -0.124285 69 42 32
-0.074219 0.746094 -0.125178 69 42 32
-0.070312 0.746094 -0.125402 72 46 34
-0.066406 0.746094 -0.125362 73 47 33
-0.062500 0.746094 -0.125192 74 47 34
-0.058594 0.746094 -0.123955 74 47 33
-0.054688 0.746094 -0.121896 74 47 34
-0.050781 0.746094 -0.119409 75 48 34
-0.046875 0.746094 -0.117181 75 48 34
-0.042969 0.746094 -0.115887 75 48 34
-0.039062 0.746094 -0.115352 76 48 34
-0.035156 0.746094 -0.115030 76 49 34
-0.031250 0.746094 -0.114802 76 48 34
-0.027344 0.746094 -0.114638 77 49 35
-0.023438 0.746094 -0.114506 77 49 34
-0.019531 0.746094 -0.114616 78 49 34
-0.015625 0.746094 -0.114505 79 50 35
-0.011719 0.746094 -0.114569 79 49 34
-0.007812 0.746094 -0.113780 77 48 33
-0.003906 0.746094 -0.114045 87 54 37
0.000000 0.746094 -0.114176 32 20 14
0.003906 0.746094 -0.113978 48 30 20
0.007812 0.746094 -0.112772 36 25 18
0.011719 0.746094 -0.111562 29 23 19
0.015625 0.746094 -0.109728 76 59 48
0.019531 0.746094 -0.107334 50 36 29
0.023438 0.746094 -0.104913 21 14 10
0.027344 0.746094 -0.102108 35 23 14
0.031250 0.746094 -0.099496 43 28 17
0.035156 0.746094 -0.096939 44 28 16
0.039062 0.746094 -0.094075 49 30 17
0.042969 0.746094 -0.091595 47 29 16
0.046875 0.746094 -0.088875 51 29 17
0.050781 0.746094 -0.085331 61 33 18
0.054688 0.746094 -0.080752 77 41 22
0.058594 0.746094 -0.076371 95 51 28
0.062500 0.746094 -0.070501 118 65 38
0.066406 0.746094 -0.065940 124 70 45
0.070312 0.746094 -0.059668 135 87 61
0.074219 0.746094 -0.052729 129 97 79
-0.253906 0.742188 0.035154 186 176 159
-0.250000 0.742188 0.023217 201 170 149
-0.246094 0.742188 0.016434 194 149 124
-0.242188 0.742188 0.009940 169 118 88
-0.238281 0.742188 0.004098 179 130 96
-0.234375 0.742188 -0.001672 171 126 93
-0.230469 0.742188 -0.006988 172 127 94
-0.226562 0.742188 -0.012548 196 152 115
-0.222656 0.742188 -0.019070 184 135 100
-0.218750 0.742188 -0.026047 142 90 64
-0.214844 0.742188 -0.039028 135 83 59
-0.210938 0.742188 -0.051214 130 81 57
-0.207031 0.742188 -0.059667 123 77 53
-0.203125 0.742188 -0.066215 96 54 38
-0.199219 0.742188 -0.071397 56 29 21
-0.195312 0.742188 -0.075733 50 29 20
-0.191406 0.742188 -0.079834 71 45 31
-0.187500 0.742188 -0.083839 79 53 37
-0.183594 0.742188 -0.087176 51 35 24
-0.179688 0.742188 -0.089781 28 18 13
-0.175781 0.742188 -0.091914 21 13 10
-0.171875 0.742188 -0.093961 37 25 20
-0.167969 0.742188 -0.095321 60 46 34
-0.164062 0.742188 -0.095815 48 31 26
-0.160156 0.742188 -0.095990 50 35 28
-0.156250 0.742188 -0.096800 49 35 27
-0.152344 0.742188 -0.097319 53 35 29
-0.148438 0.742188 -0.096738 58 37 31
-0.144531 0.742188 -0.095529 62 38 31
-0.140625 0.742188 -0.092330 65 38 31
-0.136719 0.742188 -0.088839 66 38 33
-0.132812 0.742188 -0.087336 66 38 31
-0.128906 0.742188 -0.088169 65 37 31
-0.125000 0.742188 -0.089870 66 37 31
-0.121094 0.742188 -0.093558 65 36 30
-0.117188 0.742188 -0.098092 65 36 30
-0.113281 0.742188 -0.102223 64 36 29
-0.109375 0.742188 -0.105785 64 36 30
-0.105469 0.742188 -0.108922 64 35 29
-0.101562 0.742188 -0.111837 63 35 30
-0.097656 0.742188 -0.114661 64 37 29
-0.093750 0.742188 -0.117169 64 37 29
-0.089844 0.742188 -0.119232 65 37 30
-0.085938 0.742188 -0.120951 65 38 30
-0.082031 0.742188 -0.122526 66 39 31
-0.078125 0.742188 -0.123788 67 40 31
-0.074219 0.742188 -0.124571 71 44 33
-0.070312 0.742188 -0.124698 70 44 34
-0.066406 0.742188 -0.124229 72 46 32
-0.062500 0.742188 -0.123517 72 47 34
-0.058594 0.742188 -0.121685 72 46 32
-0.054688 0.742188 -0.119080 72 47 33
-0.050781 0.742188 -0.116698 73 46 32
-0.046875 0.742188 -0.114996 73 47 33
-0.042969 0.742188 -0.114408 73 47 33
-0.039062 0.742188 -0.114321 74 47 33
-0.035156 0.742188 -0.114444 74 48 34
-0.031250 0.742188 -0.114398 75 48 33
-0.027344 0.742188 -0.114196 75 49 34
-0.023438 0.742188 -0.114131 76 49 34
-0.019531 0.742188 -0.114262 77 50 35
-0.015625 0.742188 -0.114769 79 51 35
-0.011719 0.742188 -0.114068 80 52 36
-0.007812 0.742188 -0.113764 81 54 37
-0.003906 0.742188 -0.113872 101 70 47
0.000000 0.742188 -0.113928 23 15 11
0.003906 0.742188 -0.113770 33 20 14
0.007812 0.742188 -0.112539 52 35 25
0.011719 0.742188 -0.111122 61 49 35
0.015625 0.742188 -0.109227 75 57 41
0.019531 0.742188 -0.106857 32 20 16
0.023438 0.742188 -0.104446 22 14 10
0.027344 0.742188 -0.101684 43 29 17
0.031250 0.742188 -0.099103 44 29 17
0.035156 0.742188 -0.096603 41 25 15
0.039062 0.742188 -0.093768 45 27 15
0.042969 0.742188 -0.091250 46 27 15
0.046875 0.742188 -0.088488 50 29 16
0.050781 0.742188 -0.084915 57 30 16
0.054688 0.742188 -0.080318 71 37 20
0.058594 0.742188 -0.075915 90 48 26
0.062500 0.742188 -0.070035 112 62 36
0.066406 0.742188 -0.065251 110 60 37
0.070312 0.742188 -0.058986 133 84 53
0.074219 0.742188 -0.052711 149 107 75
-0.253906 0.738281 0.031181 178 161 141
-0.250000 0.738281 0.022848 201 168 143
-0.246094 0.738281 0.017098 201 159 130
-0.242188 0.738281 0.010105 177 130 97
-0.238281 0.738281 0.004328 183 139 103
-0.234375 0.738281 -0.001385 182 142 108
-0.230469 0.738281 -0.006683 184 145 111
-0.226562 0.738281 -0.012206 202 163 125
-0.222656 0.738281 -0.018576 188 140 104
-0.218750 0.738281 -0.025348 141 89 63
-0.214844 0.738281 -0.037355 132 82 59
-0.210938 0.738281 -0.050233 126 78 56
-0.207031 0.738281 -0.059339 113 69 47
-0.203125 0.738281 -0.066301 81 44 30
-0.199219 0.738281 -0.071654 49 26 18
-0.195312 0.738281 -0.075975 61 37 25
-0.191406 0.738281 -0.080055 91 63 42
-0.187500 0.738281 -0.084018 78 52 36
-0.183594 0.738281 -0.087297 40 26 19
-0.179688 0.738281 -0.090036 25 16 12
-0.175781 0.738281 -0.092001 22 14 11
-0.171875 0.738281 -0.093462 31 24 18
-0.167969 0.738281 -0.095259 51 41 30
-0.164062 0.738281 -0.096672 34 23 21
-0.160156 0.738281 -0.097287 34 21 22
-0.156250 0.738281 -0.096270 48 33 27
-0.152344 0.738281 -0.096145 55 35 29
-0.148438 0.738281 -0.095718 62 37 31
-0.144531 0.738281 -0.094765 66 39 32
-0.140625 0.738281 -0.093971 67 38 31
-0.136719 0.738281 -0.087502 67 37 31
-0.132812 0.738281 -0.083677 67 37 31
-0.128906 0.738281 -0.086056 66 37 30
-0.125000 0.738281 -0.088562 66 36 30
-0.121094 0.738281 -0.092619 65 36 29
-0.117188 0.738281 -0.096484 64 35 29
-0.113281 0.738281 -0.100967 64 36 29
-0.109375 0.738281 -0.104769 63 34 29
-0.105469 0.738281 -0.107941 65 37 28
-0.101562 0.738281 -0.110931 63 36 30
-0.097656 0.738281 -0.113751 65 36 29
-0.093750 0.738281 -0.116355 64 37 31
-0.089844 0.738281 -0.118437 65 38 30
-0.085938 0.738281 -0.120183 66 39 31
-0.082031 0.738281 -0.121753 66 39 31
-0.078125 0.738281 -0.122859 67 40 32
-0.074219 0.738281 -0.123524 70 44 33
-0.070312 0.738281 -0.123433 69 43 32
-0.066406 0.738281 -0.122267 69 44 31
-0.062500 0.738281 -0.120612 69 45 32
-0.058594 0.738281 -0.118328 69 44 31
-0.054688 0.738281 -0.115730 70 45 32
-0.050781 0.738281 -0.114100 70 45 31
-0.046875 0.738281 -0.113483 70 45 32
-0.042969 0.738281 -0.113567 70 45 32
-0.039062 0.738281 -0.113916 71 45 32
-0.035156 0.738281 -0.114041 71 46 32
-0.031250 0.738281 -0.114052 71 46 32
-0.027344 0.738281 -0.113877 72 46 32
-0.023438 0.738281 -0.113727 72 47 33
-0.019531 0.738281 -0.114163 73 48 33
-0.015625 0.738281 -0.113992 74 48 34
-0.011719 0.738281 -0.113670 75 49 34
-0.007812 0.738281 -0.113699 82 54 38
-0.003906 0.738281 -0.113620 116 77 55
0.000000 0.738281 -0.113675 22 13 11
0.003906 0.738281 -0.113407 23 13 10
0.007812 0.738281 -0.112160 42 27 19
0.011719 0.738281 -0.110626 47 34 22
0.015625 0.738281 -0.108707 44 31 19
0.019531 0.738281 -0.106326 22 15 10
0.023438 0.738281 -0.103921 24 16 10
0.027344 0.738281 -0.101278 44 29 17
0.031250 0.738281 -0.098723 43 27 16
0.035156 0.738281 -0.096223 42 25 15
0.039062 0.738281 -0.093389 43 25 14
0.042969 0.738281 -0.090781 46 27 14
0.046875 0.738281 -0.087956 53 30 16
0.050781 0.738281 -0.084333 58 30 16
0.054688 0.738281 -0.079827 69 35 19
0.058594 0.738281 -0.075275 90 49 26
0.062500 0.738281 -0.069189 117 66 36
0.066406 0.738281 -0.064323 103 54 32
0.070312 0.738281 -0.057780 119 70 42
0.074219 0.738281 -0.050366 161 114 76
-0.257812 0.734375 0.046030 201 161 129
-0.253906 0.734375 0.031770 182 157 135
-0.250000 0.734375 0.023324 205 171 143
-0.246094 0.734375 0.016979 201 161 129
-0.242188 0.734375 0.010570 184 139 106
-0.238281 0.734375 0.004840 180 135 100
-0.234375 0.734375 -0.000877 178 137 103
-0.230469 0.734375 -0.006121 191 152 118
-0.226562 0.734375 -0.011611 201 162 124
-0.222656 0.734375 -0.017935 175 125 90
-0.218750 0.734375 -0.024731 136 84 59
-0.214844 0.734375 -0.036219 133 81 58
-0.210938 0.734375 -0.049771 119 71 49
-0.207031 0.734375 -0.059385 96 56 36
-0.203125 0.734375 -0.066624 62 33 21
-0.199219 0.734375 -0.072131 48 25 17
-0.195312 0.734375 -0.076459 72 46 31
-0.191406 0.734375 -0.080421 77 54 36
-0.187500 0.734375 -0.084229 50 31 22
-0.183594 0.734375 -0.087320 32 19 14
-0.179688 0.734375 -0.089961 28 18 13
-0.175781 0.734375 -0.091962 28 19 14
-0.171875 0.734375 -0.093869 30 23 17
-0.167969 0.734375 -0.095271 46 35 26
-0.164062 0.734375 -0.096570 49 37 29
-0.160156 0.734375 -0.097249 34 28 24
-0.156250 0.734375 -0.097505 69 47 38
-0.152344 0.734375 -0.097580 63 38 31
-0.148438 0.734375 -0.096047 66 38 31
-0.144531 0.734375 -0.095924 68 38 32
-0.140625 0.734375 -0.094605 70 40 33
-0.136719 0.734375 -0.086610 68 38 31
-0.132812 0.734375 -0.076968 67 37 30
-0.128906 0.734375 -0.077923 66 36 30
-0.125000 0.734375 -0.084707 65 35 29
-0.121094 0.734375 -0.090002 64 35 29
-0.117188 0.734375 -0.094816 63 35 29
-0.113281 0.734375 -0.099770 63 34 29
-0.109375 0.734375 -0.103481 63 35 28
