ply
    format ascii 1.0
    element vertex 94518
    property float x
    property float y
    property float z
    property uchar red
    property uchar green
    property uchar blue
    end_header
0.187500 -0.332031 -0.042185 28 45 65
0.191406 -0.332031 -0.041938 29 47 67
0.195312 -0.332031 -0.041351 33 53 72
0.199219 -0.332031 -0.040700 38 61 80
0.203125 -0.332031 -0.039838 39 64 83
0.207031 -0.332031 -0.038793 34 58 76
0.210938 -0.332031 -0.037439 32 55 73
0.214844 -0.332031 -0.036006 32 54 73
0.218750 -0.332031 -0.034599 29 49 68
0.222656 -0.332031 -0.032554 28 47 67
0.226562 -0.332031 -0.029991 28 47 67
0.230469 -0.332031 -0.027524 27 46 66
0.234375 -0.332031 -0.024898 28 48 69
0.238281 -0.332031 -0.021707 29 49 70
0.242188 -0.332031 -0.017899 30 49 69
0.246094 -0.332031 -0.013736 34 52 74
0.250000 -0.332031 -0.008757 35 52 76
0.253906 -0.332031 -0.003194 30 42 66
0.257812 -0.332031 0.002960 17 23 40
0.261719 -0.332031 0.013263 21 22 40
0.265625 -0.332031 0.010491 25 29 43
-0.128906 -0.335938 -0.039194 41 59 80
-0.125000 -0.335938 -0.050267 34 58 85
-0.121094 -0.335938 -0.058632 30 59 88
-0.117188 -0.335938 -0.065825 35 65 91
-0.113281 -0.335938 -0.071865 30 58 81
-0.109375 -0.335938 -0.077196 30 58 82
-0.105469 -0.335938 -0.081772 26 52 76
-0.101562 -0.335938 -0.086113 26 50 73
-0.097656 -0.335938 -0.090016 28 52 74
-0.093750 -0.335938 -0.093559 30 53 72
-0.089844 -0.335938 -0.096669 35 60 76
-0.085938 -0.335938 -0.099274 38 63 78
-0.082031 -0.335938 -0.101682 36 60 75
-0.078125 -0.335938 -0.103778 35 59 74
-0.074219 -0.335938 -0.105281 35 58 73
-0.070312 -0.335938 -0.106173 37 61 76
-0.066406 -0.335938 -0.106935 38 63 79
-0.062500 -0.335938 -0.107545 36 61 76
-0.058594 -0.335938 -0.107701 33 56 71
-0.054688 -0.335938 -0.107403 32 54 69
-0.050781 -0.335938 -0.106883 33 56 70
-0.046875 -0.335938 -0.106056 34 58 73
-0.042969 -0.335938 -0.104733 33 57 73
-0.039062 -0.335938 -0.103063 31 54 70
-0.035156 -0.335938 -0.101110 30 53 70
-0.031250 -0.335938 -0.098922 28 51 67
-0.027344 -0.335938 -0.096266 27 49 64
-0.023438 -0.335938 -0.093137 28 52 67
-0.019531 -0.335938 -0.090004 30 54 69
-0.015625 -0.335938 -0.086773 28 52 65
-0.011719 -0.335938 -0.083330 26 49 62
-0.007812 -0.335938 -0.079521 26 49 62
-0.003906 -0.335938 -0.075956 25 48 60
0.000000 -0.335938 -0.072210 23 44 57
0.003906 -0.335938 -0.068338 22 43 57
0.007812 -0.335938 -0.063808 21 40 55
0.011719 -0.335938 -0.058462 19 36 51
0.015625 -0.335938 -0.051942 16 28 41
0.101562 -0.335938 0.024222 17 20 40
0.105469 -0.335938 0.014907 27 38 58
0.109375 -0.335938 0.009739 27 42 58
0.113281 -0.335938 0.003638 26 42 57
0.117188 -0.335938 -0.001365 26 43 57
0.121094 -0.335938 -0.005921 25 42 55
0.125000 -0.335938 -0.010419 27 46 60
0.128906 -0.335938 -0.014530 28 49 63
0.132812 -0.335938 -0.018213 28 50 65
0.136719 -0.335938 -0.021804 31 55 71
0.140625 -0.335938 -0.025160 32 56 72
0.144531 -0.335938 -0.028035 31 53 69
0.148438 -0.335938 -0.030478 34 56 72
0.152344 -0.335938 -0.032783 37 60 75
0.156250 -0.335938 -0.034868 37 61 75
0.160156 -0.335938 -0.036692 39 63 78
0.164062 -0.335938 -0.038320 40 64 80
0.167969 -0.335938 -0.039718 36 59 76
0.171875 -0.335938 -0.040904 31 52 71
0.175781 -0.335938 -0.041861 28 48 67
0.179688 -0.335938 -0.042559 28 47 67
0.183594 -0.335938 -0.043011 30 49 69
0.187500 -0.335938 -0.043168 32 52 73
0.191406 -0.335938 -0.043019 34 55 76
0.195312 -0.335938 -0.042550 38 61 81
0.199219 -0.335938 -0.041916 45 70 90
0.203125 -0.335938 -0.041080 45 72 91
0.207031 -0.335938 -0.040042 36 61 79
0.210938 -0.335938 -0.038729 31 52 71
0.214844 -0.335938 -0.037328 30 51 70
0.218750 -0.335938 -0.035910 28 47 67
0.222656 -0.335938 -0.033845 27 46 66
0.226562 -0.335938 -0.031289 27 47 67
0.230469 -0.335938 -0.028850 25 44 65
0.234375 -0.335938 -0.026254 26 47 68
0.238281 -0.335938 -0.023093 29 50 72
0.242188 -0.335938 -0.019390 30 50 71
0.246094 -0.335938 -0.015396 35 53 75
0.250000 -0.335938 -0.010630 34 49 72
0.253906 -0.335938 -0.005584 28 38 61
0.257812 -0.335938 0.001168 19 24 41
0.261719 -0.335938 0.009275 18 20 34
0.265625 -0.335938 0.016945 19 26 39
-0.128906 -0.339844 -0.041845 31 52 79
-0.125000 -0.339844 -0.052088 21 41 65
-0.121094 -0.339844 -0.059969 25 50 76
-0.117188 -0.339844 -0.066804 30 57 83
-0.113281 -0.339844 -0.072765 29 56 81
-0.109375 -0.339844 -0.078039 33 63 87
-0.105469 -0.339844 -0.082481 28 56 80
-0.101562 -0.339844 -0.086737 25 50 72
-0.097656 -0.339844 -0.090588 27 51 70
-0.093750 -0.339844 -0.094047 28 52 68
-0.089844 -0.339844 -0.097073 34 59 73
-0.085938 -0.339844 -0.099622 37 62 76
-0.082031 -0.339844 -0.101978 35 59 73
-0.078125 -0.339844 -0.104017 33 56 71
-0.074219 -0.339844 -0.105486 33 56 70
-0.070312 -0.339844 -0.106367 35 59 74
-0.066406 -0.339844 -0.107119 37 62 77
-0.062500 -0.339844 -0.107696 35 60 75
-0.058594 -0.339844 -0.107798 32 55 70
-0.054688 -0.339844 -0.107457 31 53 68
-0.050781 -0.339844 -0.106895 31 54 69
-0.046875 -0.339844 -0.106034 32 56 70
-0.042969 -0.339844 -0.104666 32 56 71
-0.039062 -0.339844 -0.102923 32 57 72
-0.035156 -0.339844 -0.100932 32 56 72
-0.031250 -0.339844 -0.098725 30 53 68
-0.027344 -0.339844 -0.096061 28 51 66
-0.023438 -0.339844 -0.092941 29 52 66
-0.019531 -0.339844 -0.089822 30 54 67
-0.015625 -0.339844 -0.086585 28 51 64
-0.011719 -0.339844 -0.083137 26 48 61
-0.007812 -0.339844 -0.079337 26 49 61
-0.003906 -0.339844 -0.075797 25 48 59
0.000000 -0.339844 -0.072054 23 45 57
0.003906 -0.339844 -0.068182 23 44 58
0.007812 -0.339844 -0.063649 21 40 56
0.011719 -0.339844 -0.058200 19 36 51
0.015625 -0.339844 -0.050771 14 24 35
0.101562 -0.339844 0.031111 13 14 34
0.105469 -0.339844 0.016620 19 26 42
0.109375 -0.339844 0.010331 23 35 49
0.113281 -0.339844 0.004400 29 45 61
0.117188 -0.339844 -0.000593 29 48 61
0.121094 -0.339844 -0.005252 26 45 57
0.125000 -0.339844 -0.009795 28 49 61
0.128906 -0.339844 -0.013907 28 51 64
0.132812 -0.339844 -0.017703 29 52 66
0.136719 -0.339844 -0.021404 31 56 70
0.140625 -0.339844 -0.024889 32 56 71
0.144531 -0.339844 -0.027871 31 54 69
0.148438 -0.339844 -0.030427 33 57 71
0.152344 -0.339844 -0.032823 36 60 74
0.156250 -0.339844 -0.034984 37 61 75
0.160156 -0.339844 -0.036911 39 63 76
0.164062 -0.339844 -0.038611 38 62 76
0.167969 -0.339844 -0.040097 34 56 72
0.171875 -0.339844 -0.041371 31 52 70
0.175781 -0.339844 -0.042405 31 52 70
0.179688 -0.339844 -0.043214 32 54 73
0.183594 -0.339844 -0.043773 35 57 77
0.187500 -0.339844 -0.044030 40 63 84
0.191406 -0.339844 -0.043973 45 69 90
0.195312 -0.339844 -0.043574 47 72 93
0.199219 -0.339844 -0.043047 47 72 92
0.203125 -0.339844 -0.042290 43 68 88
0.207031 -0.339844 -0.041249 35 58 78
0.210938 -0.339844 -0.039947 28 49 68
0.214844 -0.339844 -0.038554 29 49 69
0.218750 -0.339844 -0.037163 29 49 69
0.222656 -0.339844 -0.035141 29 49 70
0.226562 -0.339844 -0.032648 28 48 69
0.230469 -0.339844 -0.030255 25 44 66
0.234375 -0.339844 -0.027668 25 45 68
0.238281 -0.339844 -0.024572 27 47 71
0.242188 -0.339844 -0.020981 26 45 67
0.246094 -0.339844 -0.017124 28 46 68
0.250000 -0.339844 -0.012802 27 41 64
0.253906 -0.339844 -0.007951 25 36 57
0.257812 -0.339844 -0.001399 26 34 55
0.261719 -0.339844 0.005409 17 19 33
0.265625 -0.339844 0.015652 18 23 38
-0.132812 -0.343750 -0.022697 21 43 71
-0.128906 -0.343750 -0.044061 48 91 131
-0.125000 -0.343750 -0.053048 12 27 51
-0.121094 -0.343750 -0.060818 21 43 71
-0.117188 -0.343750 -0.067472 29 54 81
-0.113281 -0.343750 -0.073548 24 47 71
-0.109375 -0.343750 -0.078727 28 54 78
-0.105469 -0.343750 -0.083080 28 55 79
-0.101562 -0.343750 -0.087313 26 50 72
-0.097656 -0.343750 -0.091086 26 49 69
-0.093750 -0.343750 -0.094471 27 50 66
-0.089844 -0.343750 -0.097410 33 58 71
-0.085938 -0.343750 -0.099867 37 63 76
-0.082031 -0.343750 -0.102143 36 61 75
-0.078125 -0.343750 -0.104108 35 59 73
-0.074219 -0.343750 -0.105509 34 57 72
-0.070312 -0.343750 -0.106363 34 58 73
-0.066406 -0.343750 -0.107114 35 59 74
-0.062500 -0.343750 -0.107694 33 57 72
-0.058594 -0.343750 -0.107803 31 54 70
-0.054688 -0.343750 -0.107462 30 53 68
-0.050781 -0.343750 -0.106901 30 52 67
-0.046875 -0.343750 -0.106058 29 50 65
-0.042969 -0.343750 -0.104709 30 51 66
-0.039062 -0.343750 -0.102970 31 54 69
-0.035156 -0.343750 -0.101016 31 54 69
-0.031250 -0.343750 -0.098832 29 52 66
-0.027344 -0.343750 -0.096162 29 51 65
-0.023438 -0.343750 -0.093035 29 52 65
-0.019531 -0.343750 -0.089880 29 52 66
-0.015625 -0.343750 -0.086610 28 51 64
-0.011719 -0.343750 -0.083126 26 48 61
-0.007812 -0.343750 -0.079271 27 50 63
-0.003906 -0.343750 -0.075713 26 50 62
0.000000 -0.343750 -0.071910 25 48 61
0.003906 -0.343750 -0.067901 23 46 60
0.007812 -0.343750 -0.063151 20 38 54
0.011719 -0.343750 -0.057486 17 30 44
0.015625 -0.343750 -0.048853 11 18 27
0.105469 -0.343750 0.019120 19 28 41
0.109375 -0.343750 0.010806 17 26 39
0.113281 -0.343750 0.005251 29 46 62
0.117188 -0.343750 -0.000209 28 47 61
0.121094 -0.343750 -0.004881 26 45 56
0.125000 -0.343750 -0.009340 29 51 62
0.128906 -0.343750 -0.013523 29 52 64
0.132812 -0.343750 -0.017481 29 51 63
0.136719 -0.343750 -0.021240 28 50 63
0.140625 -0.343750 -0.024776 29 52 66
0.144531 -0.343750 -0.027851 30 53 66
0.148438 -0.343750 -0.030492 31 54 67
0.152344 -0.343750 -0.032952 34 57 70
0.156250 -0.343750 -0.035178 36 59 72
0.160156 -0.343750 -0.037172 37 60 73
0.164062 -0.343750 -0.038927 36 58 72
0.167969 -0.343750 -0.040477 34 55 70
0.171875 -0.343750 -0.041821 34 55 72
0.175781 -0.343750 -0.042935 36 59 77
0.179688 -0.343750 -0.043834 39 62 81
0.183594 -0.343750 -0.044487 40 63 83
0.187500 -0.343750 -0.044849 42 64 84
0.191406 -0.343750 -0.044884 44 67 87
0.195312 -0.343750 -0.044551 44 67 87
0.199219 -0.343750 -0.044106 40 63 84
0.203125 -0.343750 -0.043428 37 61 82
0.207031 -0.343750 -0.042412 33 56 77
0.210938 -0.343750 -0.041120 27 47 68
0.214844 -0.343750 -0.039748 28 46 67
0.218750 -0.343750 -0.038360 29 47 68
0.222656 -0.343750 -0.036393 28 47 68
0.226562 -0.343750 -0.033990 27 46 67
0.230469 -0.343750 -0.031683 24 42 64
0.234375 -0.343750 -0.029174 23 42 65
0.238281 -0.343750 -0.026165 24 44 67
0.242188 -0.343750 -0.022627 23 42 66
0.246094 -0.343750 -0.018835 26 46 70
0.250000 -0.343750 -0.014794 30 50 74
0.253906 -0.343750 -0.010206 33 51 75
0.257812 -0.343750 -0.004414 46 61 86
0.261719 -0.343750 0.002067 28 34 53
0.265625 -0.343750 0.010210 25 29 43
0.269531 -0.343750 0.003759 19 21 34
-0.132812 -0.347656 -0.024671 24 49 84
-0.128906 -0.347656 -0.044741 42 92 143
-0.125000 -0.347656 -0.053790 9 24 55
-0.121094 -0.347656 -0.061493 24 49 84
-0.117188 -0.347656 -0.068149 31 58 89
-0.113281 -0.347656 -0.074235 21 41 66
-0.109375 -0.347656 -0.079355 23 44 68
-0.105469 -0.347656 -0.083682 27 52 77
-0.101562 -0.347656 -0.087921 28 54 76
-0.097656 -0.347656 -0.091627 28 53 73
-0.093750 -0.347656 -0.094946 28 52 69
-0.089844 -0.347656 -0.097814 33 58 72
-0.085938 -0.347656 -0.100166 37 63 76
-0.082031 -0.347656 -0.102327 36 61 75
-0.078125 -0.347656 -0.104197 35 59 74
-0.074219 -0.347656 -0.105519 34 57 72
-0.070312 -0.347656 -0.106318 34 57 73
-0.066406 -0.347656 -0.107033 34 57 73
-0.062500 -0.347656 -0.107590 32 55 71
-0.058594 -0.347656 -0.107702 32 54 70
-0.054688 -0.347656 -0.107362 32 55 70
-0.050781 -0.347656 -0.106806 31 53 68
-0.046875 -0.347656 -0.105969 29 50 64
-0.042969 -0.347656 -0.104658 29 50 64
-0.039062 -0.347656 -0.102950 32 54 68
-0.035156 -0.347656 -0.101012 32 55 69
-0.031250 -0.347656 -0.098842 31 54 67
-0.027344 -0.347656 -0.096161 31 55 67
-0.023438 -0.347656 -0.093040 31 55 68
-0.019531 -0.347656 -0.089881 30 55 68
-0.015625 -0.347656 -0.086610 29 53 67
-0.011719 -0.347656 -0.083140 28 52 64
-0.007812 -0.347656 -0.079230 27 52 64
-0.003906 -0.347656 -0.075643 26 49 62
0.000000 -0.347656 -0.071676 23 46 58
0.003906 -0.347656 -0.067457 21 43 57
0.007812 -0.347656 -0.062901 18 35 52
0.011719 -0.347656 -0.057106 13 23 38
0.015625 -0.347656 -0.049497 10 15 25
0.105469 -0.347656 0.021487 22 35 49
0.109375 -0.347656 0.011714 11 17 28
0.113281 -0.347656 0.006723 23 36 51
0.117188 -0.347656 0.000545 23 40 52
0.121094 -0.347656 -0.004791 24 43 54
0.125000 -0.347656 -0.009022 29 51 61
0.128906 -0.347656 -0.013147 29 51 62
0.132812 -0.347656 -0.017292 28 50 61
0.136719 -0.347656 -0.021120 26 47 59
0.140625 -0.347656 -0.024672 28 49 61
0.144531 -0.347656 -0.027803 30 52 65
0.148438 -0.347656 -0.030528 31 54 67
0.152344 -0.347656 -0.033071 33 57 69
0.156250 -0.347656 -0.035392 34 57 69
0.160156 -0.347656 -0.037471 34 56 68
0.164062 -0.347656 -0.039276 34 55 68
0.167969 -0.347656 -0.040879 32 53 68
0.171875 -0.347656 -0.042294 33 54 69
0.175781 -0.347656 -0.043492 35 56 73
0.179688 -0.347656 -0.044493 38 59 77
0.183594 -0.347656 -0.045256 39 61 79
0.187500 -0.347656 -0.045724 38 59 79
0.191406 -0.347656 -0.045893 38 59 79
0.195312 -0.347656 -0.045640 39 61 82
0.199219 -0.347656 -0.045218 40 64 85
0.203125 -0.347656 -0.044585 41 67 90
0.207031 -0.347656 -0.043577 37 62 86
0.210938 -0.347656 -0.042330 28 49 71
0.214844 -0.347656 -0.041005 25 43 65
0.218750 -0.347656 -0.039603 25 42 63
0.222656 -0.347656 -0.037685 22 39 60
0.226562 -0.347656 -0.035312 21 38 59
0.230469 -0.347656 -0.033034 21 38 60
0.234375 -0.347656 -0.030596 22 41 65
0.238281 -0.347656 -0.027673 25 46 70
0.242188 -0.347656 -0.024222 26 48 73
0.246094 -0.347656 -0.020572 32 58 81
0.250000 -0.347656 -0.016717 39 66 88
0.253906 -0.347656 -0.012465 39 64 85
0.257812 -0.347656 -0.007143 47 68 88
0.261719 -0.347656 -0.000755 29 39 57
0.265625 -0.347656 0.006820 19 26 39
0.269531 -0.347656 0.010430 26 31 45
-0.132812 -0.351562 -0.027206 40 78 114
-0.128906 -0.351562 -0.045021 25 57 118
-0.125000 -0.351562 -0.054435 20 47 92
-0.121094 -0.351562 -0.062220 40 78 114
-0.117188 -0.351562 -0.068751 39 73 104
-0.113281 -0.351562 -0.074661 25 50 77
-0.109375 -0.351562 -0.079818 25 48 73
-0.105469 -0.351562 -0.084200 29 54 79
-0.101562 -0.351562 -0.088410 29 54 77
-0.097656 -0.351562 -0.092092 28 53 73
-0.093750 -0.351562 -0.095378 28 52 69
-0.089844 -0.351562 -0.098200 31 56 71
-0.085938 -0.351562 -0.100506 34 59 73
-0.082031 -0.351562 -0.102612 32 56 71
-0.078125 -0.351562 -0.104440 30 53 68
-0.074219 -0.351562 -0.105738 29 51 67
-0.070312 -0.351562 -0.106516 30 52 68
-0.066406 -0.351562 -0.107190 30 52 68
-0.062500 -0.351562 -0.107717 28 49 65
-0.058594 -0.351562 -0.107806 28 49 65
-0.054688 -0.351562 -0.107445 31 53 69
-0.050781 -0.351562 -0.106874 32 56 71
-0.046875 -0.351562 -0.106010 32 55 70
-0.042969 -0.351562 -0.104682 34 57 71
-0.039062 -0.351562 -0.102955 36 61 75
-0.035156 -0.351562 -0.100996 36 60 73
-0.031250 -0.351562 -0.098814 34 58 70
-0.027344 -0.351562 -0.096131 34 58 70
-0.023438 -0.351562 -0.093008 33 57 70
-0.019531 -0.351562 -0.089860 30 54 66
-0.015625 -0.351562 -0.086597 27 50 62
-0.011719 -0.351562 -0.083148 25 47 59
-0.007812 -0.351562 -0.079221 23 43 55
-0.003906 -0.351562 -0.075656 20 38 50
0.000000 -0.351562 -0.071556 18 36 48
0.003906 -0.351562 -0.067161 18 37 51
0.007812 -0.351562 -0.062427 18 35 52
0.011719 -0.351562 -0.055658 11 20 33
0.105469 -0.351562 0.025275 57 84 96
0.109375 -0.351562 0.012618 21 32 48
0.113281 -0.351562 0.007249 27 42 55
0.117188 -0.351562 0.001668 23 39 52
0.121094 -0.351562 -0.004245 25 47 58
0.125000 -0.351562 -0.008709 27 51 62
0.128906 -0.351562 -0.012725 25 45 58
0.132812 -0.351562 -0.016904 26 47 59
0.136719 -0.351562 -0.020823 26 46 59
0.140625 -0.351562 -0.024459 27 48 61
0.144531 -0.351562 -0.027658 28 51 64
0.148438 -0.351562 -0.030461 29 53 65
0.152344 -0.351562 -0.033078 31 54 68
0.156250 -0.351562 -0.035484 32 54 68
0.160156 -0.351562 -0.037629 32 54 68
0.164062 -0.351562 -0.039465 32 54 69
0.167969 -0.351562 -0.041121 32 53 68
0.171875 -0.351562 -0.042585 31 52 68
0.175781 -0.351562 -0.043832 31 52 69
0.179688 -0.351562 -0.044929 34 55 73
0.183594 -0.351562 -0.045783 38 60 80
0.187500 -0.351562 -0.046340 40 62 83
0.191406 -0.351562 -0.046603 40 62 83
0.195312 -0.351562 -0.046427 40 64 85
0.199219 -0.351562 -0.046124 43 68 92
0.203125 -0.351562 -0.045591 45 72 96
0.207031 -0.351562 -0.044676 37 62 87
0.210938 -0.351562 -0.043548 26 46 69
0.214844 -0.351562 -0.042325 24 41 63
0.218750 -0.351562 -0.041016 25 42 65
0.222656 -0.351562 -0.039189 23 41 64
0.226562 -0.351562 -0.036880 23 41 64
0.230469 -0.351562 -0.034638 26 46 70
0.234375 -0.351562 -0.032259 29 52 78
0.238281 -0.351562 -0.029431 32 56 81
0.242188 -0.351562 -0.026032 30 53 78
0.246094 -0.351562 -0.022523 32 56 77
0.250000 -0.351562 -0.018928 32 55 73
0.253906 -0.351562 -0.014774 28 49 66
0.257812 -0.351562 -0.009758 33 52 68
0.261719 -0.351562 -0.003483 25 35 51
0.265625 -0.351562 0.004076 18 23 38
0.269531 -0.351562 0.014119 26 33 47
-0.132812 -0.355469 -0.030045 47 89 117
-0.128906 -0.355469 -0.045952 25 51 110
-0.125000 -0.355469 -0.055025 39 74 117
-0.121094 -0.355469 -0.062570 47 89 117
-0.117188 -0.355469 -0.069207 41 77 105
-0.113281 -0.355469 -0.075091 35 65 92
-0.109375 -0.355469 -0.080256 37 66 91
-0.105469 -0.355469 -0.084679 37 66 91
-0.101562 -0.355469 -0.088859 32 60 83
-0.097656 -0.355469 -0.092573 30 55 76
-0.093750 -0.355469 -0.095859 29 53 71
-0.089844 -0.355469 -0.098648 32 57 73
-0.085938 -0.355469 -0.100928 35 61 77
-0.082031 -0.355469 -0.102989 34 59 76
-0.078125 -0.355469 -0.104790 32 57 74
-0.074219 -0.355469 -0.106081 31 55 73
-0.070312 -0.355469 -0.106867 32 57 75
-0.066406 -0.355469 -0.107517 33 57 76
-0.062500 -0.355469 -0.108009 31 54 72
-0.058594 -0.355469 -0.108078 31 54 71
-0.054688 -0.355469 -0.107700 35 59 75
-0.050781 -0.355469 -0.107079 38 64 79
-0.046875 -0.355469 -0.106161 41 68 82
-0.042969 -0.355469 -0.104756 43 71 84
-0.039062 -0.355469 -0.102964 43 71 83
-0.035156 -0.355469 -0.101006 39 64 76
-0.031250 -0.355469 -0.098826 34 57 69
-0.027344 -0.355469 -0.096145 32 54 67
-0.023438 -0.355469 -0.093022 30 51 64
-0.019531 -0.355469 -0.089907 25 46 59
-0.015625 -0.355469 -0.086688 22 40 53
-0.011719 -0.355469 -0.083276 21 39 52
-0.007812 -0.355469 -0.079311 19 37 49
-0.003906 -0.355469 -0.075665 17 34 46
0.000000 -0.355469 -0.071485 17 34 47
0.003906 -0.355469 -0.067067 18 38 51
0.007812 -0.355469 -0.061280 22 40 56
0.011719 -0.355469 -0.054616 11 18 31
0.109375 -0.355469 0.018278 25 32 55
0.113281 -0.355469 0.007990 22 33 49
0.117188 -0.355469 0.002281 18 31 44
0.121094 -0.355469 -0.003154 26 50 64
0.125000 -0.355469 -0.008132 28 55 69
0.128906 -0.355469 -0.012395 24 45 61
0.132812 -0.355469 -0.016585 26 48 64
0.136719 -0.355469 -0.020469 26 47 63
0.140625 -0.355469 -0.024192 27 48 64
0.144531 -0.355469 -0.027448 26 48 63
0.148438 -0.355469 -0.030320 26 49 63
0.152344 -0.355469 -0.033000 28 51 67
0.156250 -0.355469 -0.035495 31 54 70
0.160156 -0.355469 -0.037710 32 54 71
0.164062 -0.355469 -0.039585 32 54 72
0.167969 -0.355469 -0.041307 32 54 72
0.171875 -0.355469 -0.042815 31 54 73
0.175781 -0.355469 -0.044106 31 54 73
0.179688 -0.355469 -0.045307 33 56 76
0.183594 -0.355469 -0.046238 38 62 83
0.187500 -0.355469 -0.046872 43 68 90
0.191406 -0.355469 -0.047202 43 67 90
0.195312 -0.355469 -0.047064 40 64 87
0.199219 -0.355469 -0.046865 41 65 90
0.203125 -0.355469 -0.046422 41 65 91
0.207031 -0.355469 -0.045671 32 53 79
0.210938 -0.355469 -0.044668 24 42 66
0.214844 -0.355469 -0.043518 25 43 67
0.218750 -0.355469 -0.042307 30 51 76
0.222656 -0.355469 -0.040558 32 55 80
0.226562 -0.355469 -0.038431 33 56 80
0.230469 -0.355469 -0.036302 35 58 82
0.234375 -0.355469 -0.034015 37 61 85
0.238281 -0.355469 -0.031297 33 56 79
0.242188 -0.355469 -0.027955 26 44 66
0.246094 -0.355469 -0.024576 23 40 58
0.250000 -0.355469 -0.021174 20 36 52
0.253906 -0.355469 -0.017084 21 37 53
0.257812 -0.355469 -0.012366 27 44 60
0.261719 -0.355469 -0.006527 23 34 51
0.265625 -0.355469 0.000477 17 22 37
0.269531 -0.355469 0.012156 19 21 34
-0.132812 -0.359375 -0.034456 31 62 90
-0.128906 -0.359375 -0.047129 27 50 95
-0.125000 -0.359375 -0.055474 29 55 90
-0.121094 -0.359375 -0.062814 31 62 90
-0.117188 -0.359375 -0.069514 33 64 90
-0.113281 -0.359375 -0.075436 37 66 91
-0.109375 -0.359375 -0.080634 44 74 98
-0.105469 -0.359375 -0.085094 47 79 102
-0.101562 -0.359375 -0.089262 45 76 99
-0.097656 -0.359375 -0.092940 42 73 94
-0.093750 -0.359375 -0.096188 40 70 90
-0.089844 -0.359375 -0.098937 41 71 89
-0.085938 -0.359375 -0.101191 42 72 90
-0.082031 -0.359375 -0.103196 41 71 90
-0.078125 -0.359375 -0.104953 41 70 90
-0.074219 -0.359375 -0.106221 41 70 90
-0.070312 -0.359375 -0.107000 42 71 91
-0.066406 -0.359375 -0.107643 43 72 91
-0.062500 -0.359375 -0.108086 42 69 88
-0.058594 -0.359375 -0.108106 43 70 88
-0.054688 -0.359375 -0.107699 46 74 89
-0.050781 -0.359375 -0.107045 46 74 88
-0.046875 -0.359375 -0.106091 47 75 88
-0.042969 -0.359375 -0.104675 47 76 88
-0.039062 -0.359375 -0.102873 42 68 80
-0.035156 -0.359375 -0.100928 33 55 68
-0.031250 -0.359375 -0.098771 27 46 58
-0.027344 -0.359375 -0.096073 25 43 54
-0.023438 -0.359375 -0.092957 23 40 52
-0.019531 -0.359375 -0.089880 20 37 50
-0.015625 -0.359375 -0.086677 19 37 50
-0.011719 -0.359375 -0.083332 21 41 54
-0.007812 -0.359375 -0.079400 21 41 53
-0.003906 -0.359375 -0.075683 20 41 53
0.000000 -0.359375 -0.071490 20 40 53
0.003906 -0.359375 -0.066960 20 40 53
0.007812 -0.359375 -0.060613 24 42 55
0.011719 -0.359375 -0.054824 10 16 26
0.113281 -0.359375 0.011791 24 32 48
0.117188 -0.359375 0.002867 14 23 36
0.121094 -0.359375 -0.002490 26 48 65
0.125000 -0.359375 -0.007316 29 57 74
0.128906 -0.359375 -0.011815 24 46 64
0.132812 -0.359375 -0.016087 26 48 65
0.136719 -0.359375 -0.019997 26 46 63
0.140625 -0.359375 -0.023821 26 47 63
0.144531 -0.359375 -0.027119 25 46 62
0.148438 -0.359375 -0.030098 24 46 61
0.152344 -0.359375 -0.032864 26 49 65
0.156250 -0.359375 -0.035430 29 52 69
0.160156 -0.359375 -0.037725 29 52 69
0.164062 -0.359375 -0.039659 28 50 68
0.167969 -0.359375 -0.041435 28 49 68
0.171875 -0.359375 -0.042978 28 50 69
0.175781 -0.359375 -0.044315 29 50 70
0.179688 -0.359375 -0.045622 29 51 71
0.183594 -0.359375 -0.046640 32 55 76
0.187500 -0.359375 -0.047355 40 64 86
0.191406 -0.359375 -0.047839 41 66 89
0.195312 -0.359375 -0.047849 38 60 84
0.199219 -0.359375 -0.047761 38 61 85
0.203125 -0.359375 -0.047445 38 60 86
0.207031 -0.359375 -0.046800 32 53 80
0.210938 -0.359375 -0.045862 29 49 76
0.214844 -0.359375 -0.044794 33 56 82
0.218750 -0.359375 -0.043623 40 64 90
0.222656 -0.359375 -0.041963 42 67 92
0.226562 -0.359375 -0.039981 36 58 81
0.230469 -0.359375 -0.037940 29 49 70
0.234375 -0.359375 -0.035749 26 44 65
0.238281 -0.359375 -0.033098 22 38 57
0.242188 -0.359375 -0.029846 19 33 51
0.246094 -0.359375 -0.026565 20 34 51
0.250000 -0.359375 -0.023279 21 37 52
0.253906 -0.359375 -0.019388 26 45 61
0.257812 -0.359375 -0.014888 30 51 68
0.261719 -0.359375 -0.009285 25 41 59
0.265625 -0.359375 -0.002377 21 30 47
0.269531 -0.359375 0.008424 26 31 45
-0.132812 -0.363281 -0.036396 23 48 74
-0.128906 -0.363281 -0.047717 21 41 75
-0.125000 -0.363281 -0.055946 18 37 66
-0.121094 -0.363281 -0.063160 23 48 74
-0.117188 -0.363281 -0.069811 26 51 75
-0.113281 -0.363281 -0.075684 27 50 73
-0.109375 -0.363281 -0.080896 30 54 75
-0.105469 -0.363281 -0.085397 34 60 81
-0.101562 -0.363281 -0.089582 37 64 85
-0.097656 -0.363281 -0.093220 39 67 87
-0.093750 -0.363281 -0.096442 41 70 89
-0.089844 -0.363281 -0.099142 44 75 93
-0.085938 -0.363281 -0.101351 45 76 94
-0.082031 -0.363281 -0.103318 45 76 95
-0.078125 -0.363281 -0.105024 46 77 96
-0.074219 -0.363281 -0.106250 46 77 96
-0.070312 -0.363281 -0.106994 44 73 92
-0.066406 -0.363281 -0.107606 40 67 86
-0.062500 -0.363281 -0.107998 37 63 80
-0.058594 -0.363281 -0.107971 38 64 80
-0.054688 -0.363281 -0.107534 39 63 79
-0.050781 -0.363281 -0.106885 34 57 72
-0.046875 -0.363281 -0.105937 31 52 67
-0.042969 -0.363281 -0.104585 31 53 67
-0.039062 -0.363281 -0.102857 29 50 64
-0.035156 -0.363281 -0.100977 25 44 58
-0.031250 -0.363281 -0.098896 24 42 55
-0.027344 -0.363281 -0.096216 24 43 55
-0.023438 -0.363281 -0.093104 24 42 55
-0.019531 -0.363281 -0.090015 23 42 55
-0.015625 -0.363281 -0.086767 24 45 58
-0.011719 -0.363281 -0.083451 26 49 62
-0.007812 -0.363281 -0.079551 24 46 58
-0.003906 -0.363281 -0.075851 22 43 55
0.000000 -0.363281 -0.071499 20 41 53
0.003906 -0.363281 -0.066521 18 37 48
0.007812 -0.363281 -0.059994 21 36 46
0.011719 -0.363281 -0.053365 9 13 20
0.117188 -0.363281 0.004811 18 25 42
0.121094 -0.363281 -0.001604 25 43 62
0.125000 -0.363281 -0.006460 28 51 71
0.128906 -0.363281 -0.011360 24 46 66
0.132812 -0.363281 -0.015663 27 48 67
0.136719 -0.363281 -0.019569 27 47 64
0.140625 -0.363281 -0.023451 28 49 65
0.144531 -0.363281 -0.026739 27 51 66
0.148438 -0.363281 -0.029804 27 52 67
0.152344 -0.363281 -0.032668 28 53 68
0.156250 -0.363281 -0.035287 30 54 71
0.160156 -0.363281 -0.037635 30 54 72
0.164062 -0.363281 -0.039618 30 53 72
0.167969 -0.363281 -0.041438 29 52 71
0.171875 -0.363281 -0.043013 29 52 72
0.175781 -0.363281 -0.044386 29 52 72
0.179688 -0.363281 -0.045746 29 50 70
0.183594 -0.363281 -0.046831 30 52 73
0.187500 -0.363281 -0.047605 38 63 84
0.191406 -0.363281 -0.048184 43 68 91
0.195312 -0.363281 -0.048309 40 63 86
0.199219 -0.363281 -0.048341 39 61 85
0.203125 -0.363281 -0.048164 39 62 87
0.207031 -0.363281 -0.047561 40 63 89
0.210938 -0.363281 -0.046742 43 67 94
0.214844 -0.363281 -0.045830 47 72 97
0.218750 -0.363281 -0.044780 45 70 93
0.222656 -0.363281 -0.043344 40 63 86
0.226562 -0.363281 -0.041461 32 52 74
0.230469 -0.363281 -0.039528 25 43 63
0.234375 -0.363281 -0.037461 22 39 58
0.238281 -0.363281 -0.034872 20 35 53
0.242188 -0.363281 -0.031746 21 37 55
0.246094 -0.363281 -0.028566 24 42 59
0.250000 -0.363281 -0.025367 26 45 61
0.253906 -0.363281 -0.021674 32 54 71
0.257812 -0.363281 -0.017366 35 58 76
0.261719 -0.363281 -0.012168 32 51 70
0.265625 -0.363281 -0.005132 27 40 58
0.269531 -0.363281 0.003693 26 33 47
-0.132812 -0.367188 -0.036662 30 62 89
-0.128906 -0.367188 -0.048422 21 44 75
-0.125000 -0.367188 -0.056352 22 46 76
-0.121094 -0.367188 -0.063318 30 62 89
-0.117188 -0.367188 -0.070036 30 57 82
-0.113281 -0.367188 -0.075976 26 49 72
-0.109375 -0.367188 -0.081209 25 46 67
-0.105469 -0.367188 -0.085699 27 48 69
-0.101562 -0.367188 -0.089862 28 49 70
-0.097656 -0.367188 -0.093496 28 49 69
-0.093750 -0.367188 -0.096683 30 52 71
-0.089844 -0.367188 -0.099331 34 59 78
-0.085938 -0.367188 -0.101508 35 60 79
-0.082031 -0.367188 -0.103435 34 59 78
-0.078125 -0.367188 -0.105103 35 61 80
-0.074219 -0.367188 -0.106310 37 64 83
-0.070312 -0.367188 -0.107036 37 62 82
-0.066406 -0.367188 -0.107629 33 56 75
-0.062500 -0.367188 -0.108010 30 53 70
-0.058594 -0.367188 -0.107993 32 55 72
-0.054688 -0.367188 -0.107563 32 54 71
-0.050781 -0.367188 -0.106899 27 47 63
-0.046875 -0.367188 -0.105946 24 43 59
-0.042969 -0.367188 -0.104594 25 45 61
-0.039062 -0.367188 -0.102885 26 47 63
-0.035156 -0.367188 -0.101041 26 47 63
-0.031250 -0.367188 -0.099004 28 49 64
-0.027344 -0.367188 -0.096357 28 50 64
-0.023438 -0.367188 -0.093251 26 48 61
-0.019531 -0.367188 -0.090190 26 47 61
-0.015625 -0.367188 -0.086944 28 50 64
-0.011719 -0.367188 -0.083666 28 51 64
-0.007812 -0.367188 -0.079748 24 45 56
-0.003906 -0.367188 -0.076050 21 40 51
0.000000 -0.367188 -0.071645 19 38 49
0.003906 -0.367188 -0.066471 17 34 45
0.007812 -0.367188 -0.059549 18 30 40
0.011719 -0.367188 -0.052976 9 13 20
0.121094 -0.367188 0.000574 24 36 55
0.125000 -0.367188 -0.005652 27 44 63
0.128906 -0.367188 -0.010896 33 56 77
0.132812 -0.367188 -0.015335 35 58 78
0.136719 -0.367188 -0.019278 33 55 73
0.140625 -0.367188 -0.023136 33 56 72
0.144531 -0.367188 -0.026460 32 58 74
0.148438 -0.367188 -0.029553 32 59 74
0.152344 -0.367188 -0.032421 30 56 72
0.156250 -0.367188 -0.035090 31 55 72
0.160156 -0.367188 -0.037501 34 59 76
0.164062 -0.367188 -0.039538 36 61 80
0.167969 -0.367188 -0.041419 35 60 80
0.171875 -0.367188 -0.043041 35 60 80
0.175781 -0.367188 -0.044461 35 60 80
0.179688 -0.367188 -0.045877 34 59 79
0.183594 -0.367188 -0.047007 36 61 81
0.187500 -0.367188 -0.047835 45 72 93
0.191406 -0.367188 -0.048478 54 81 103
0.195312 -0.367188 -0.048675 52 78 100
0.199219 -0.367188 -0.048768 49 73 95
0.203125 -0.367188 -0.048673 45 67 91
0.207031 -0.367188 -0.048197 44 66 90
0.210938 -0.367188 -0.047493 43 64 88
0.214844 -0.367188 -0.046685 39 59 81
0.218750 -0.367188 -0.045778 32 51 71
0.222656 -0.367188 -0.044493 29 47 67
0.226562 -0.367188 -0.042731 30 50 71
0.230469 -0.367188 -0.040944 31 53 74
0.234375 -0.367188 -0.038997 30 53 73
0.238281 -0.367188 -0.036481 27 48 67
0.242188 -0.367188 -0.033460 27 48 67
0.246094 -0.367188 -0.030412 28 50 68
0.250000 -0.367188 -0.027342 28 50 67
0.253906 -0.367188 -0.023802 33 56 74
0.257812 -0.367188 -0.019580 34 57 76
0.261719 -0.367188 -0.014759 35 57 77
0.265625 -0.367188 -0.007948 33 49 68
0.269531 -0.367188 -0.000677 22 29 43
0.273438 -0.367188 0.002432 22 27 43
-0.132812 -0.371094 -0.037649 42 81 109
-0.128906 -0.371094 -0.049134 32 66 94
-0.125000 -0.371094 -0.056653 34 68 98
-0.121094 -0.371094 -0.063459 42 81 109
-0.117188 -0.371094 -0.070241 36 69 96
-0.113281 -0.371094 -0.076187 31 58 84
-0.109375 -0.371094 -0.081423 29 54 80
-0.105469 -0.371094 -0.085876 31 56 80
-0.101562 -0.371094 -0.089945 30 54 78
-0.097656 -0.371094 -0.093553 27 49 71
-0.093750 -0.371094 -0.096711 27 48 69
-0.089844 -0.371094 -0.099324 29 52 73
-0.085938 -0.371094 -0.101483 28 51 72
-0.082031 -0.371094 -0.103381 27 48 69
-0.078125 -0.371094 -0.105067 29 51 72
-0.074219 -0.371094 -0.106305 33 58 79
-0.070312 -0.371094 -0.107056 36 61 81
-0.066406 -0.371094 -0.107665 34 58 78
-0.062500 -0.371094 -0.108058 34 58 78
-0.058594 -0.371094 -0.108081 37 63 82
-0.054688 -0.371094 -0.107703 37 63 82
-0.050781 -0.371094 -0.107050 35 60 78
-0.046875 -0.371094 -0.106110 35 61 78
-0.042969 -0.371094 -0.104761 37 64 81
-0.039062 -0.371094 -0.103042 36 63 80
-0.035156 -0.371094 -0.101202 34 59 75
-0.031250 -0.371094 -0.099174 32 56 72
-0.027344 -0.371094 -0.096534 29 52 67
-0.023438 -0.371094 -0.093408 25 45 60
-0.019531 -0.371094 -0.090365 24 44 57
-0.015625 -0.371094 -0.087121 25 45 58
-0.011719 -0.371094 -0.083863 25 45 57
-0.007812 -0.371094 -0.079966 22 41 52
-0.003906 -0.371094 -0.076230 20 38 49
0.000000 -0.371094 -0.071778 20 38 50
0.003906 -0.371094 -0.066476 19 36 48
0.007812 -0.371094 -0.059385 17 28 39
0.011719 -0.371094 -0.050578 9 13 20
0.121094 -0.371094 0.002069 28 37 56
0.125000 -0.371094 -0.005048 21 30 47
0.128906 -0.371094 -0.009962 37 55 75
0.132812 -0.371094 -0.014728 38 60 78
0.136719 -0.371094 -0.018823 33 54 70
0.140625 -0.371094 -0.022644 32 54 70
0.144531 -0.371094 -0.025981 31 55 69
0.148438 -0.371094 -0.029157 31 56 70
0.152344 -0.371094 -0.032054 30 53 68
0.156250 -0.371094 -0.034737 30 53 68
0.160156 -0.371094 -0.037244 33 56 73
0.164062 -0.371094 -0.039398 36 60 77
0.167969 -0.371094 -0.041352 36 60 77
0.171875 -0.371094 -0.043013 36 61 79
0.175781 -0.371094 -0.044473 37 63 81
0.179688 -0.371094 -0.045930 38 63 82
0.183594 -0.371094 -0.047074 38 63 82
0.187500 -0.371094 -0.047970 44 69 88
0.191406 -0.371094 -0.048688 50 75 95
0.195312 -0.371094 -0.048994 50 73 93
0.199219 -0.371094 -0.049158 45 66 86
0.203125 -0.371094 -0.049155 39 57 79
0.207031 -0.371094 -0.048902 35 52 74
0.210938 -0.371094 -0.048314 29 46 67
0.214844 -0.371094 -0.047638 25 41 62
0.218750 -0.371094 -0.046862 24 39 59
0.222656 -0.371094 -0.045617 26 43 63
0.226562 -0.371094 -0.043945 33 54 75
0.230469 -0.371094 -0.042218 37 62 81
0.234375 -0.371094 -0.040349 34 60 78
0.238281 -0.371094 -0.037961 30 53 71
0.242188 -0.371094 -0.035084 28 51 68
0.246094 -0.371094 -0.032214 28 51 68
0.250000 -0.371094 -0.029304 30 53 70
0.253906 -0.371094 -0.025901 32 55 73
0.257812 -0.371094 -0.021814 31 52 71
0.261719 -0.371094 -0.017354 34 56 76
0.265625 -0.371094 -0.010721 36 54 75
0.269531 -0.371094 -0.003293 28 39 54
0.273438 -0.371094 0.004661 24 31 49
-0.132812 -0.375000 -0.038595 24 38 70
-0.128906 -0.375000 -0.049774 31 61 88
-0.125000 -0.375000 -0.057083 34 67 96
-0.121094 -0.375000 -0.063730 40 78 107
-0.117188 -0.375000 -0.070528 32 63 91
-0.113281 -0.375000 -0.076435 30 57 83
-0.109375 -0.375000 -0.081642 29 55 81
-0.105469 -0.375000 -0.086109 31 57 82
-0.101562 -0.375000 -0.090156 31 57 82
-0.097656 -0.375000 -0.093743 29 53 77
-0.093750 -0.375000 -0.096892 29 53 75
-0.089844 -0.375000 -0.099501 32 57 79
-0.085938 -0.375000 -0.101651 32 58 79
-0.082031 -0.375000 -0.103532 32 57 79
-0.078125 -0.375000 -0.105198 35 62 83
-0.074219 -0.375000 -0.106428 39 66 87
-0.070312 -0.375000 -0.107186 39 65 85
-0.066406 -0.375000 -0.107783 36 61 80
-0.062500 -0.375000 -0.108163 36 62 82
-0.058594 -0.375000 -0.108185 38 65 85
-0.054688 -0.375000 -0.107838 36 62 81
-0.050781 -0.375000 -0.107191 35 60 79
-0.046875 -0.375000 -0.106238 39 66 85
-0.042969 -0.375000 -0.104914 42 70 88
-0.039062 -0.375000 -0.103215 38 65 82
-0.035156 -0.375000 -0.101416 35 60 76
-0.031250 -0.375000 -0.099418 34 59 75
-0.027344 -0.375000 -0.096815 33 57 73
-0.023438 -0.375000 -0.093716 29 51 67
-0.019531 -0.375000 -0.090699 27 48 63
-0.015625 -0.375000 -0.087465 26 46 59
-0.011719 -0.375000 -0.084204 24 44 56
-0.007812 -0.375000 -0.080279 23 42 52
-0.003906 -0.375000 -0.076416 21 39 51
0.000000 -0.375000 -0.071862 21 39 53
0.003906 -0.375000 -0.066164 19 35 50
0.007812 -0.375000 -0.058884 13 23 34
0.125000 -0.375000 -0.003603 14 19 33
0.128906 -0.375000 -0.009361 30 41 59
0.132812 -0.375000 -0.014256 31 46 63
0.136719 -0.375000 -0.018463 26 42 57
0.140625 -0.375000 -0.022272 26 44 58
0.144531 -0.375000 -0.025603 26 45 59
0.148438 -0.375000 -0.028787 28 49 63
0.152344 -0.375000 -0.031759 28 49 64
0.156250 -0.375000 -0.034475 28 48 63
0.160156 -0.375000 -0.037054 30 50 65
0.164062 -0.375000 -0.039352 31 51 67
0.167969 -0.375000 -0.041380 31 52 68
0.171875 -0.375000 -0.043076 33 55 72
0.175781 -0.375000 -0.044584 35 57 74
0.179688 -0.375000 -0.046037 34 56 73
0.183594 -0.375000 -0.047203 32 53 70
0.187500 -0.375000 -0.048173 31 50 67
0.191406 -0.375000 -0.048906 31 48 66
0.195312 -0.375000 -0.049245 29 45 63
0.199219 -0.375000 -0.049481 28 42 60
0.203125 -0.375000 -0.049591 27 42 61
0.207031 -0.375000 -0.049443 27 42 61
0.210938 -0.375000 -0.048978 25 41 62
0.214844 -0.375000 -0.048440 27 45 66
0.218750 -0.375000 -0.047780 30 49 70
0.222656 -0.375000 -0.046634 33 54 75
0.226562 -0.375000 -0.045032 37 60 79
0.230469 -0.375000 -0.043376 36 60 79
0.234375 -0.375000 -0.041592 34 59 76
0.238281 -0.375000 -0.039339 31 55 72
0.242188 -0.375000 -0.036659 29 52 69
0.246094 -0.375000 -0.033979 30 55 71
0.250000 -0.375000 -0.031251 32 57 74
0.253906 -0.375000 -0.028015 31 54 72
0.257812 -0.375000 -0.024142 28 49 68
0.261719 -0.375000 -0.019998 32 52 74
0.265625 -0.375000 -0.013596 31 49 71
0.269531 -0.375000 -0.006509 25 35 52
0.273438 -0.375000 0.004877 28 34 47
-0.132812 -0.378906 -0.039566 64 99 135
-0.128906 -0.378906 -0.050312 30 57 87
-0.125000 -0.378906 -0.057611 34 63 92
-0.121094 -0.378906 -0.064088 41 76 104
-0.117188 -0.378906 -0.070905 33 63 90
-0.113281 -0.378906 -0.076822 34 62 87
-0.109375 -0.378906 -0.081969 36 64 89
-0.105469 -0.378906 -0.086429 37 65 90
-0.101562 -0.378906 -0.090473 37 65 90
-0.097656 -0.378906 -0.094041 35 63 87
-0.093750 -0.378906 -0.097169 35 63 86
-0.089844 -0.378906 -0.099781 36 65 87
-0.085938 -0.378906 -0.101917 36 64 86
-0.082031 -0.378906 -0.103781 36 64 86
-0.078125 -0.378906 -0.105401 39 68 90
-0.074219 -0.378906 -0.106607 40 70 90
-0.070312 -0.378906 -0.107342 38 65 85
-0.066406 -0.378906 -0.107915 36 61 81
-0.062500 -0.378906 -0.108305 38 64 83
-0.058594 -0.378906 -0.108299 40 67 87
-0.054688 -0.378906 -0.107941 38 64 83
-0.050781 -0.378906 -0.107274 37 62 80
-0.046875 -0.378906 -0.106285 41 68 86
-0.042969 -0.378906 -0.104969 42 69 86
-0.039062 -0.378906 -0.103288 37 62 79
-0.035156 -0.378906 -0.101518 34 57 74
-0.031250 -0.378906 -0.099533 34 58 74
-0.027344 -0.378906 -0.096954 34 57 74
-0.023438 -0.378906 -0.093891 31 54 70
-0.019531 -0.378906 -0.090914 29 51 67
-0.015625 -0.378906 -0.087706 28 49 63
-0.011719 -0.378906 -0.084466 26 46 58
-0.007812 -0.378906 -0.080506 26 44 56
-0.003906 -0.378906 -0.076490 23 40 54
0.000000 -0.378906 -0.072012 21 38 55
0.003906 -0.378906 -0.065872 17 31 48
0.007812 -0.378906 -0.059001 9 16 28
0.125000 -0.378906 -0.002907 13 16 31
0.128906 -0.378906 -0.008407 23 29 46
0.132812 -0.378906 -0.013637 25 37 53
0.136719 -0.378906 -0.018119 22 36 51
0.140625 -0.378906 -0.022000 22 39 54
0.144531 -0.378906 -0.025457 23 40 55
0.148438 -0.378906 -0.028533 26 45 60
0.152344 -0.378906 -0.031434 27 46 62
0.156250 -0.378906 -0.034163 26 45 60
0.160156 -0.378906 -0.036774 26 44 60
0.164062 -0.378906 -0.039191 26 44 60
0.167969 -0.378906 -0.041321 27 45 61
0.171875 -0.378906 -0.043107 28 47 63
0.175781 -0.378906 -0.044722 28 47 64
0.179688 -0.378906 -0.046218 27 46 62
0.183594 -0.378906 -0.047443 27 46 63
0.187500 -0.378906 -0.048515 27 44 62
0.191406 -0.378906 -0.049347 26 43 61
0.195312 -0.378906 -0.049795 26 43 61
0.199219 -0.378906 -0.050189 26 43 61
0.203125 -0.378906 -0.050451 29 46 65
0.207031 -0.378906 -0.050332 29 46 67
0.210938 -0.378906 -0.049902 29 47 69
0.214844 -0.378906 -0.049405 33 53 76
0.218750 -0.378906 -0.048753 35 57 79
0.222656 -0.378906 -0.047694 35 57 78
0.226562 -0.378906 -0.046156 34 57 76
0.230469 -0.378906 -0.044578 34 57 75
0.234375 -0.378906 -0.042854 36 61 78
0.238281 -0.378906 -0.040688 34 59 75
0.242188 -0.378906 -0.038181 31 55 72
0.246094 -0.378906 -0.035670 34 59 76
0.250000 -0.378906 -0.033121 36 62 80
0.253906 -0.378906 -0.030068 33 58 78
0.257812 -0.378906 -0.026387 30 53 74
0.261719 -0.378906 -0.022196 33 55 79
0.265625 -0.378906 -0.016312 32 51 77
0.269531 -0.378906 -0.009645 27 40 62
0.273438 -0.378906 0.000400 22 27 43
-0.132812 -0.382812 -0.041044 69 110 141
-0.128906 -0.382812 -0.050783 33 58 89
-0.125000 -0.382812 -0.057949 34 63 93
-0.121094 -0.382812 -0.064508 40 75 104
-0.117188 -0.382812 -0.071220 33 62 90
-0.113281 -0.382812 -0.077058 35 62 88
-0.109375 -0.382812 -0.082168 38 66 92
-0.105469 -0.382812 -0.086577 39 67 92
-0.101562 -0.382812 -0.090549 39 67 91
-0.097656 -0.382812 -0.094083 40 68 92
-0.093750 -0.382812 -0.097182 43 73 96
-0.089844 -0.382812 -0.099786 45 76 98
-0.085938 -0.382812 -0.101925 44 75 96
-0.082031 -0.382812 -0.103806 43 74 96
-0.078125 -0.382812 -0.105439 48 80 102
-0.074219 -0.382812 -0.106660 50 83 104
-0.070312 -0.382812 -0.107407 46 77 98
-0.066406 -0.382812 -0.107979 43 72 93
-0.062500 -0.382812 -0.108379 44 73 93
-0.058594 -0.382812 -0.108373 46 75 95
-0.054688 -0.382812 -0.108017 45 73 92
-0.050781 -0.382812 -0.107361 43 70 89
-0.046875 -0.382812 -0.106380 46 74 92
-0.042969 -0.382812 -0.105079 45 72 90
-0.039062 -0.382812 -0.103419 39 64 81
-0.035156 -0.382812 -0.101678 36 60 77
-0.031250 -0.382812 -0.099721 35 58 76
-0.027344 -0.382812 -0.097164 32 55 73
-0.023438 -0.382812 -0.094101 28 50 67
-0.019531 -0.382812 -0.091136 28 48 65
-0.015625 -0.382812 -0.087928 27 48 63
-0.011719 -0.382812 -0.084696 26 45 58
-0.007812 -0.382812 -0.080693 25 43 55
-0.003906 -0.382812 -0.076490 23 39 53
0.000000 -0.382812 -0.071957 20 36 54
0.003906 -0.382812 -0.065598 16 29 46
0.007812 -0.382812 -0.058969 7 12 24
0.128906 -0.382812 -0.006936 19 24 38
0.132812 -0.382812 -0.013110 21 32 47
0.136719 -0.382812 -0.017718 21 36 52
0.140625 -0.382812 -0.021647 23 41 56
0.144531 -0.382812 -0.025078 24 42 57
0.148438 -0.382812 -0.028104 27 46 61
0.152344 -0.382812 -0.031014 29 50 66
0.156250 -0.382812 -0.033786 29 50 67
0.160156 -0.382812 -0.036497 29 50 67
0.164062 -0.382812 -0.039058 28 49 65
0.167969 -0.382812 -0.041279 28 48 64
0.171875 -0.382812 -0.043161 30 50 67
0.175781 -0.382812 -0.044858 29 50 67
0.179688 -0.382812 -0.046404 28 49 66
0.183594 -0.382812 -0.047702 30 51 68
0.187500 -0.382812 -0.048868 30 51 70
0.191406 -0.382812 -0.049779 31 52 71
0.195312 -0.382812 -0.050306 33 55 74
0.199219 -0.382812 -0.050797 33 55 75
0.203125 -0.382812 -0.051103 34 56 77
0.207031 -0.382812 -0.051024 32 54 75
0.210938 -0.382812 -0.050635 32 54 76
0.214844 -0.382812 -0.050224 36 59 81
0.218750 -0.382812 -0.049651 37 60 82
0.222656 -0.382812 -0.048680 36 59 80
0.226562 -0.382812 -0.047294 34 56 76
0.230469 -0.382812 -0.045839 35 58 76
0.234375 -0.382812 -0.044212 39 63 81
0.238281 -0.382812 -0.042161 35 59 77
0.242188 -0.382812 -0.039806 32 56 74
0.246094 -0.382812 -0.037456 36 61 79
0.250000 -0.382812 -0.035027 36 62 81
0.253906 -0.382812 -0.032097 35 60 80
0.257812 -0.382812 -0.028602 31 56 78
0.261719 -0.382812 -0.024419 31 53 78
0.265625 -0.382812 -0.019187 32 52 79
0.269531 -0.382812 -0.012733 32 48 74
0.273438 -0.382812 -0.004806 24 31 49
0.277344 -0.382812 0.006146 20 25 43
-0.132812 -0.386719 -0.042686 24 38 70
-0.128906 -0.386719 -0.051391 28 51 83
-0.125000 -0.386719 -0.058351 34 65 97
-0.121094 -0.386719 -0.065003 38 73 104
-0.117188 -0.386719 -0.071499 30 58 86
-0.113281 -0.386719 -0.077262 30 55 81
-0.109375 -0.386719 -0.082360 32 57 81
-0.105469 -0.386719 -0.086710 32 55 79
-0.101562 -0.386719 -0.090588 32 55 77
-0.097656 -0.386719 -0.094060 35 59 81
-0.093750 -0.386719 -0.097117 40 67 88
-0.089844 -0.386719 -0.099692 42 70 91
-0.085938 -0.386719 -0.101833 41 70 90
-0.082031 -0.386719 -0.103736 42 70 91
-0.078125 -0.386719 -0.105393 48 79 100
-0.074219 -0.386719 -0.106629 52 84 105
-0.070312 -0.386719 -0.107380 48 79 100
-0.066406 -0.386719 -0.107950 46 76 96
-0.062500 -0.386719 -0.108346 44 74 94
-0.058594 -0.386719 -0.108361 44 72 91
-0.054688 -0.386719 -0.108018 42 68 87
-0.050781 -0.386719 -0.107371 41 66 85
-0.046875 -0.386719 -0.106401 43 70 88
-0.042969 -0.386719 -0.105109 42 68 87
-0.039062 -0.386719 -0.103472 37 62 81
-0.035156 -0.386719 -0.101760 36 60 80
-0.031250 -0.386719 -0.099829 35 60 80
-0.027344 -0.386719 -0.097305 31 54 75
-0.023438 -0.386719 -0.094263 27 48 68
-0.019531 -0.386719 -0.091318 28 49 68
-0.015625 -0.386719 -0.088121 29 50 66
-0.011719 -0.386719 -0.084898 27 46 59
-0.007812 -0.386719 -0.080788 27 45 57
-0.003906 -0.386719 -0.076436 23 40 54
0.000000 -0.386719 -0.071877 20 35 52
0.003906 -0.386719 -0.065438 16 28 44
0.007812 -0.386719 -0.058208 7 13 25
0.132812 -0.386719 -0.012156 23 32 48
0.136719 -0.386719 -0.017224 24 41 59
0.140625 -0.386719 -0.021336 25 44 61
0.144531 -0.386719 -0.024755 26 43 60
0.148438 -0.386719 -0.027767 27 45 62
0.152344 -0.386719 -0.030627 32 52 69
0.156250 -0.386719 -0.033426 35 57 74
0.160156 -0.386719 -0.036231 33 56 73
0.164062 -0.386719 -0.038967 31 53 69
0.167969 -0.386719 -0.041330 31 52 68
0.171875 -0.386719 -0.043344 33 56 72
0.175781 -0.386719 -0.045155 34 57 74
0.179688 -0.386719 -0.046776 33 56 73
0.183594 -0.386719 -0.048151 33 56 74
0.187500 -0.386719 -0.049371 33 55 73
0.191406 -0.386719 -0.050287 34 56 75
0.195312 -0.386719 -0.050859 36 60 78
0.199219 -0.386719 -0.051358 35 59 78
0.203125 -0.386719 -0.051643 33 57 77
0.207031 -0.386719 -0.051637 30 53 73
0.210938 -0.386719 -0.051320 31 54 74
0.214844 -0.386719 -0.050989 35 59 80
0.218750 -0.386719 -0.050538 37 60 82
0.222656 -0.386719 -0.049636 37 60 82
0.226562 -0.386719 -0.048368 36 59 81
0.230469 -0.386719 -0.047037 37 60 81
0.234375 -0.386719 -0.045562 40 64 85
0.238281 -0.386719 -0.043626 36 60 82
0.242188 -0.386719 -0.041398 36 60 81
0.246094 -0.386719 -0.039207 37 61 81
0.250000 -0.386719 -0.036901 32 56 76
0.253906 -0.386719 -0.034056 32 57 77
0.257812 -0.386719 -0.030595 31 55 77
0.261719 -0.386719 -0.026567 28 51 75
0.265625 -0.386719 -0.021795 29 49 75
0.269531 -0.386719 -0.015914 29 45 70
0.273438 -0.386719 -0.008547 18 24 39
0.277344 -0.386719 0.004047 21 29 47
-0.136719 -0.390625 -0.025474 34 68 100
-0.132812 -0.390625 -0.043904 64 99 135
-0.128906 -0.390625 -0.051954 26 52 82
-0.125000 -0.390625 -0.058765 34 68 100
-0.121094 -0.390625 -0.065463 38 74 105
-0.117188 -0.390625 -0.071802 31 61 89
-0.113281 -0.390625 -0.077523 32 58 84
-0.109375 -0.390625 -0.082568 34 59 85
-0.105469 -0.390625 -0.086852 32 55 79
-0.101562 -0.390625 -0.090671 30 53 75
-0.097656 -0.390625 -0.094118 31 54 76
-0.093750 -0.390625 -0.097163 33 57 78
-0.089844 -0.390625 -0.099745 32 55 76
-0.085938 -0.390625 -0.101880 31 54 75
-0.082031 -0.390625 -0.103779 31 56 77
-0.078125 -0.390625 -0.105430 36 62 84
-0.074219 -0.390625 -0.106655 38 65 87
-0.070312 -0.390625 -0.107397 36 62 84
-0.066406 -0.390625 -0.107970 37 63 84
-0.062500 -0.390625 -0.108367 38 65 85
-0.058594 -0.390625 -0.108377 38 64 83
-0.054688 -0.390625 -0.108031 37 62 81
-0.050781 -0.390625 -0.107366 37 62 81
-0.046875 -0.390625 -0.106379 40 66 84
-0.042969 -0.390625 -0.105096 39 65 85
-0.039062 -0.390625 -0.103481 35 60 80
-0.035156 -0.390625 -0.101791 34 58 79
-0.031250 -0.390625 -0.099878 34 59 80
-0.027344 -0.390625 -0.097380 29 52 74
-0.023438 -0.390625 -0.094348 26 47 68
-0.019531 -0.390625 -0.091423 29 51 70
-0.015625 -0.390625 -0.088224 30 51 68
-0.011719 -0.390625 -0.084997 27 46 60
-0.007812 -0.390625 -0.080841 27 44 57
-0.003906 -0.390625 -0.076342 24 40 55
0.000000 -0.390625 -0.071648 20 34 51
0.003906 -0.390625 -0.065007 16 28 44
0.007812 -0.390625 -0.057251 8 14 25
0.132812 -0.390625 -0.010655 19 25 41
0.136719 -0.390625 -0.016573 27 44 64
0.140625 -0.390625 -0.020999 25 44 63
0.144531 -0.390625 -0.024386 24 40 58
0.148438 -0.390625 -0.027409 25 41 58
0.152344 -0.390625 -0.030225 29 47 64
0.156250 -0.390625 -0.032977 33 53 70
0.160156 -0.390625 -0.035862 31 51 67
0.164062 -0.390625 -0.038779 28 48 64
0.167969 -0.390625 -0.041282 29 49 65
0.171875 -0.390625 -0.043428 31 53 69
0.175781 -0.390625 -0.045322 33 55 72
0.179688 -0.390625 -0.046965 33 55 72
0.183594 -0.390625 -0.048401 33 55 72
0.187500 -0.390625 -0.049691 33 55 72
0.191406 -0.390625 -0.050669 35 57 74
0.195312 -0.390625 -0.051327 37 61 79
0.199219 -0.390625 -0.051939 38 63 82
0.203125 -0.390625 -0.052323 36 62 82
0.207031 -0.390625 -0.052425 31 55 75
0.210938 -0.390625 -0.052224 30 52 73
0.214844 -0.390625 -0.051978 33 56 78
0.218750 -0.390625 -0.051581 35 59 82
0.222656 -0.390625 -0.050725 37 61 84
0.226562 -0.390625 -0.049493 38 61 85
0.230469 -0.390625 -0.048207 41 64 88
0.234375 -0.390625 -0.046828 43 67 91
0.238281 -0.390625 -0.045004 40 64 88
0.242188 -0.390625 -0.042893 38 62 84
0.246094 -0.390625 -0.040831 35 58 79
0.250000 -0.390625 -0.038655 31 53 73
0.253906 -0.390625 -0.035903 32 57 76
0.257812 -0.390625 -0.032434 30 56 77
0.261719 -0.390625 -0.028562 28 52 75
0.265625 -0.390625 -0.023996 29 51 75
0.269531 -0.390625 -0.018261 31 50 74
0.273438 -0.390625 -0.010824 23 32 49
0.277344 -0.390625 0.001701 17 18 32
-0.136719 -0.394531 -0.029521 33 71 101
-0.132812 -0.394531 -0.044057 69 110 141
-0.128906 -0.394531 -0.052268 20 46 70
-0.125000 -0.394531 -0.059121 33 71 101
-0.121094 -0.394531 -0.065720 37 74 108
-0.117188 -0.394531 -0.072000 33 65 95
-0.113281 -0.394531 -0.077697 33 62 90
-0.109375 -0.394531 -0.082683 35 63 89
-0.105469 -0.394531 -0.086893 34 60 86
-0.101562 -0.394531 -0.090675 34 60 85
-0.097656 -0.394531 -0.094129 36 62 87
-0.093750 -0.394531 -0.097175 36 62 86
-0.089844 -0.394531 -0.099779 34 60 83
-0.085938 -0.394531 -0.101937 35 61 84
-0.082031 -0.394531 -0.103853 36 64 88
-0.078125 -0.394531 -0.105496 39 68 92
-0.074219 -0.394531 -0.106718 38 67 90
-0.070312 -0.394531 -0.107473 34 60 83
-0.066406 -0.394531 -0.108058 33 60 82
-0.062500 -0.394531 -0.108458 35 62 84
-0.058594 -0.394531 -0.108451 35 61 82
-0.054688 -0.394531 -0.108099 34 60 80
-0.050781 -0.394531 -0.107427 35 61 81
-0.046875 -0.394531 -0.106427 37 64 84
-0.042969 -0.394531 -0.105150 36 63 84
-0.039062 -0.394531 -0.103542 32 57 78
-0.035156 -0.394531 -0.101871 30 54 76
-0.031250 -0.394531 -0.099985 31 55 77
-0.027344 -0.394531 -0.097499 27 49 72
-0.023438 -0.394531 -0.094453 25 46 67
-0.019531 -0.394531 -0.091551 28 49 69
-0.015625 -0.394531 -0.088344 28 48 65
-0.011719 -0.394531 -0.085127 24 42 56
-0.007812 -0.394531 -0.080912 24 40 53
-0.003906 -0.394531 -0.076199 23 37 52
0.000000 -0.394531 -0.071426 19 33 49
0.003906 -0.394531 -0.064764 17 28 42
0.007812 -0.394531 -0.055860 8 14 24
0.136719 -0.394531 -0.016303 29 44 66
0.140625 -0.394531 -0.020858 25 42 62
0.144531 -0.394531 -0.024114 22 38 57
0.148438 -0.394531 -0.027155 24 40 59
0.152344 -0.394531 -0.030059 27 44 61
0.156250 -0.394531 -0.032794 32 51 67
