ply
    format ascii 1.0
    element vertex 72140
    property float x
    property float y
    property float z
    property uchar red
    property uchar green
    property uchar blue
    end_header
0.152344 -0.507812 -0.110592 35 32 25
0.156250 -0.507812 -0.108129 33 31 24
0.160156 -0.507812 -0.105077 29 28 23
0.164062 -0.507812 -0.101066 27 28 24
0.167969 -0.507812 -0.097006 27 29 25
0.171875 -0.507812 -0.092780 27 30 27
0.175781 -0.507812 -0.086687 25 27 24
0.179688 -0.507812 -0.081602 18 15 15
0.183594 -0.507812 -0.071687 13 8 12
0.187500 -0.507812 -0.061390 25 27 24
-0.203125 -0.511719 -0.078328 55 48 40
-0.199219 -0.511719 -0.088920 57 43 35
-0.195312 -0.511719 -0.096050 60 49 42
-0.191406 -0.511719 -0.102173 55 48 40
-0.187500 -0.511719 -0.107327 44 39 32
-0.183594 -0.511719 -0.111408 39 35 27
-0.179688 -0.511719 -0.115158 34 31 25
-0.175781 -0.511719 -0.118759 31 29 23
-0.171875 -0.511719 -0.121975 33 32 26
-0.167969 -0.511719 -0.124481 39 38 32
-0.164062 -0.511719 -0.126141 42 43 37
-0.160156 -0.511719 -0.127738 34 36 33
-0.156250 -0.511719 -0.128927 24 26 27
-0.152344 -0.511719 -0.129484 20 22 25
-0.148438 -0.511719 -0.129556 16 20 24
-0.144531 -0.511719 -0.129524 15 19 23
-0.140625 -0.511719 -0.129380 15 18 22
-0.136719 -0.511719 -0.128606 17 20 24
-0.132812 -0.511719 -0.127077 27 29 31
-0.128906 -0.511719 -0.125611 36 36 37
-0.125000 -0.511719 -0.123709 37 37 36
-0.121094 -0.511719 -0.121119 44 43 40
-0.117188 -0.511719 -0.117269 49 46 42
-0.113281 -0.511719 -0.113734 40 37 34
-0.109375 -0.511719 -0.109614 31 29 26
-0.105469 -0.511719 -0.105200 37 34 29
-0.101562 -0.511719 -0.095863 52 46 37
-0.097656 -0.511719 -0.088880 43 39 32
0.078125 -0.511719 -0.065224 52 39 36
0.082031 -0.511719 -0.077527 144 119 82
0.085938 -0.511719 -0.085825 107 87 60
0.089844 -0.511719 -0.091827 69 59 44
0.093750 -0.511719 -0.097562 82 72 54
0.097656 -0.511719 -0.101095 91 84 63
0.101562 -0.511719 -0.104575 64 62 46
0.105469 -0.511719 -0.107537 48 46 34
0.109375 -0.511719 -0.110152 39 37 28
0.113281 -0.511719 -0.112490 34 31 23
0.117188 -0.511719 -0.114353 31 28 20
0.121094 -0.511719 -0.116066 29 26 19
0.125000 -0.511719 -0.117393 33 28 20
0.128906 -0.511719 -0.118036 37 30 21
0.132812 -0.511719 -0.117909 43 33 23
0.136719 -0.511719 -0.117627 42 33 23
0.140625 -0.511719 -0.117059 35 28 21
0.144531 -0.511719 -0.115802 33 28 22
0.148438 -0.511719 -0.113709 32 28 22
0.152344 -0.511719 -0.111656 32 29 23
0.156250 -0.511719 -0.109218 35 31 24
0.160156 -0.511719 -0.106156 32 31 23
0.164062 -0.511719 -0.102139 30 30 24
0.167969 -0.511719 -0.098150 25 26 22
0.171875 -0.511719 -0.093960 23 25 22
0.175781 -0.511719 -0.087867 25 27 24
0.179688 -0.511719 -0.082176 23 21 20
0.183594 -0.511719 -0.073099 14 10 14
0.187500 -0.511719 -0.060830 25 27 24
-0.203125 -0.515625 -0.079719 44 34 32
-0.199219 -0.515625 -0.090034 56 44 37
-0.195312 -0.515625 -0.097085 62 51 44
-0.191406 -0.515625 -0.103080 53 47 39
-0.187500 -0.515625 -0.108046 37 32 27
-0.183594 -0.515625 -0.112022 32 28 22
-0.179688 -0.515625 -0.115718 32 29 22
-0.175781 -0.515625 -0.119189 31 29 23
-0.171875 -0.515625 -0.122283 31 30 24
-0.167969 -0.515625 -0.124742 35 35 28
-0.164062 -0.515625 -0.126380 36 36 30
-0.160156 -0.515625 -0.127967 28 30 27
-0.156250 -0.515625 -0.129207 22 25 25
-0.152344 -0.515625 -0.129794 20 24 26
-0.148438 -0.515625 -0.129815 17 20 24
-0.144531 -0.515625 -0.129735 16 20 24
-0.140625 -0.515625 -0.129530 19 23 27
-0.136719 -0.515625 -0.128661 25 29 32
-0.132812 -0.515625 -0.126993 39 40 41
-0.128906 -0.515625 -0.125478 41 42 41
-0.125000 -0.515625 -0.123460 41 42 40
-0.121094 -0.515625 -0.120753 49 49 44
-0.117188 -0.515625 -0.116832 44 41 37
-0.113281 -0.515625 -0.113203 33 31 28
-0.109375 -0.515625 -0.109050 36 35 31
-0.105469 -0.515625 -0.104292 52 50 41
-0.101562 -0.515625 -0.094633 69 63 49
-0.097656 -0.515625 -0.086632 39 35 33
0.078125 -0.515625 -0.066261 89 55 43
0.082031 -0.515625 -0.076666 137 119 83
0.085938 -0.515625 -0.085029 88 70 49
0.089844 -0.515625 -0.091203 40 34 29
0.093750 -0.515625 -0.097097 35 32 27
0.097656 -0.515625 -0.101130 56 51 41
0.101562 -0.515625 -0.104742 63 59 47
0.105469 -0.515625 -0.107965 73 68 52
0.109375 -0.515625 -0.110765 88 81 60
0.113281 -0.515625 -0.113227 86 77 57
0.117188 -0.515625 -0.115220 76 66 48
0.121094 -0.515625 -0.117113 65 56 41
0.125000 -0.515625 -0.118572 53 44 31
0.128906 -0.515625 -0.119282 39 30 22
0.132812 -0.515625 -0.119209 32 23 16
0.136719 -0.515625 -0.118933 32 22 15
0.140625 -0.515625 -0.118324 32 23 17
0.144531 -0.515625 -0.117030 31 25 19
0.148438 -0.515625 -0.114894 34 30 23
0.152344 -0.515625 -0.112828 41 37 28
0.156250 -0.515625 -0.110403 43 38 28
0.160156 -0.515625 -0.107355 36 33 25
0.164062 -0.515625 -0.103338 31 30 24
0.167969 -0.515625 -0.099404 26 27 22
0.171875 -0.515625 -0.095216 22 23 21
0.175781 -0.515625 -0.089361 24 25 22
0.179688 -0.515625 -0.082890 32 29 26
0.183594 -0.515625 -0.073853 22 18 21
0.187500 -0.515625 -0.058693 24 25 22
-0.203125 -0.519531 -0.081427 50 39 37
-0.199219 -0.519531 -0.091292 61 49 41
-0.195312 -0.519531 -0.098422 60 52 44
-0.191406 -0.519531 -0.104218 46 42 36
-0.187500 -0.519531 -0.108896 33 30 25
-0.183594 -0.519531 -0.112749 33 29 23
-0.179688 -0.519531 -0.116285 36 32 25
-0.175781 -0.519531 -0.119649 34 31 25
-0.171875 -0.519531 -0.122732 31 29 23
-0.167969 -0.519531 -0.125150 34 32 26
-0.164062 -0.519531 -0.126765 34 32 26
-0.160156 -0.519531 -0.128360 26 26 24
-0.156250 -0.519531 -0.129602 19 21 22
-0.152344 -0.519531 -0.130170 15 18 20
-0.148438 -0.519531 -0.130113 13 16 19
-0.144531 -0.519531 -0.129901 16 20 23
-0.140625 -0.519531 -0.129564 24 29 31
-0.136719 -0.519531 -0.128640 31 35 36
-0.132812 -0.519531 -0.126881 40 43 41
-0.128906 -0.519531 -0.125286 42 43 41
-0.125000 -0.519531 -0.123146 46 46 44
-0.121094 -0.519531 -0.120364 51 50 45
-0.117188 -0.519531 -0.116514 37 35 31
-0.113281 -0.519531 -0.112796 33 30 27
-0.109375 -0.519531 -0.108673 45 42 36
-0.105469 -0.519531 -0.102756 55 52 41
-0.101562 -0.519531 -0.094219 58 52 41
-0.097656 -0.519531 -0.062572 28 24 27
0.082031 -0.519531 -0.070129 51 41 30
0.085938 -0.519531 -0.083171 41 31 23
0.089844 -0.519531 -0.091256 27 23 20
0.093750 -0.519531 -0.095915 19 18 17
0.097656 -0.519531 -0.101127 26 24 22
0.101562 -0.519531 -0.105008 35 34 27
0.105469 -0.519531 -0.108396 49 46 35
0.109375 -0.519531 -0.111500 72 66 48
0.113281 -0.519531 -0.113989 80 69 51
0.117188 -0.519531 -0.115977 99 84 61
0.121094 -0.519531 -0.117888 118 103 72
0.125000 -0.519531 -0.119339 102 85 59
0.128906 -0.519531 -0.120219 68 54 39
0.132812 -0.519531 -0.120301 36 28 20
0.136719 -0.519531 -0.120205 27 19 14
0.140625 -0.519531 -0.119704 34 24 17
0.144531 -0.519531 -0.118356 39 31 23
0.148438 -0.519531 -0.116206 47 39 29
0.152344 -0.519531 -0.114108 49 44 33
0.156250 -0.519531 -0.111632 43 38 30
0.160156 -0.519531 -0.108654 33 30 24
0.164062 -0.519531 -0.104632 27 26 22
0.167969 -0.519531 -0.100696 27 28 23
0.171875 -0.519531 -0.096217 24 25 23
0.175781 -0.519531 -0.090717 22 22 20
0.179688 -0.519531 -0.084048 28 26 23
0.183594 -0.519531 -0.075613 17 14 17
-0.203125 -0.523438 -0.083308 64 51 46
-0.199219 -0.523438 -0.092912 56 45 38
-0.195312 -0.523438 -0.099844 55 48 41
-0.191406 -0.523438 -0.105482 45 42 36
-0.187500 -0.523438 -0.109963 39 35 29
-0.183594 -0.523438 -0.113653 41 35 28
-0.179688 -0.523438 -0.117067 37 33 26
-0.175781 -0.523438 -0.120360 36 32 27
-0.171875 -0.523438 -0.123391 37 35 29
-0.167969 -0.523438 -0.125777 38 36 29
-0.164062 -0.523438 -0.127348 33 30 24
-0.160156 -0.523438 -0.128895 25 23 20
-0.156250 -0.523438 -0.130108 19 19 19
-0.152344 -0.523438 -0.130593 18 20 22
-0.148438 -0.523438 -0.130460 20 23 25
-0.144531 -0.523438 -0.130163 28 34 34
-0.140625 -0.523438 -0.129679 39 44 43
-0.136719 -0.523438 -0.128666 36 40 39
-0.132812 -0.523438 -0.126850 36 39 37
-0.128906 -0.523438 -0.125177 41 42 39
-0.125000 -0.523438 -0.122878 45 44 42
-0.121094 -0.523438 -0.120056 43 41 37
-0.117188 -0.523438 -0.116294 31 29 25
-0.113281 -0.523438 -0.112159 31 27 23
-0.109375 -0.523438 -0.108410 38 33 28
-0.105469 -0.523438 -0.101745 34 30 25
-0.101562 -0.523438 -0.091217 35 28 24
0.082031 -0.523438 -0.068821 144 119 82
0.085938 -0.523438 -0.079614 25 19 17
0.089844 -0.523438 -0.090005 30 28 23
0.093750 -0.523438 -0.095813 21 22 20
0.097656 -0.523438 -0.101164 25 26 23
0.101562 -0.523438 -0.105324 32 31 26
0.105469 -0.523438 -0.108939 35 34 27
0.109375 -0.523438 -0.112229 42 38 29
0.113281 -0.523438 -0.114741 41 35 27
0.117188 -0.523438 -0.116873 63 54 40
0.121094 -0.523438 -0.118914 109 95 67
0.125000 -0.523438 -0.120512 115 98 70
0.128906 -0.523438 -0.121562 108 87 65
0.132812 -0.523438 -0.121671 79 60 46
0.136719 -0.523438 -0.121579 45 34 26
0.140625 -0.523438 -0.121160 36 28 21
0.144531 -0.523438 -0.119824 37 30 22
0.148438 -0.523438 -0.117637 46 38 29
0.152344 -0.523438 -0.115535 45 39 31
0.156250 -0.523438 -0.113044 40 36 29
0.160156 -0.523438 -0.110082 34 31 26
0.164062 -0.523438 -0.106063 25 24 21
0.167969 -0.523438 -0.102195 27 27 23
0.171875 -0.523438 -0.097536 26 26 23
0.175781 -0.523438 -0.092444 21 21 18
0.179688 -0.523438 -0.085059 29 26 22
0.183594 -0.523438 -0.076772 24 20 21
-0.203125 -0.527344 -0.085293 44 34 32
-0.199219 -0.527344 -0.094656 41 34 30
-0.195312 -0.527344 -0.101407 51 45 38
-0.191406 -0.527344 -0.106820 48 46 38
-0.187500 -0.527344 -0.111092 45 41 34
-0.183594 -0.527344 -0.114598 41 37 30
-0.179688 -0.527344 -0.117913 32 30 25
-0.175781 -0.527344 -0.121098 43 40 33
-0.171875 -0.527344 -0.123960 63 57 46
-0.167969 -0.527344 -0.126278 56 50 41
-0.164062 -0.527344 -0.127812 35 31 26
-0.160156 -0.527344 -0.129345 22 20 18
-0.156250 -0.527344 -0.130600 20 20 19
-0.152344 -0.527344 -0.130979 28 28 27
-0.148438 -0.527344 -0.130736 35 37 35
-0.144531 -0.527344 -0.130400 41 45 41
-0.140625 -0.527344 -0.129808 44 49 44
-0.136719 -0.527344 -0.128668 38 41 39
-0.132812 -0.527344 -0.126738 39 42 39
-0.128906 -0.527344 -0.125008 46 46 42
-0.125000 -0.527344 -0.122658 46 44 40
-0.121094 -0.527344 -0.119811 39 36 33
-0.117188 -0.527344 -0.115931 29 25 23
-0.113281 -0.527344 -0.111325 27 22 19
-0.109375 -0.527344 -0.107843 25 21 19
-0.105469 -0.527344 -0.099451 19 16 15
-0.101562 -0.527344 -0.094023 22 15 15
0.085938 -0.527344 -0.075159 21 19 21
0.089844 -0.527344 -0.088075 35 36 35
0.093750 -0.527344 -0.095809 22 25 27
0.097656 -0.527344 -0.101080 21 24 26
0.101562 -0.527344 -0.105551 29 30 28
0.105469 -0.527344 -0.109319 38 39 33
0.109375 -0.527344 -0.112833 43 41 32
0.113281 -0.527344 -0.115558 38 33 26
0.117188 -0.527344 -0.117911 46 40 30
0.121094 -0.527344 -0.120138 66 58 41
0.125000 -0.527344 -0.121985 64 56 41
0.128906 -0.527344 -0.123088 72 60 46
0.132812 -0.527344 -0.123135 91 72 56
0.136719 -0.527344 -0.122946 89 73 56
0.140625 -0.527344 -0.122533 61 53 42
0.144531 -0.527344 -0.121384 41 35 29
0.148438 -0.527344 -0.119206 46 39 31
0.152344 -0.527344 -0.117113 47 41 34
0.156250 -0.527344 -0.114685 42 36 31
0.160156 -0.527344 -0.111669 35 31 27
0.164062 -0.527344 -0.107583 26 24 22
0.167969 -0.527344 -0.103797 27 26 23
0.171875 -0.527344 -0.099029 26 26 22
0.175781 -0.527344 -0.094279 20 19 17
0.179688 -0.527344 -0.086816 27 24 21
0.183594 -0.527344 -0.078642 27 23 23
-0.203125 -0.531250 -0.087360 50 39 37
-0.199219 -0.531250 -0.096622 44 37 32
-0.195312 -0.531250 -0.102884 55 51 43
-0.191406 -0.531250 -0.108064 53 52 42
-0.187500 -0.531250 -0.112155 49 46 38
-0.183594 -0.531250 -0.115506 46 44 36
-0.179688 -0.531250 -0.118741 42 42 34
-0.175781 -0.531250 -0.121805 79 73 59
-0.171875 -0.531250 -0.124596 120 105 84
-0.167969 -0.531250 -0.126901 107 90 74
-0.164062 -0.531250 -0.128429 80 68 59
-0.160156 -0.531250 -0.129976 45 42 38
-0.156250 -0.531250 -0.131225 31 30 28
-0.152344 -0.531250 -0.131549 38 37 33
-0.148438 -0.531250 -0.131149 42 43 37
-0.144531 -0.531250 -0.130636 35 39 34
-0.140625 -0.531250 -0.129949 32 36 32
-0.136719 -0.531250 -0.128727 36 38 36
-0.132812 -0.531250 -0.126667 43 44 40
-0.128906 -0.531250 -0.124860 42 43 38
-0.125000 -0.531250 -0.122434 37 36 33
-0.121094 -0.531250 -0.119558 33 31 28
-0.117188 -0.531250 -0.115549 26 23 21
-0.113281 -0.531250 -0.110954 22 18 17
-0.109375 -0.531250 -0.106887 22 18 18
-0.105469 -0.531250 -0.096956 18 15 15
-0.101562 -0.531250 -0.084706 25 19 20
0.085938 -0.531250 -0.065386 41 31 23
0.089844 -0.531250 -0.086741 38 40 40
0.093750 -0.531250 -0.095290 24 28 30
0.097656 -0.531250 -0.100778 18 24 26
0.101562 -0.531250 -0.105864 22 26 27
0.105469 -0.531250 -0.109822 34 39 35
0.109375 -0.531250 -0.113590 43 45 36
0.113281 -0.531250 -0.116540 38 38 29
0.117188 -0.531250 -0.119061 36 36 27
0.121094 -0.531250 -0.121428 41 39 29
0.125000 -0.531250 -0.123412 37 35 28
0.128906 -0.531250 -0.124580 37 34 28
0.132812 -0.531250 -0.124671 50 44 37
0.136719 -0.531250 -0.124616 83 72 60
0.140625 -0.531250 -0.124223 92 79 67
0.144531 -0.531250 -0.123118 58 50 44
0.148438 -0.531250 -0.121000 47 41 35
0.152344 -0.531250 -0.118913 44 37 32
0.156250 -0.531250 -0.116501 34 29 26
0.160156 -0.531250 -0.113468 27 24 23
0.164062 -0.531250 -0.109266 24 22 21
0.167969 -0.531250 -0.105411 27 26 23
0.171875 -0.531250 -0.100529 26 26 22
0.175781 -0.531250 -0.095920 24 24 21
0.179688 -0.531250 -0.088567 35 33 27
0.183594 -0.531250 -0.081239 32 30 29
-0.203125 -0.535156 -0.088830 64 51 46
-0.199219 -0.535156 -0.098372 52 43 37
-0.195312 -0.535156 -0.104355 62 57 47
-0.191406 -0.535156 -0.109292 58 59 47
-0.187500 -0.535156 -0.113273 49 48 39
-0.183594 -0.535156 -0.116534 49 48 39
-0.179688 -0.535156 -0.119632 44 43 37
-0.175781 -0.535156 -0.122572 69 65 52
-0.171875 -0.535156 -0.125322 94 83 65
-0.167969 -0.535156 -0.127577 92 77 62
-0.164062 -0.535156 -0.129098 114 98 80
-0.160156 -0.535156 -0.130545 101 92 77
-0.156250 -0.535156 -0.131627 70 66 56
-0.152344 -0.535156 -0.131979 70 64 53
-0.148438 -0.535156 -0.131554 75 72 58
-0.144531 -0.535156 -0.130918 54 56 47
-0.140625 -0.535156 -0.130134 36 38 35
-0.136719 -0.535156 -0.128829 46 46 42
-0.132812 -0.535156 -0.126667 51 50 45
-0.128906 -0.535156 -0.124783 36 35 32
-0.125000 -0.535156 -0.122271 29 27 26
-0.121094 -0.535156 -0.119382 30 28 26
-0.117188 -0.535156 -0.114989 32 30 28
-0.113281 -0.535156 -0.111294 37 33 29
-0.109375 -0.535156 -0.105185 48 41 37
-0.105469 -0.535156 -0.093411 46 40 39
0.089844 -0.535156 -0.083309 43 42 39
0.093750 -0.535156 -0.094946 27 28 28
0.097656 -0.535156 -0.101000 20 26 28
0.101562 -0.535156 -0.105937 18 23 26
0.105469 -0.535156 -0.110674 27 33 33
0.109375 -0.535156 -0.114604 37 44 38
0.113281 -0.535156 -0.117724 36 41 33
0.117188 -0.535156 -0.120439 35 37 29
0.121094 -0.535156 -0.122949 41 40 31
0.125000 -0.535156 -0.125012 44 41 33
0.128906 -0.535156 -0.126279 40 37 32
0.132812 -0.535156 -0.126420 33 33 31
0.136719 -0.535156 -0.126475 41 39 37
0.140625 -0.535156 -0.126109 58 51 45
0.144531 -0.535156 -0.124885 51 44 39
0.148438 -0.535156 -0.122771 45 39 35
0.152344 -0.535156 -0.120749 40 34 30
0.156250 -0.535156 -0.118374 33 28 25
0.160156 -0.535156 -0.115407 30 25 23
0.164062 -0.535156 -0.111189 28 25 23
0.167969 -0.535156 -0.107254 28 27 23
0.171875 -0.535156 -0.102330 30 30 24
0.175781 -0.535156 -0.097518 40 38 31
0.179688 -0.535156 -0.089918 64 57 44
0.183594 -0.535156 -0.083624 57 51 44
-0.203125 -0.539062 -0.090547 49 38 35
-0.199219 -0.539062 -0.099255 39 32 29
-0.195312 -0.539062 -0.105621 52 47 41
-0.191406 -0.539062 -0.110458 57 57 47
-0.187500 -0.539062 -0.114359 47 47 39
-0.183594 -0.539062 -0.117582 49 48 40
-0.179688 -0.539062 -0.120528 40 40 34
-0.175781 -0.539062 -0.123387 40 40 33
-0.171875 -0.539062 -0.126082 39 36 30
-0.167969 -0.539062 -0.128218 35 31 28
-0.164062 -0.539062 -0.129689 64 55 49
-0.160156 -0.539062 -0.131102 109 93 80
-0.156250 -0.539062 -0.132124 117 102 83
-0.152344 -0.539062 -0.132419 108 93 72
-0.148438 -0.539062 -0.131860 120 104 78
-0.144531 -0.539062 -0.131139 97 87 68
-0.140625 -0.539062 -0.130281 47 44 37
-0.136719 -0.539062 -0.128868 40 38 33
-0.132812 -0.539062 -0.126632 38 37 33
-0.128906 -0.539062 -0.124724 28 28 26
-0.125000 -0.539062 -0.122171 25 25 23
-0.121094 -0.539062 -0.119293 32 30 27
-0.117188 -0.539062 -0.114558 46 43 38
-0.113281 -0.539062 -0.110924 56 51 44
-0.109375 -0.539062 -0.102904 71 61 52
-0.105469 -0.539062 -0.093347 56 46 47
0.089844 -0.539062 -0.081435 35 33 31
0.093750 -0.539062 -0.093241 23 21 23
0.097656 -0.539062 -0.101336 21 27 29
0.101562 -0.539062 -0.106000 15 21 24
0.105469 -0.539062 -0.111229 19 25 25
0.109375 -0.539062 -0.115404 28 34 30
0.113281 -0.539062 -0.118952 33 38 32
0.117188 -0.539062 -0.121860 34 36 28
0.121094 -0.539062 -0.124506 35 34 28
0.125000 -0.539062 -0.126723 39 37 31
0.128906 -0.539062 -0.128095 42 42 35
0.132812 -0.539062 -0.128291 39 41 38
0.136719 -0.539062 -0.128344 37 39 36
0.140625 -0.539062 -0.128021 41 39 35
0.144531 -0.539062 -0.126869 42 37 34
0.148438 -0.539062 -0.124774 42 37 33
0.152344 -0.539062 -0.122806 37 32 28
0.156250 -0.539062 -0.120472 32 27 23
0.160156 -0.539062 -0.117441 31 25 21
0.164062 -0.539062 -0.113176 29 25 21
0.167969 -0.539062 -0.109228 31 28 22
0.171875 -0.539062 -0.104269 46 41 32
0.175781 -0.539062 -0.099440 62 56 42
0.179688 -0.539062 -0.091820 73 65 48
0.183594 -0.539062 -0.085646 64 57 50
-0.203125 -0.542969 -0.093784 62 47 42
-0.199219 -0.542969 -0.100444 42 36 31
-0.195312 -0.542969 -0.106461 47 43 37
-0.191406 -0.542969 -0.111724 54 52 44
-0.187500 -0.542969 -0.115417 44 44 37
-0.183594 -0.542969 -0.118660 48 46 39
-0.179688 -0.542969 -0.121552 48 47 39
-0.175781 -0.542969 -0.124341 51 50 41
-0.171875 -0.542969 -0.127015 50 46 39
-0.167969 -0.542969 -0.129016 42 38 34
-0.164062 -0.542969 -0.130315 54 48 44
-0.160156 -0.542969 -0.131735 104 87 76
-0.156250 -0.542969 -0.132793 131 111 88
-0.152344 -0.542969 -0.132898 99 80 60
-0.148438 -0.542969 -0.132193 110 91 64
-0.144531 -0.542969 -0.131434 125 105 79
-0.140625 -0.542969 -0.130443 67 58 48
-0.136719 -0.542969 -0.128963 36 33 29
-0.132812 -0.542969 -0.126676 29 28 27
-0.128906 -0.542969 -0.124694 28 28 27
-0.125000 -0.542969 -0.122062 27 26 25
-0.121094 -0.542969 -0.119185 29 28 25
-0.117188 -0.542969 -0.114497 34 32 29
-0.113281 -0.542969 -0.109727 30 28 26
-0.109375 -0.542969 -0.102670 35 30 29
-0.105469 -0.542969 -0.095752 25 19 25
0.089844 -0.542969 -0.074721 38 40 40
0.093750 -0.542969 -0.092064 19 16 16
0.097656 -0.542969 -0.100502 26 29 30
0.101562 -0.542969 -0.106389 19 25 26
0.105469 -0.542969 -0.111956 16 22 22
0.109375 -0.542969 -0.116558 21 26 24
0.113281 -0.542969 -0.120384 30 34 29
0.117188 -0.542969 -0.123478 32 34 28
0.121094 -0.542969 -0.126275 30 31 26
0.125000 -0.542969 -0.128610 33 33 29
0.128906 -0.542969 -0.130018 38 40 35
0.132812 -0.542969 -0.130284 43 46 42
0.136719 -0.542969 -0.130378 43 45 41
0.140625 -0.542969 -0.130073 41 40 36
0.144531 -0.542969 -0.128975 39 36 32
0.148438 -0.542969 -0.126878 38 34 30
0.152344 -0.542969 -0.124876 35 31 26
0.156250 -0.542969 -0.122587 31 26 22
0.160156 -0.542969 -0.119528 27 23 19
0.164062 -0.542969 -0.115263 29 25 20
0.167969 -0.542969 -0.111268 42 37 28
0.171875 -0.542969 -0.106138 69 60 44
0.175781 -0.542969 -0.101907 69 61 45
0.179688 -0.542969 -0.094930 60 55 41
0.183594 -0.542969 -0.087377 60 53 49
-0.207031 -0.546875 -0.060494 51 45 38
-0.203125 -0.546875 -0.095928 62 44 39
-0.199219 -0.546875 -0.101416 56 45 38
-0.195312 -0.546875 -0.107540 51 45 38
-0.191406 -0.546875 -0.113050 49 46 38
-0.187500 -0.546875 -0.116451 39 38 32
-0.183594 -0.546875 -0.119713 38 37 31
-0.179688 -0.546875 -0.122580 42 41 34
-0.175781 -0.546875 -0.125311 49 48 40
-0.171875 -0.546875 -0.127924 58 56 47
-0.167969 -0.546875 -0.129852 57 54 46
-0.164062 -0.546875 -0.131049 49 44 40
-0.160156 -0.546875 -0.132323 67 55 49
-0.156250 -0.546875 -0.133280 88 70 57
-0.152344 -0.546875 -0.133294 75 59 45
-0.148438 -0.546875 -0.132487 105 88 61
-0.144531 -0.546875 -0.131641 141 118 89
-0.140625 -0.546875 -0.130558 106 85 71
-0.136719 -0.546875 -0.129061 58 51 46
-0.132812 -0.546875 -0.126701 38 37 36
-0.128906 -0.546875 -0.124612 32 32 31
-0.125000 -0.546875 -0.121940 23 23 23
-0.121094 -0.546875 -0.118936 21 21 20
-0.117188 -0.546875 -0.114439 24 23 22
-0.113281 -0.546875 -0.108894 20 20 19
-0.109375 -0.546875 -0.102643 26 23 23
-0.105469 -0.546875 -0.078734 24 18 25
0.093750 -0.546875 -0.089133 14 12 13
0.097656 -0.546875 -0.100443 30 32 31
0.101562 -0.546875 -0.107215 27 32 32
0.105469 -0.546875 -0.112964 19 25 25
0.109375 -0.546875 -0.118007 19 24 23
0.113281 -0.546875 -0.121953 26 31 28
0.117188 -0.546875 -0.125235 31 34 30
0.121094 -0.546875 -0.128173 31 34 29
0.125000 -0.546875 -0.130555 34 35 31
0.128906 -0.546875 -0.131985 36 38 34
0.132812 -0.546875 -0.132277 38 40 36
0.136719 -0.546875 -0.132419 37 39 35
0.140625 -0.546875 -0.132111 36 36 31
0.144531 -0.546875 -0.130967 38 35 29
0.148438 -0.546875 -0.128885 41 37 30
0.152344 -0.546875 -0.126877 42 36 29
0.156250 -0.546875 -0.124629 37 31 25
0.160156 -0.546875 -0.121625 36 31 24
0.164062 -0.546875 -0.117386 50 44 33
0.167969 -0.546875 -0.113354 67 58 43
0.171875 -0.546875 -0.108332 76 65 48
0.175781 -0.546875 -0.103967 61 53 41
0.179688 -0.546875 -0.098018 54 49 39
0.183594 -0.546875 -0.088432 52 46 43
-0.207031 -0.550781 -0.094741 53 44 38
-0.203125 -0.550781 -0.094412 40 23 25
-0.199219 -0.550781 -0.103100 52 38 34
-0.195312 -0.550781 -0.108779 53 44 38
-0.191406 -0.550781 -0.114041 45 41 35
-0.187500 -0.550781 -0.117477 39 36 30
-0.183594 -0.550781 -0.120709 39 37 30
-0.179688 -0.550781 -0.123530 40 38 31
-0.175781 -0.550781 -0.126198 35 34 30
-0.171875 -0.550781 -0.128714 34 34 31
-0.167969 -0.550781 -0.130652 36 34 32
-0.164062 -0.550781 -0.131886 27 24 24
-0.160156 -0.550781 -0.132991 30 25 25
-0.156250 -0.550781 -0.133821 46 36 32
-0.152344 -0.550781 -0.133789 78 61 48
-0.148438 -0.550781 -0.132713 140 121 88
-0.144531 -0.550781 -0.131687 130 110 80
-0.140625 -0.550781 -0.130697 79 63 51
-0.136719 -0.550781 -0.129242 51 46 42
-0.132812 -0.550781 -0.126735 35 35 37
-0.128906 -0.550781 -0.124530 25 27 29
-0.125000 -0.550781 -0.121828 15 18 20
-0.121094 -0.550781 -0.118633 16 18 19
-0.117188 -0.550781 -0.114596 23 24 24
-0.113281 -0.550781 -0.108462 20 21 21
-0.109375 -0.550781 -0.100721 27 24 24
0.093750 -0.550781 -0.087284 11 10 12
0.097656 -0.550781 -0.100169 32 33 32
0.101562 -0.550781 -0.108331 32 37 35
0.105469 -0.550781 -0.114241 21 28 28
0.109375 -0.550781 -0.119554 17 23 22
0.113281 -0.550781 -0.123712 21 26 25
0.117188 -0.550781 -0.127121 27 33 29
0.121094 -0.550781 -0.130099 30 35 31
0.125000 -0.550781 -0.132525 33 36 31
0.128906 -0.550781 -0.134055 36 37 31
0.132812 -0.550781 -0.134348 38 37 31
0.136719 -0.550781 -0.134526 35 34 28
0.140625 -0.550781 -0.134281 30 29 23
0.144531 -0.550781 -0.133162 30 28 23
0.148438 -0.550781 -0.131139 34 30 24
0.152344 -0.550781 -0.129116 32 28 22
0.156250 -0.550781 -0.126845 30 26 21
0.160156 -0.550781 -0.123730 45 39 31
0.164062 -0.550781 -0.119332 76 66 50
0.167969 -0.550781 -0.115282 78 69 52
0.171875 -0.550781 -0.110813 67 59 45
0.175781 -0.550781 -0.105657 62 56 43
0.179688 -0.550781 -0.100677 67 61 47
0.183594 -0.550781 -0.091639 43 36 35
-0.207031 -0.554688 -0.087887 51 33 32
-0.203125 -0.554688 -0.096825 56 32 35
-0.199219 -0.554688 -0.104543 51 37 34
-0.195312 -0.554688 -0.109893 54 45 39
-0.191406 -0.554688 -0.114880 45 40 34
-0.187500 -0.554688 -0.118500 43 39 32
-0.183594 -0.554688 -0.121797 45 41 32
-0.179688 -0.554688 -0.124578 44 40 33
-0.175781 -0.554688 -0.127165 33 32 28
-0.171875 -0.554688 -0.129606 28 27 25
-0.167969 -0.554688 -0.131430 30 29 27
-0.164062 -0.554688 -0.132537 30 27 26
-0.160156 -0.554688 -0.133522 40 36 32
-0.156250 -0.554688 -0.134223 50 43 36
-0.152344 -0.554688 -0.134014 86 70 55
-0.148438 -0.554688 -0.132788 160 139 106
-0.144531 -0.554688 -0.131759 115 96 71
-0.140625 -0.554688 -0.130782 50 41 33
-0.136719 -0.554688 -0.129222 36 32 31
-0.132812 -0.554688 -0.126607 23 24 28
-0.128906 -0.554688 -0.124365 17 19 23
-0.125000 -0.554688 -0.121593 13 16 20
-0.121094 -0.554688 -0.118137 17 21 23
-0.117188 -0.554688 -0.114457 24 27 29
-0.113281 -0.554688 -0.107395 21 23 25
-0.109375 -0.554688 -0.098310 31 28 30
0.093750 -0.554688 -0.087456 19 16 16
0.097656 -0.554688 -0.100366 30 30 27
0.101562 -0.554688 -0.109567 36 39 35
0.105469 -0.554688 -0.116164 25 34 32
0.109375 -0.554688 -0.121459 17 24 23
0.113281 -0.554688 -0.125638 17 23 22
0.117188 -0.554688 -0.129186 24 31 29
0.121094 -0.554688 -0.132224 29 37 34
0.125000 -0.554688 -0.134673 31 36 31
0.128906 -0.554688 -0.136207 33 34 28
0.132812 -0.554688 -0.136467 34 31 25
0.136719 -0.554688 -0.136639 32 29 23
0.140625 -0.554688 -0.136418 32 30 23
0.144531 -0.554688 -0.135299 36 35 26
0.148438 -0.554688 -0.133248 40 36 27
0.152344 -0.554688 -0.131161 38 33 26
0.156250 -0.554688 -0.128900 41 37 28
0.160156 -0.554688 -0.125770 69 60 44
0.164062 -0.554688 -0.121285 94 81 62
0.167969 -0.554688 -0.117219 84 76 58
0.171875 -0.554688 -0.113061 69 62 48
0.175781 -0.554688 -0.107605 70 63 48
0.179688 -0.554688 -0.103715 76 66 52
0.183594 -0.554688 -0.094719 37 31 30
0.187500 -0.554688 -0.080323 22 21 24
-0.207031 -0.558594 -0.088615 24 16 18
-0.203125 -0.558594 -0.098355 38 23 27
-0.199219 -0.558594 -0.105404 44 35 32
-0.195312 -0.558594 -0.110633 53 44 39
-0.191406 -0.558594 -0.115628 46 39 34
-0.187500 -0.558594 -0.119371 47 41 34
-0.183594 -0.558594 -0.122677 44 39 31
-0.179688 -0.558594 -0.125427 38 34 28
-0.175781 -0.558594 -0.127958 28 27 23
-0.171875 -0.558594 -0.130349 23 24 21
-0.167969 -0.558594 -0.132022 27 28 25
-0.164062 -0.558594 -0.133013 35 34 31
-0.160156 -0.558594 -0.133925 58 54 46
-0.156250 -0.558594 -0.134452 58 52 44
-0.152344 -0.558594 -0.134112 59 50 41
-0.148438 -0.558594 -0.132909 103 84 63
-0.144531 -0.558594 -0.131921 73 56 43
-0.140625 -0.558594 -0.130851 39 30 26
-0.136719 -0.558594 -0.129155 30 26 27
-0.132812 -0.558594 -0.126481 16 17 21
-0.128906 -0.558594 -0.124203 13 15 20
-0.125000 -0.558594 -0.121382 14 18 22
-0.121094 -0.558594 -0.117606 21 25 29
-0.117188 -0.558594 -0.113891 28 33 35
-0.113281 -0.558594 -0.105369 25 30 31
-0.109375 -0.558594 -0.098548 35 34 37
0.093750 -0.558594 -0.091312 14 12 13
0.097656 -0.558594 -0.101253 19 17 17
0.101562 -0.558594 -0.110970 34 33 29
0.105469 -0.558594 -0.117939 35 43 40
0.109375 -0.558594 -0.123350 22 32 30
0.113281 -0.558594 -0.127525 16 23 22
0.117188 -0.558594 -0.131138 18 26 26
0.121094 -0.558594 -0.134296 24 33 33
0.125000 -0.558594 -0.136855 26 33 30
0.128906 -0.558594 -0.138371 27 29 24
0.132812 -0.558594 -0.138619 27 25 19
0.136719 -0.558594 -0.138754 40 33 24
0.140625 -0.558594 -0.138483 72 61 43
0.144531 -0.558594 -0.137319 90 77 54
0.148438 -0.558594 -0.135211 89 75 54
0.152344 -0.558594 -0.133081 80 67 50
0.156250 -0.558594 -0.130840 74 61 46
0.160156 -0.558594 -0.127789 79 66 50
0.164062 -0.558594 -0.123311 82 70 53
0.167969 -0.558594 -0.119168 82 73 55
0.171875 -0.558594 -0.114950 65 58 44
0.175781 -0.558594 -0.109612 52 47 35
0.179688 -0.558594 -0.106441 49 43 32
0.183594 -0.558594 -0.096408 21 18 17
0.187500 -0.558594 -0.091683 25 24 24
-0.207031 -0.562500 -0.089160 57 45 40
-0.203125 -0.562500 -0.099140 30 20 23
-0.199219 -0.562500 -0.106500 51 43 39
-0.195312 -0.562500 -0.111642 53 46 40
-0.191406 -0.562500 -0.116639 46 39 33
-0.187500 -0.562500 -0.120500 46 39 32
-0.183594 -0.562500 -0.123641 39 32 27
-0.179688 -0.562500 -0.126272 30 26 22
-0.175781 -0.562500 -0.128700 24 23 19
-0.171875 -0.562500 -0.130992 22 23 20
-0.167969 -0.562500 -0.132565 30 31 27
-0.164062 -0.562500 -0.133453 40 39 34
-0.160156 -0.562500 -0.134242 58 53 45
-0.156250 -0.562500 -0.134615 59 53 44
-0.152344 -0.562500 -0.134229 41 37 30
-0.148438 -0.562500 -0.133066 38 31 24
-0.144531 -0.562500 -0.131998 25 19 16
-0.140625 -0.562500 -0.130834 21 16 16
-0.136719 -0.562500 -0.129135 20 19 20
-0.132812 -0.562500 -0.126336 13 14 18
-0.128906 -0.562500 -0.123899 14 17 21
-0.125000 -0.562500 -0.121044 18 22 26
-0.121094 -0.562500 -0.117059 24 29 33
-0.117188 -0.562500 -0.113421 31 38 40
-0.113281 -0.562500 -0.104047 28 35 37
-0.109375 -0.562500 -0.093747 33 34 38
0.093750 -0.562500 -0.086646 11 10 12
0.097656 -0.562500 -0.102932 20 17 16
0.101562 -0.562500 -0.112440 27 24 22
0.105469 -0.562500 -0.119302 41 45 41
0.109375 -0.562500 -0.125115 35 45 42
0.113281 -0.562500 -0.129366 21 31 30
0.117188 -0.562500 -0.133161 16 25 25
0.121094 -0.562500 -0.136421 19 27 27
0.125000 -0.562500 -0.138995 28 34 30
0.128906 -0.562500 -0.140524 30 33 27
0.132812 -0.562500 -0.140826 27 26 19
0.136719 -0.562500 -0.140985 50 40 27
0.140625 -0.562500 -0.140653 104 79 55
0.144531 -0.562500 -0.139442 111 85 62
0.148438 -0.562500 -0.137295 98 74 56
0.152344 -0.562500 -0.135094 89 67 51
0.156250 -0.562500 -0.132806 74 57 44
0.160156 -0.562500 -0.129720 61 49 38
0.164062 -0.562500 -0.125180 61 53 41
0.167969 -0.562500 -0.121008 77 69 49
0.171875 -0.562500 -0.116761 55 49 34
0.175781 -0.562500 -0.111707 35 31 22
0.179688 -0.562500 -0.108769 29 27 20
0.183594 -0.562500 -0.098405 13 12 11
0.187500 -0.562500 -0.093518 13 12 14
-0.207031 -0.566406 -0.092224 51 33 32
-0.203125 -0.566406 -0.100801 45 33 33
-0.199219 -0.566406 -0.107599 73 61 53
-0.195312 -0.566406 -0.112553 57 49 43
-0.191406 -0.566406 -0.117546 45 38 33
-0.187500 -0.566406 -0.121528 43 36 30
-0.183594 -0.566406 -0.124618 35 28 24
-0.179688 -0.566406 -0.127182 28 23 20
-0.175781 -0.566406 -0.129473 29 26 21
-0.171875 -0.566406 -0.131600 35 33 26
-0.167969 -0.566406 -0.133077 45 43 34
-0.164062 -0.566406 -0.133807 49 48 39
-0.160156 -0.566406 -0.134451 53 50 41
-0.156250 -0.566406 -0.134743 55 51 42
-0.152344 -0.566406 -0.134302 39 37 31
-0.148438 -0.566406 -0.133131 26 23 20
-0.144531 -0.566406 -0.131968 18 16 15
-0.140625 -0.566406 -0.130624 19 18 18
-0.136719 -0.566406 -0.128825 19 19 21
-0.132812 -0.566406 -0.125987 16 17 20
-0.128906 -0.566406 -0.123455 19 22 24
-0.125000 -0.566406 -0.120474 20 23 26
-0.121094 -0.566406 -0.116205 22 26 29
-0.117188 -0.566406 -0.112585 29 35 38
-0.113281 -0.566406 -0.103913 25 31 34
-0.109375 -0.566406 -0.090193 28 29 35
0.093750 -0.566406 -0.046134 37 37 34
0.097656 -0.566406 -0.102570 53 39 30
0.101562 -0.566406 -0.113870 25 21 19
0.105469 -0.566406 -0.120740 37 37 34
0.109375 -0.566406 -0.126833 46 51 45
0.113281 -0.566406 -0.131138 34 45 40
0.117188 -0.566406 -0.135125 20 29 29
0.121094 -0.566406 -0.138543 17 24 23
0.125000 -0.566406 -0.141069 35 41 34
0.128906 -0.566406 -0.142489 58 61 47
0.132812 -0.566406 -0.142740 48 47 35
0.136719 -0.566406 -0.142935 57 48 35
0.140625 -0.566406 -0.142578 90 68 49
0.144531 -0.566406 -0.141335 91 69 49
0.148438 -0.566406 -0.139181 85 62 47
0.152344 -0.566406 -0.136942 84 62 46
0.156250 -0.566406 -0.134608 89 69 50
0.160156 -0.566406 -0.131389 87 71 52
0.164062 -0.566406 -0.126805 86 75 57
0.167969 -0.566406 -0.122819 84 77 56
0.171875 -0.566406 -0.118527 41 39 27
0.175781 -0.566406 -0.113566 26 24 17
0.179688 -0.566406 -0.110551 24 23 19
0.183594 -0.566406 -0.101371 17 17 16
0.187500 -0.566406 -0.094123 28 27 26
-0.207031 -0.570312 -0.094564 24 16 18
-0.203125 -0.570312 -0.103161 35 28 27
-0.199219 -0.570312 -0.108881 69 59 49
-0.195312 -0.570312 -0.113784 58 51 43
-0.191406 -0.570312 -0.118588 44 38 33
-0.187500 -0.570312 -0.122537 39 32 27
-0.183594 -0.570312 -0.125599 35 28 23
-0.179688 -0.570312 -0.128109 32 26 22
-0.175781 -0.570312 -0.130273 42 34 27
-0.171875 -0.570312 -0.132218 48 42 33
-0.167969 -0.570312 -0.133576 46 44 35
-0.164062 -0.570312 -0.134221 47 48 38
-0.160156 -0.570312 -0.134746 44 44 37
-0.156250 -0.570312 -0.134958 38 36 31
-0.152344 -0.570312 -0.134455 27 26 24
-0.148438 -0.570312 -0.133201 20 20 19
-0.144531 -0.570312 -0.131967 20 20 20
-0.140625 -0.570312 -0.130524 21 22 23
-0.136719 -0.570312 -0.128663 19 21 22
-0.132812 -0.570312 -0.125716 21 24 24
-0.128906 -0.570312 -0.123029 27 31 30
-0.125000 -0.570312 -0.119946 23 27 27
-0.121094 -0.570312 -0.115482 22 27 29
-0.117188 -0.570312 -0.111742 28 34 36
-0.113281 -0.570312 -0.103129 22 28 31
-0.109375 -0.570312 -0.084117 21 22 28
0.097656 -0.570312 -0.100200 57 40 32
0.101562 -0.570312 -0.114241 30 23 20
0.105469 -0.570312 -0.121920 33 30 27
0.109375 -0.570312 -0.128145 38 38 33
0.113281 -0.570312 -0.133034 40 45 40
0.117188 -0.570312 -0.136909 30 37 34
0.121094 -0.570312 -0.140422 20 26 25
0.125000 -0.570312 -0.143053 33 37 32
0.128906 -0.570312 -0.144471 74 72 57
0.132812 -0.570312 -0.144612 87 81 64
0.136719 -0.570312 -0.144743 82 74 59
0.140625 -0.570312 -0.144397 91 77 58
0.144531 -0.570312 -0.143151 98 80 58
0.148438 -0.570312 -0.140995 86 66 50
0.152344 -0.570312 -0.138716 69 50 38
0.156250 -0.570312 -0.136322 78 60 44
0.160156 -0.570312 -0.133132 97 79 59
0.164062 -0.570312 -0.128635 111 97 75
0.167969 -0.570312 -0.124769 84 79 60
0.171875 -0.570312 -0.120505 31 31 23
0.175781 -0.570312 -0.115598 22 21 16
0.179688 -0.570312 -0.112364 18 18 16
0.183594 -0.570312 -0.104133 15 16 15
0.187500 -0.570312 -0.095933 32 32 29
-0.210938 -0.574219 -0.077782 44 44 39
-0.207031 -0.574219 -0.099352 57 45 40
-0.203125 -0.574219 -0.104961 37 31 29
-0.199219 -0.574219 -0.110575 59 50 43
-0.195312 -0.574219 -0.115466 59 51 42
-0.191406 -0.574219 -0.119872 45 39 33
-0.187500 -0.574219 -0.123745 36 30 25
-0.183594 -0.574219 -0.126759 38 31 25
-0.179688 -0.574219 -0.129140 41 34 27
-0.175781 -0.574219 -0.131203 49 41 32
-0.171875 -0.574219 -0.133038 48 43 34
-0.167969 -0.574219 -0.134229 46 44 36
-0.164062 -0.574219 -0.134718 54 53 43
-0.160156 -0.574219 -0.135113 44 44 37
-0.156250 -0.574219 -0.135275 29 29 26
-0.152344 -0.574219 -0.134685 21 23 23
-0.148438 -0.574219 -0.133256 19 21 22
-0.144531 -0.574219 -0.131872 21 24 24
-0.140625 -0.574219 -0.130315 21 24 25
-0.136719 -0.574219 -0.128420 19 21 22
-0.132812 -0.574219 -0.125360 27 29 28
-0.128906 -0.574219 -0.122529 38 42 37
-0.125000 -0.574219 -0.119277 30 34 32
-0.121094 -0.574219 -0.114656 28 32 33
-0.117188 -0.574219 -0.110748 37 44 43
-0.113281 -0.574219 -0.101348 34 43 43
-0.109375 -0.574219 -0.076568 38 42 48
0.097656 -0.574219 -0.102737 59 44 33
0.101562 -0.574219 -0.114570 47 35 28
0.105469 -0.574219 -0.123384 34 30 26
0.109375 -0.574219 -0.129498 28 27 24
0.113281 -0.574219 -0.134955 36 35 31
0.117188 -0.574219 -0.138595 43 42 36
0.121094 -0.574219 -0.142147 34 37 32
0.125000 -0.574219 -0.144929 29 31 27
0.128906 -0.574219 -0.146504 42 40 34
0.132812 -0.574219 -0.146646 64 58 48
0.136719 -0.574219 -0.146654 72 66 54
0.140625 -0.574219 -0.146281 71 63 50
0.144531 -0.574219 -0.145039 70 59 45
0.148438 -0.574219 -0.142853 56 45 34
0.152344 -0.574219 -0.140530 41 31 24
0.156250 -0.574219 -0.138015 43 34 26
0.160156 -0.574219 -0.134887 55 46 36
0.164062 -0.574219 -0.130537 83 72 55
0.167969 -0.574219 -0.126590 66 63 49
0.171875 -0.574219 -0.122332 27 27 22
0.175781 -0.574219 -0.117607 22 22 18
0.179688 -0.574219 -0.113907 14 15 14
0.183594 -0.574219 -0.106459 12 13 13
0.187500 -0.574219 -0.099396 25 24 24
-0.210938 -0.578125 -0.092213 90 73 65
-0.207031 -0.578125 -0.100421 48 38 33
-0.203125 -0.578125 -0.106952 43 36 31
-0.199219 -0.578125 -0.112291 52 46 38
-0.195312 -0.578125 -0.116804 54 47 38
-0.191406 -0.578125 -0.121112 53 46 37
-0.187500 -0.578125 -0.124930 47 41 32
-0.183594 -0.578125 -0.127873 53 45 35
-0.179688 -0.578125 -0.130179 52 44 35
-0.175781 -0.578125 -0.132245 51 45 36
-0.171875 -0.578125 -0.134048 51 46 38
-0.167969 -0.578125 -0.135116 51 48 39
-0.164062 -0.578125 -0.135468 52 47 39
-0.160156 -0.578125 -0.135734 32 31 28
-0.156250 -0.578125 -0.135799 21 22 21
-0.152344 -0.578125 -0.135068 21 24 25
-0.148438 -0.578125 -0.133468 22 26 28
-0.144531 -0.578125 -0.131918 23 27 28
-0.140625 -0.578125 -0.130158 21 24 26
-0.136719 -0.578125 -0.128114 20 22 23
-0.132812 -0.578125 -0.124982 33 36 33
-0.128906 -0.578125 -0.122111 50 52 45
-0.125000 -0.578125 -0.118582 36 38 34
-0.121094 -0.578125 -0.113848 27 30 28
-0.117188 -0.578125 -0.109644 34 38 35
-0.113281 -0.578125 -0.100605 35 43 42
-0.109375 -0.578125 -0.065326 45 50 53
0.097656 -0.578125 -0.099944 67 52 37
0.101562 -0.578125 -0.114790 52 38 29
0.105469 -0.578125 -0.124238 33 28 24
0.109375 -0.578125 -0.130619 27 23 20
0.113281 -0.578125 -0.136484 33 28 24
0.117188 -0.578125 -0.140115 42 37 31
0.121094 -0.578125 -0.143867 48 45 37
0.125000 -0.578125 -0.146716 36 35 30
0.128906 -0.578125 -0.148279 26 25 23
0.132812 -0.578125 -0.148487 25 25 23
0.136719 -0.578125 -0.148523 30 28 26
0.140625 -0.578125 -0.148089 31 29 26
0.144531 -0.578125 -0.146795 28 27 23
0.148438 -0.578125 -0.144598 27 25 21
0.152344 -0.578125 -0.142276 30 27 21
0.156250 -0.578125 -0.139701 34 30 24
0.160156 -0.578125 -0.136526 31 28 23
0.164062 -0.578125 -0.132277 37 33 29
0.167969 -0.578125 -0.128306 35 32 29
0.171875 -0.578125 -0.123883 22 22 20
0.175781 -0.578125 -0.119316 22 22 20
0.179688 -0.578125 -0.115204 15 16 16
0.183594 -0.578125 -0.108259 17 18 18
0.187500 -0.578125 -0.102555 38 38 34
-0.214844 -0.582031 -0.023735 31 34 32
-0.210938 -0.582031 -0.095452 25 21 23
-0.207031 -0.582031 -0.102487 26 22 20
-0.203125 -0.582031 -0.108389 50 42 35
-0.199219 -0.582031 -0.114068 48 44 36
-0.195312 -0.582031 -0.118460 39 35 29
-0.191406 -0.582031 -0.122852 49 42 34
-0.187500 -0.582031 -0.126557 53 46 36
-0.183594 -0.582031 -0.129342 57 50 38
-0.179688 -0.582031 -0.131605 51 47 37
-0.175781 -0.582031 -0.133673 53 48 40
-0.171875 -0.582031 -0.135329 58 51 43
-0.167969 -0.582031 -0.136290 49 44 36
-0.164062 -0.582031 -0.136620 36 33 28
-0.160156 -0.582031 -0.136727 22 22 20
-0.156250 -0.582031 -0.136536 18 19 19
-0.152344 -0.582031 -0.135636 20 22 23
-0.148438 -0.582031 -0.133932 21 23 24
-0.144531 -0.582031 -0.132186 19 21 22
-0.140625 -0.582031 -0.130191 18 19 20
-0.136719 -0.582031 -0.127944 20 21 21
-0.132812 -0.582031 -0.124585 38 39 35
-0.128906 -0.582031 -0.121640 58 59 49
-0.125000 -0.582031 -0.117802 42 42 36
-0.121094 -0.582031 -0.113280 28 28 25
-0.117188 -0.582031 -0.108615 37 38 33
-0.113281 -0.582031 -0.099077 45 48 44
0.097656 -0.582031 -0.097396 43 34 25
0.101562 -0.582031 -0.115289 34 26 20
0.105469 -0.582031 -0.124914 30 25 21
0.109375 -0.582031 -0.131533 29 24 20
0.113281 -0.582031 -0.137742 30 25 20
0.117188 -0.582031 -0.141414 31 27 24
0.121094 -0.582031 -0.145344 40 38 33
0.125000 -0.582031 -0.148158 45 43 37
0.128906 -0.582031 -0.149684 34 35 32
0.132812 -0.582031 -0.150055 22 24 24
0.136719 -0.582031 -0.150290 19 20 20
0.140625 -0.582031 -0.149907 21 23 22
0.144531 -0.582031 -0.148580 21 24 23
0.148438 -0.582031 -0.146376 21 24 22
0.152344 -0.582031 -0.144037 25 27 24
0.156250 -0.582031 -0.141454 31 30 26
0.160156 -0.582031 -0.138238 26 25 22
0.164062 -0.582031 -0.134017 25 24 22
0.167969 -0.582031 -0.130032 28 26 24
0.171875 -0.582031 -0.125531 26 25 22
0.175781 -0.582031 -0.121145 24 23 21
0.179688 -0.582031 -0.116702 16 17 16
0.183594 -0.582031 -0.109963 17 17 17
0.187500 -0.582031 -0.104967 24 23 22
0.191406 -0.582031 -0.088426 27 25 25
-0.214844 -0.585938 -0.096059 30 31 28
-0.210938 -0.585938 -0.098697 44 44 39
-0.207031 -0.585938 -0.104642 35 32 28
-0.203125 -0.585938 -0.110751 53 48 40
-0.199219 -0.585938 -0.116225 52 49 41
-0.195312 -0.585938 -0.120395 40 37 30
-0.191406 -0.585938 -0.124748 41 38 30
-0.187500 -0.585938 -0.128354 42 39 31
-0.183594 -0.585938 -0.131163 46 44 35
-0.179688 -0.585938 -0.133404 48 47 38
-0.175781 -0.585938 -0.135393 52 50 41
-0.171875 -0.585938 -0.136917 49 43 36
-0.167969 -0.585938 -0.137756 35 31 27
-0.164062 -0.585938 -0.137986 27 25 22
-0.160156 -0.585938 -0.137891 23 23 21
-0.156250 -0.585938 -0.137477 21 22 21
-0.152344 -0.585938 -0.136410 21 23 23
-0.148438 -0.585938 -0.134481 20 22 22
-0.144531 -0.585938 -0.132444 18 19 19
-0.140625 -0.585938 -0.130170 18 19 19
-0.136719 -0.585938 -0.127686 28 28 27
-0.132812 -0.585938 -0.124185 53 50 44
-0.128906 -0.585938 -0.121183 77 72 60
-0.125000 -0.585938 -0.116980 69 64 52
-0.121094 -0.585938 -0.112671 57 53 43
-0.117188 -0.585938 -0.106787 82 74 59
-0.113281 -0.585938 -0.096884 94 86 70
0.097656 -0.585938 -0.094966 46 36 25
0.101562 -0.585938 -0.115754 32 25 19
0.105469 -0.585938 -0.125715 33 27 21
0.109375 -0.585938 -0.132342 33 27 21
0.113281 -0.585938 -0.138802 33 27 21
0.117188 -0.585938 -0.142561 29 25 22
0.121094 -0.585938 -0.146564 32 30 28
0.125000 -0.585938 -0.149467 38 39 36
0.128906 -0.585938 -0.151151 41 45 41
0.132812 -0.585938 -0.151647 32 36 35
0.136719 -0.585938 -0.151930 20 24 24
0.140625 -0.585938 -0.151642 18 22 22
0.144531 -0.585938 -0.150401 19 24 23
0.148438 -0.585938 -0.148205 20 24 23
0.152344 -0.585938 -0.145846 20 23 22
0.156250 -0.585938 -0.143247 24 25 23
0.160156 -0.585938 -0.139976 23 24 21
0.164062 -0.585938 -0.135826 23 23 20
0.167969 -0.585938 -0.131786 25 25 21
0.171875 -0.585938 -0.127209 24 23 20
0.175781 -0.585938 -0.122956 22 21 18
0.179688 -0.585938 -0.118238 19 19 17
0.183594 -0.585938 -0.111848 20 20 18
0.187500 -0.585938 -0.105758 26 24 22
0.191406 -0.585938 -0.101174 30 26 25
-0.214844 -0.589844 -0.093284 32 36 32
-0.210938 -0.589844 -0.101955 28 28 26
-0.207031 -0.589844 -0.108056 25 25 23
-0.203125 -0.589844 -0.113636 40 40 35
-0.199219 -0.589844 -0.118882 60 59 50
-0.195312 -0.589844 -0.123086 58 56 46
-0.191406 -0.589844 -0.127189 52 50 40
-0.187500 -0.589844 -0.130758 46 45 37
-0.183594 -0.589844 -0.133557 50 48 40
-0.179688 -0.589844 -0.135656 51 49 41
-0.175781 -0.589844 -0.137507 43 40 34
-0.171875 -0.589844 -0.138961 33 30 25
-0.167969 -0.589844 -0.139612 26 24 21
-0.164062 -0.589844 -0.139573 25 24 22
-0.160156 -0.589844 -0.139233 26 26 23
-0.156250 -0.589844 -0.138615 24 26 23
-0.152344 -0.589844 -0.137363 22 25 23
-0.148438 -0.589844 -0.135220 22 24 23
-0.144531 -0.589844 -0.132973 17 18 19
-0.140625 -0.589844 -0.130483 16 16 18
-0.136719 -0.589844 -0.127777 28 26 26
-0.132812 -0.589844 -0.124082 48 43 38
-0.128906 -0.589844 -0.120788 71 64 53
-0.125000 -0.589844 -0.116145 88 81 63
-0.121094 -0.589844 -0.112024 89 80 61
-0.117188 -0.589844 -0.105368 103 90 68
-0.113281 -0.589844 -0.097285 91 78 60
0.097656 -0.589844 -0.095904 29 22 17
0.101562 -0.589844 -0.116058 25 19 15
0.105469 -0.589844 -0.126132 30 24 19
0.109375 -0.589844 -0.132919 32 26 19
0.113281 -0.589844 -0.139625 36 30 22
0.117188 -0.589844 -0.143593 31 27 22
0.121094 -0.589844 -0.147731 28 26 24
0.125000 -0.589844 -0.150779 29 30 29
0.128906 -0.589844 -0.152625 34 37 36
0.132812 -0.589844 -0.153198 40 43 39
0.136719 -0.589844 -0.153447 32 36 33
0.140625 -0.589844 -0.153168 23 28 26
0.144531 -0.589844 -0.152041 19 24 23
0.148438 -0.589844 -0.149883 18 22 21
0.152344 -0.589844 -0.147480 17 21 20
0.156250 -0.589844 -0.144903 18 21 20
0.160156 -0.589844 -0.141653 19 21 20
0.164062 -0.589844 -0.137668 20 21 20
0.167969 -0.589844 -0.133733 21 21 19
0.171875 -0.589844 -0.129167 20 19 17
0.175781 -0.589844 -0.124906 21 19 17
0.179688 -0.589844 -0.119675 23 21 18
0.183594 -0.589844 -0.114194 24 22 19
0.187500 -0.589844 -0.107390 32 28 24
0.191406 -0.589844 -0.100862 38 32 28
-0.218750 -0.593750 -0.078711 20 20 21
-0.214844 -0.593750 -0.099068 31 34 32
-0.210938 -0.593750 -0.104159 28 29 27
-0.207031 -0.593750 -0.111359 27 27 25
-0.203125 -0.593750 -0.116815 40 41 37
-0.199219 -0.593750 -0.121610 65 67 57
-0.195312 -0.593750 -0.125927 68 68 56
-0.191406 -0.593750 -0.130053 64 62 50
-0.187500 -0.593750 -0.133585 58 56 46
-0.183594 -0.593750 -0.136232 52 51 42
-0.179688 -0.593750 -0.138182 41 39 34
-0.175781 -0.593750 -0.139866 31 30 26
-0.171875 -0.593750 -0.141141 26 25 22
-0.167969 -0.593750 -0.141566 25 24 22
-0.164062 -0.593750 -0.141271 27 27 24
-0.160156 -0.593750 -0.140714 28 29 26
-0.156250 -0.593750 -0.139822 26 28 25
-0.152344 -0.593750 -0.138319 23 26 23
-0.148438 -0.593750 -0.136046 21 23 22
-0.144531 -0.593750 -0.133659 15 16 17
-0.140625 -0.593750 -0.130939 14 13 14
-0.136719 -0.593750 -0.127996 21 20 19
-0.132812 -0.593750 -0.124100 30 27 24
-0.128906 -0.593750 -0.120418 43 38 32
-0.125000 -0.593750 -0.115463 75 66 52
-0.121094 -0.593750 -0.111055 91 81 62
-0.117188 -0.593750 -0.104204 91 78 60
-0.113281 -0.593750 -0.097233 72 61 48
0.097656 -0.593750 -0.096337 20 14 12
0.101562 -0.593750 -0.116903 18 13 10
0.105469 -0.593750 -0.126481 22 18 14
0.109375 -0.593750 -0.133730 25 21 15
0.113281 -0.593750 -0.140377 38 32 22
0.117188 -0.593750 -0.144545 35 30 23
0.121094 -0.593750 -0.148803 29 27 23
0.125000 -0.593750 -0.151951 28 28 26
0.128906 -0.593750 -0.153893 29 30 28
0.132812 -0.593750 -0.154657 37 38 34
0.136719 -0.593750 -0.155070 44 45 40
0.140625 -0.593750 -0.154793 39 43 39
0.144531 -0.593750 -0.153685 31 36 34
0.148438 -0.593750 -0.151570 25 29 29
0.152344 -0.593750 -0.149168 21 24 24
0.156250 -0.593750 -0.146615 19 21 22
0.160156 -0.593750 -0.143391 19 20 21
0.164062 -0.593750 -0.139537 20 20 19
0.167969 -0.593750 -0.135711 19 19 18
0.171875 -0.593750 -0.131194 17 17 14
0.175781 -0.593750 -0.126820 18 16 13
0.179688 -0.593750 -0.121549 22 19 15
0.183594 -0.593750 -0.116205 23 20 17
0.187500 -0.593750 -0.111226 31 28 24
0.191406 -0.593750 -0.104209 32 27 23
-0.218750 -0.597656 -0.091926 22 20 22
-0.214844 -0.597656 -0.101263 30 31 28
-0.210938 -0.597656 -0.108342 31 32 29
-0.207031 -0.597656 -0.115172 32 34 30
-0.203125 -0.597656 -0.120303 44 47 41
-0.199219 -0.597656 -0.124751 66 67 57
-0.195312 -0.597656 -0.129136 63 62 52
-0.191406 -0.597656 -0.133345 56 53 43
-0.187500 -0.597656 -0.136821 50 47 38
-0.183594 -0.597656 -0.139356 39 38 32
-0.179688 -0.597656 -0.141193 29 28 26
-0.175781 -0.597656 -0.142654 26 26 24
-0.171875 -0.597656 -0.143636 25 25 23
-0.167969 -0.597656 -0.143839 25 24 22
-0.164062 -0.597656 -0.143324 25 26 23
-0.160156 -0.597656 -0.142476 25 26 24
-0.156250 -0.597656 -0.141266 23 26 23
-0.152344 -0.597656 -0.139469 21 24 23
-0.148438 -0.597656 -0.136979 18 20 21
-0.144531 -0.597656 -0.134452 13 14 16
-0.140625 -0.597656 -0.131453 13 14 15
-0.136719 -0.597656 -0.128218 24 22 21
-0.132812 -0.597656 -0.124220 30 26 23
-0.128906 -0.597656 -0.120184 34 28 24
-0.125000 -0.597656 -0.115091 61 52 41
-0.121094 -0.597656 -0.109961 92 80 63
-0.117188 -0.597656 -0.102836 91 80 62
-0.113281 -0.597656 -0.093214 68 59 48
0.097656 -0.597656 -0.096024 46 36 25
0.101562 -0.597656 -0.118449 21 16 12
0.105469 -0.597656 -0.127007 22 18 14
0.109375 -0.597656 -0.133972 24 20 15
0.113281 -0.597656 -0.141213 40 34 24
0.117188 -0.597656 -0.145544 43 37 27
0.121094 -0.597656 -0.149913 34 31 25
0.125000 -0.597656 -0.153328 31 30 26
0.128906 -0.597656 -0.155423 27 27 24
0.132812 -0.597656 -0.156367 27 27 24
0.136719 -0.597656 -0.156924 32 31 27
0.140625 -0.597656 -0.156629 37 37 31
0.144531 -0.597656 -0.155428 41 42 35
0.148438 -0.597656 -0.153276 38 40 34
0.152344 -0.597656 -0.150874 31 34 30
0.156250 -0.597656 -0.148297 27 29 26
0.160156 -0.597656 -0.145102 24 25 23
0.164062 -0.597656 -0.141373 22 23 20
0.167969 -0.597656 -0.137509 26 26 22
0.171875 -0.597656 -0.132942 31 31 24
0.175781 -0.597656 -0.128519 36 34 25
0.179688 -0.597656 -0.123694 50 43 31
0.183594 -0.597656 -0.117770 62 55 41
0.187500 -0.597656 -0.114285 78 70 53
0.191406 -0.597656 -0.105683 63 54 43
0.195312 -0.597656 -0.093137 43 35 29
-0.222656 -0.601562 -0.034506 43 39 31
-0.218750 -0.601562 -0.096674 17 15 17
-0.214844 -0.601562 -0.105373 29 29 27
-0.210938 -0.601562 -0.112754 36 38 34
-0.207031 -0.601562 -0.119187 42 44 39
-0.203125 -0.601562 -0.124000 52 55 47
-0.199219 -0.601562 -0.128725 63 64 53
-0.195312 -0.601562 -0.133194 49 48 39
-0.191406 -0.601562 -0.137240 35 33 27
-0.187500 -0.601562 -0.140625 30 28 24
-0.183594 -0.601562 -0.143005 26 26 24
-0.179688 -0.601562 -0.144657 24 25 24
-0.175781 -0.601562 -0.145871 26 27 26
-0.171875 -0.601562 -0.146513 26 26 24
-0.167969 -0.601562 -0.146414 24 25 23
-0.164062 -0.601562 -0.145553 24 25 22
-0.160156 -0.601562 -0.144289 23 25 23
-0.156250 -0.601562 -0.142733 24 27 25
-0.152344 -0.601562 -0.140696 21 24 24
-0.148438 -0.601562 -0.138045 16 18 19
-0.144531 -0.601562 -0.135389 13 15 17
-0.140625 -0.601562 -0.132191 18 20 21
-0.136719 -0.601562 -0.128692 31 31 28
-0.132812 -0.601562 -0.124397 34 30 26
-0.128906 -0.601562 -0.120032 29 25 21
-0.125000 -0.601562 -0.114881 49 44 34
-0.121094 -0.601562 -0.109318 90 80 62
