ply
    format ascii 1.0
    element vertex 82428
    property float x
    property float y
    property float z
    property uchar red
    property uchar green
    property uchar blue
    end_header
0.339844 -0.050781 0.092167 179 179 174
0.343750 -0.050781 0.086829 175 171 159
0.347656 -0.050781 0.080304 142 138 118
0.351562 -0.050781 0.072736 84 75 60
0.355469 -0.050781 0.063500 56 49 48
0.359375 -0.050781 0.053132 150 146 147
0.363281 -0.050781 0.045637 202 198 199
0.367188 -0.050781 0.041332 210 207 208
0.371094 -0.050781 0.060479 221 220 221
0.375000 -0.050781 0.074480 230 229 230
0.378906 -0.050781 0.079755 237 236 236
0.382812 -0.050781 0.083800 241 240 240
0.386719 -0.050781 0.087560 244 244 244
0.390625 -0.050781 0.090878 248 247 248
0.394531 -0.050781 0.093903 249 248 249
0.398438 -0.050781 0.096893 248 248 249
0.402344 -0.050781 0.099865 247 247 248
0.406250 -0.050781 0.102557 245 244 246
0.410156 -0.050781 0.104876 244 244 245
0.414062 -0.050781 0.106070 245 244 246
0.417969 -0.050781 0.106614 246 245 246
0.421875 -0.050781 0.106649 246 246 246
0.425781 -0.050781 0.105993 246 246 246
0.429688 -0.050781 0.105007 245 245 245
0.433594 -0.050781 0.103639 245 245 245
0.437500 -0.050781 0.101869 244 244 244
0.441406 -0.050781 0.099813 244 244 244
0.445312 -0.050781 0.096843 244 244 244
0.449219 -0.050781 0.093788 244 244 244
0.453125 -0.050781 0.091254 245 245 245
0.457031 -0.050781 0.088768 246 246 246
0.460938 -0.050781 0.084332 245 245 245
0.464844 -0.050781 0.076881 241 240 240
0.468750 -0.050781 0.071873 237 236 236
-0.203125 -0.054688 0.118432 136 98 82
-0.199219 -0.054688 0.127832 121 91 78
-0.195312 -0.054688 0.138978 138 112 93
-0.191406 -0.054688 0.148360 188 159 134
-0.187500 -0.054688 0.154757 195 159 131
-0.183594 -0.054688 0.157869 191 147 117
-0.179688 -0.054688 0.159404 195 150 119
-0.175781 -0.054688 0.161174 197 153 125
-0.171875 -0.054688 0.162416 195 153 127
-0.167969 -0.054688 0.163802 192 153 128
-0.164062 -0.054688 0.165464 192 155 130
-0.160156 -0.054688 0.166997 194 156 131
-0.156250 -0.054688 0.167754 196 158 132
-0.152344 -0.054688 0.167552 199 158 132
-0.148438 -0.054688 0.166444 200 157 132
-0.144531 -0.054688 0.165071 199 156 130
-0.140625 -0.054688 0.162158 198 157 130
-0.136719 -0.054688 0.158876 202 163 133
-0.132812 -0.054688 0.154704 203 167 134
-0.128906 -0.054688 0.148907 203 167 134
-0.125000 -0.054688 0.139359 205 168 134
-0.121094 -0.054688 0.125925 201 163 125
-0.117188 -0.054688 0.108748 170 127 95
-0.113281 -0.054688 0.062267 219 178 150
-0.109375 -0.054688 0.038726 243 226 207
-0.105469 -0.054688 0.042352 190 165 142
-0.101562 -0.054688 0.048984 137 126 117
-0.097656 -0.054688 0.056565 170 170 166
-0.093750 -0.054688 0.062820 164 170 171
-0.089844 -0.054688 0.068795 172 178 181
-0.085938 -0.054688 0.075242 181 186 190
-0.082031 -0.054688 0.081772 186 190 195
-0.078125 -0.054688 0.087390 189 193 198
-0.074219 -0.054688 0.091850 189 194 199
-0.070312 -0.054688 0.094929 191 197 202
-0.066406 -0.054688 0.098193 192 199 204
-0.062500 -0.054688 0.101528 193 199 204
-0.058594 -0.054688 0.105111 191 198 203
-0.054688 -0.054688 0.109190 190 197 202
-0.050781 -0.054688 0.113242 188 196 201
-0.046875 -0.054688 0.117285 190 197 201
-0.042969 -0.054688 0.120856 191 198 202
-0.039062 -0.054688 0.123748 188 196 200
-0.035156 -0.054688 0.126147 183 192 196
-0.031250 -0.054688 0.128234 171 181 186
-0.027344 -0.054688 0.129886 160 170 178
-0.023438 -0.054688 0.131198 148 160 169
-0.019531 -0.054688 0.132336 133 146 158
-0.015625 -0.054688 0.133205 118 132 145
-0.011719 -0.054688 0.134386 111 125 138
-0.007812 -0.054688 0.136008 123 136 147
-0.003906 -0.054688 0.137669 142 153 161
0.000000 -0.054688 0.139104 165 173 177
0.003906 -0.054688 0.139996 179 185 188
0.007812 -0.054688 0.140349 184 189 191
0.011719 -0.054688 0.140459 183 188 189
0.015625 -0.054688 0.140519 170 176 179
0.019531 -0.054688 0.140308 154 162 167
0.023438 -0.054688 0.139790 142 152 156
0.027344 -0.054688 0.139159 134 145 150
0.031250 -0.054688 0.138499 133 144 148
0.035156 -0.054688 0.137932 136 145 149
0.039062 -0.054688 0.137577 138 147 150
0.042969 -0.054688 0.137254 141 149 151
0.046875 -0.054688 0.136922 142 151 152
0.050781 -0.054688 0.136844 143 151 153
0.054688 -0.054688 0.137025 142 151 153
0.058594 -0.054688 0.137297 141 150 154
0.062500 -0.054688 0.137646 139 148 152
0.066406 -0.054688 0.137853 137 146 151
0.070312 -0.054688 0.137810 137 147 152
0.074219 -0.054688 0.137483 141 151 155
0.078125 -0.054688 0.137028 148 157 160
0.082031 -0.054688 0.136357 152 161 164
0.085938 -0.054688 0.135469 156 163 166
0.089844 -0.054688 0.134467 159 167 168
0.093750 -0.054688 0.133414 160 168 170
0.097656 -0.054688 0.132330 154 164 167
0.101562 -0.054688 0.131198 146 158 162
0.105469 -0.054688 0.129957 142 156 160
0.109375 -0.054688 0.128060 136 149 154
0.113281 -0.054688 0.125704 118 131 137
0.117188 -0.054688 0.123134 115 128 133
0.121094 -0.054688 0.120378 126 137 141
0.125000 -0.054688 0.116134 115 124 130
0.128906 -0.054688 0.108308 96 106 113
0.132812 -0.054688 0.105480 96 107 113
0.136719 -0.054688 0.104623 110 118 123
0.140625 -0.054688 0.105525 120 127 131
0.144531 -0.054688 0.107550 128 136 143
0.148438 -0.054688 0.110595 132 141 149
0.152344 -0.054688 0.113490 126 136 142
0.156250 -0.054688 0.116065 130 140 144
0.160156 -0.054688 0.119249 144 154 157
0.164062 -0.054688 0.122816 148 158 161
0.167969 -0.054688 0.126088 145 156 159
0.171875 -0.054688 0.128972 146 157 160
0.175781 -0.054688 0.131531 145 155 158
0.179688 -0.054688 0.133870 139 149 153
0.183594 -0.054688 0.136124 141 150 155
0.187500 -0.054688 0.138154 146 154 158
0.191406 -0.054688 0.139990 147 155 159
0.195312 -0.054688 0.141390 147 155 159
0.199219 -0.054688 0.142662 149 157 162
0.203125 -0.054688 0.143834 152 159 164
0.207031 -0.054688 0.144644 152 158 164
0.210938 -0.054688 0.145017 153 159 165
0.214844 -0.054688 0.145066 154 160 166
0.218750 -0.054688 0.144881 159 164 169
0.222656 -0.054688 0.144299 159 164 170
0.226562 -0.054688 0.143484 157 162 168
0.230469 -0.054688 0.142527 160 164 170
0.234375 -0.054688 0.141560 164 168 173
0.238281 -0.054688 0.140697 165 169 174
0.242188 -0.054688 0.140014 164 168 173
0.246094 -0.054688 0.139532 162 166 171
0.250000 -0.054688 0.139298 160 165 170
0.253906 -0.054688 0.139297 162 166 171
0.257812 -0.054688 0.139656 164 168 174
0.261719 -0.054688 0.139964 167 171 176
0.265625 -0.054688 0.140148 167 171 177
0.269531 -0.054688 0.140109 167 172 178
0.273438 -0.054688 0.139767 168 173 179
0.277344 -0.054688 0.139117 169 176 181
0.281250 -0.054688 0.137994 171 178 184
0.285156 -0.054688 0.136535 172 180 185
0.289062 -0.054688 0.134684 173 181 186
0.292969 -0.054688 0.132576 175 182 186
0.296875 -0.054688 0.130250 176 182 186
0.300781 -0.054688 0.127803 178 183 187
0.304688 -0.054688 0.125197 179 184 187
0.308594 -0.054688 0.122481 179 184 187
0.312500 -0.054688 0.119692 179 184 186
0.316406 -0.054688 0.116641 177 182 185
0.320312 -0.054688 0.113022 175 181 184
0.324219 -0.054688 0.109326 174 180 182
0.328125 -0.054688 0.105636 177 182 184
0.332031 -0.054688 0.101639 180 182 183
0.335938 -0.054688 0.097211 171 174 174
0.339844 -0.054688 0.092694 171 173 170
0.343750 -0.054688 0.087917 175 173 164
0.347656 -0.054688 0.082075 154 152 135
0.351562 -0.054688 0.075067 88 86 70
0.355469 -0.054688 0.065849 44 40 38
0.359375 -0.054688 0.055066 102 98 99
0.363281 -0.054688 0.046404 194 191 192
0.367188 -0.054688 0.040280 220 216 217
0.371094 -0.054688 0.051875 232 230 231
0.375000 -0.054688 0.072041 237 236 236
0.378906 -0.054688 0.078470 237 235 236
0.382812 -0.054688 0.083900 235 233 234
0.386719 -0.054688 0.088447 241 240 240
0.390625 -0.054688 0.091884 247 248 247
0.394531 -0.054688 0.094963 248 248 248
0.398438 -0.054688 0.098295 248 249 249
0.402344 -0.054688 0.101676 248 248 249
0.406250 -0.054688 0.104622 244 244 246
0.410156 -0.054688 0.107038 241 240 243
0.414062 -0.054688 0.108265 241 240 242
0.417969 -0.054688 0.108815 242 241 243
0.421875 -0.054688 0.108745 243 243 244
0.425781 -0.054688 0.107958 244 244 244
0.429688 -0.054688 0.106747 244 244 244
0.433594 -0.054688 0.105086 245 245 245
0.437500 -0.054688 0.103182 246 246 246
0.441406 -0.054688 0.100968 245 245 245
0.445312 -0.054688 0.097995 244 244 244
0.449219 -0.054688 0.094955 244 244 244
0.453125 -0.054688 0.092319 245 245 245
0.457031 -0.054688 0.089858 245 245 245
0.460938 -0.054688 0.086189 243 243 243
0.464844 -0.054688 0.081057 239 239 239
0.468750 -0.054688 0.078141 238 237 238
-0.203125 -0.058594 0.115864 116 79 64
-0.199219 -0.058594 0.127980 133 100 82
-0.195312 -0.058594 0.140107 156 131 107
-0.191406 -0.058594 0.148874 190 163 137
-0.187500 -0.058594 0.154751 196 160 132
-0.183594 -0.058594 0.158038 190 147 117
-0.179688 -0.058594 0.159408 194 150 120
-0.175781 -0.058594 0.160942 199 157 128
-0.171875 -0.058594 0.162122 197 157 130
-0.167969 -0.058594 0.163521 194 156 130
-0.164062 -0.058594 0.165250 194 159 132
-0.160156 -0.058594 0.166960 197 163 134
-0.156250 -0.058594 0.167965 200 165 135
-0.152344 -0.058594 0.167944 202 165 134
-0.148438 -0.058594 0.166895 202 162 133
-0.144531 -0.058594 0.165739 204 161 135
-0.140625 -0.058594 0.163430 206 165 138
-0.136719 -0.058594 0.160695 208 168 140
-0.132812 -0.058594 0.157277 205 169 139
-0.128906 -0.058594 0.152221 205 172 142
-0.125000 -0.058594 0.142726 209 173 143
-0.121094 -0.058594 0.128609 199 160 125
-0.117188 -0.058594 0.109985 170 120 92
-0.113281 -0.058594 0.082096 227 180 156
-0.109375 -0.058594 0.043718 249 237 223
-0.105469 -0.058594 0.047268 232 211 188
-0.101562 -0.058594 0.052136 185 167 148
-0.097656 -0.058594 0.058610 194 191 183
-0.093750 -0.058594 0.064374 189 193 190
-0.089844 -0.058594 0.070086 185 191 192
-0.085938 -0.058594 0.076928 189 194 197
-0.082031 -0.058594 0.083984 191 196 200
-0.078125 -0.058594 0.089868 192 196 201
-0.074219 -0.058594 0.094343 193 198 203
-0.070312 -0.058594 0.097366 194 200 205
-0.066406 -0.058594 0.100621 195 203 207
-0.062500 -0.058594 0.104050 195 203 208
-0.058594 -0.058594 0.107808 194 202 207
-0.054688 -0.058594 0.112180 195 203 208
-0.050781 -0.058594 0.116530 193 202 206
-0.046875 -0.058594 0.120723 191 200 205
-0.042969 -0.058594 0.124396 192 201 205
-0.039062 -0.058594 0.127366 196 204 207
-0.035156 -0.058594 0.129917 199 207 210
-0.031250 -0.058594 0.132032 198 205 208
-0.027344 -0.058594 0.133604 195 202 206
-0.023438 -0.058594 0.134819 192 199 204
-0.019531 -0.058594 0.135728 187 195 200
-0.015625 -0.058594 0.136391 178 186 192
-0.011719 -0.058594 0.137232 166 175 181
-0.007812 -0.058594 0.138326 153 162 169
-0.003906 -0.058594 0.139288 134 144 154
0.000000 -0.058594 0.140006 124 133 143
0.003906 -0.058594 0.140368 117 127 139
0.007812 -0.058594 0.140345 124 134 144
0.011719 -0.058594 0.140264 143 152 157
0.015625 -0.058594 0.140217 156 164 169
0.019531 -0.058594 0.140021 171 178 180
0.023438 -0.058594 0.139602 180 186 186
0.027344 -0.058594 0.139055 172 181 182
0.031250 -0.058594 0.138432 161 172 173
0.035156 -0.058594 0.137871 150 161 165
0.039062 -0.058594 0.137634 143 154 158
0.042969 -0.058594 0.137423 141 151 154
0.046875 -0.058594 0.137142 138 147 149
0.050781 -0.058594 0.137160 138 146 148
0.054688 -0.058594 0.137336 141 148 150
0.058594 -0.058594 0.137512 141 148 151
0.062500 -0.058594 0.137753 140 148 151
0.066406 -0.058594 0.137678 141 148 151
0.070312 -0.058594 0.137353 140 148 152
0.074219 -0.058594 0.136990 138 147 151
0.078125 -0.058594 0.136460 138 147 151
0.082031 -0.058594 0.135751 136 145 149
0.085938 -0.058594 0.134812 133 142 146
0.089844 -0.058594 0.133836 135 144 148
0.093750 -0.058594 0.132829 139 150 153
0.097656 -0.058594 0.131866 143 154 157
0.101562 -0.058594 0.130823 146 157 161
0.105469 -0.058594 0.129641 148 160 163
0.109375 -0.058594 0.127842 142 155 159
0.113281 -0.058594 0.125508 123 138 143
0.117188 -0.058594 0.122720 119 132 137
0.121094 -0.058594 0.118980 129 141 143
0.125000 -0.058594 0.113150 118 128 131
0.128906 -0.058594 0.106334 102 111 114
0.132812 -0.058594 0.104575 105 112 116
0.136719 -0.058594 0.103625 105 112 118
0.140625 -0.058594 0.104837 98 107 112
0.144531 -0.058594 0.106844 113 123 129
0.148438 -0.058594 0.109542 139 146 153
0.152344 -0.058594 0.112339 137 145 150
0.156250 -0.058594 0.114814 133 143 146
0.160156 -0.058594 0.117991 140 152 154
0.164062 -0.058594 0.121769 147 159 161
0.167969 -0.058594 0.125265 153 163 165
0.171875 -0.058594 0.128392 153 163 166
0.175781 -0.058594 0.131058 147 157 160
0.179688 -0.058594 0.133509 141 151 155
0.183594 -0.058594 0.135838 145 154 158
0.187500 -0.058594 0.137922 151 158 162
0.191406 -0.058594 0.139818 150 158 162
0.195312 -0.058594 0.141281 148 156 160
0.199219 -0.058594 0.142632 149 156 162
0.203125 -0.058594 0.143882 151 158 163
0.207031 -0.058594 0.144698 151 157 163
0.210938 -0.058594 0.144991 152 159 165
0.214844 -0.058594 0.144890 156 162 168
0.218750 -0.058594 0.144538 161 166 172
0.222656 -0.058594 0.143867 163 168 173
0.226562 -0.058594 0.143065 160 165 171
0.230469 -0.058594 0.142160 162 167 172
0.234375 -0.058594 0.141270 164 168 173
0.238281 -0.058594 0.140512 161 165 171
0.242188 -0.058594 0.139976 158 161 167
0.246094 -0.058594 0.139665 152 157 164
0.250000 -0.058594 0.139600 151 155 162
0.253906 -0.058594 0.139731 152 157 164
0.257812 -0.058594 0.140176 153 159 166
0.261719 -0.058594 0.140545 159 164 170
0.265625 -0.058594 0.140776 164 169 175
0.269531 -0.058594 0.140793 169 175 179
0.273438 -0.058594 0.140480 175 180 185
0.277344 -0.058594 0.139823 177 183 187
0.281250 -0.058594 0.138673 177 184 189
0.285156 -0.058594 0.137155 177 185 190
0.289062 -0.058594 0.135230 177 184 189
0.292969 -0.058594 0.133055 176 182 187
0.296875 -0.058594 0.130677 177 182 187
0.300781 -0.058594 0.128199 178 184 188
0.304688 -0.058594 0.125590 179 185 188
0.308594 -0.058594 0.122865 179 184 187
0.312500 -0.058594 0.120063 179 183 186
0.316406 -0.058594 0.117000 179 184 186
0.320312 -0.058594 0.113345 179 185 187
0.324219 -0.058594 0.109576 178 183 186
0.328125 -0.058594 0.105795 178 183 185
0.332031 -0.058594 0.101810 176 179 181
0.335938 -0.058594 0.097439 170 172 174
0.339844 -0.058594 0.093069 164 167 166
0.343750 -0.058594 0.088746 171 172 167
0.347656 -0.058594 0.083374 156 156 144
0.351562 -0.058594 0.076851 105 105 89
0.355469 -0.058594 0.067916 87 84 72
0.359375 -0.058594 0.056723 64 61 59
0.363281 -0.058594 0.046928 157 154 154
0.367188 -0.058594 0.039291 206 198 199
0.371094 -0.058594 0.041572 218 211 213
0.375000 -0.058594 0.065527 214 206 208
0.378906 -0.058594 0.075007 201 187 187
0.382812 -0.058594 0.081833 200 185 177
0.386719 -0.058594 0.087857 207 203 191
0.390625 -0.058594 0.091817 217 218 215
0.394531 -0.058594 0.095286 233 233 234
0.398438 -0.058594 0.099112 246 246 246
0.402344 -0.058594 0.102931 249 249 249
0.406250 -0.058594 0.106273 245 246 247
0.410156 -0.058594 0.108920 240 240 242
0.414062 -0.058594 0.110318 237 236 239
0.417969 -0.058594 0.110927 235 235 238
0.421875 -0.058594 0.110733 237 237 238
0.425781 -0.058594 0.109825 239 240 240
0.429688 -0.058594 0.108459 242 243 243
0.433594 -0.058594 0.106548 245 245 246
0.437500 -0.058594 0.104467 247 247 247
0.441406 -0.058594 0.102142 246 246 246
0.445312 -0.058594 0.099181 245 245 245
0.449219 -0.058594 0.096163 245 245 245
0.453125 -0.058594 0.093292 246 245 245
0.457031 -0.058594 0.090926 245 245 245
0.460938 -0.058594 0.088319 242 242 242
0.464844 -0.058594 0.085125 239 239 239
0.468750 -0.058594 0.079149 240 240 240
0.472656 -0.058594 0.035296 247 245 246
-0.203125 -0.062500 0.114115 98 70 57
-0.199219 -0.062500 0.127396 126 99 78
-0.195312 -0.062500 0.140542 168 146 119
-0.191406 -0.062500 0.148915 193 169 141
-0.187500 -0.062500 0.154206 192 160 129
-0.183594 -0.062500 0.157500 186 146 115
-0.179688 -0.062500 0.159040 193 153 121
-0.175781 -0.062500 0.160470 198 160 130
-0.171875 -0.062500 0.161697 197 159 132
-0.167969 -0.062500 0.163201 195 159 133
-0.164062 -0.062500 0.165084 197 164 135
-0.160156 -0.062500 0.167049 200 168 137
-0.156250 -0.062500 0.168303 203 170 138
-0.152344 -0.062500 0.168536 203 168 136
-0.148438 -0.062500 0.167717 205 165 135
-0.144531 -0.062500 0.166901 207 166 138
-0.140625 -0.062500 0.165085 208 167 140
-0.136719 -0.062500 0.162573 207 165 137
-0.132812 -0.062500 0.159499 203 166 136
-0.128906 -0.062500 0.154516 203 170 140
-0.125000 -0.062500 0.143925 198 159 133
-0.121094 -0.062500 0.128854 179 137 105
-0.117188 -0.062500 0.110546 166 110 85
-0.113281 -0.062500 0.093210 236 191 171
-0.109375 -0.062500 0.056270 253 248 241
-0.105469 -0.062500 0.052077 251 244 233
-0.101562 -0.062500 0.055537 221 203 180
-0.097656 -0.062500 0.060295 195 191 178
-0.093750 -0.062500 0.065438 190 194 188
-0.089844 -0.062500 0.070967 180 187 186
-0.085938 -0.062500 0.078160 178 187 188
-0.082031 -0.062500 0.085677 181 188 192
-0.078125 -0.062500 0.091844 181 187 193
-0.074219 -0.062500 0.096629 184 191 196
-0.070312 -0.062500 0.099830 186 194 199
-0.066406 -0.062500 0.103252 188 197 202
-0.062500 -0.062500 0.106919 189 198 203
-0.058594 -0.062500 0.110885 189 198 203
-0.054688 -0.062500 0.115455 193 202 206
-0.050781 -0.062500 0.119942 193 202 206
-0.046875 -0.062500 0.124128 189 199 204
-0.042969 -0.062500 0.127698 186 197 202
-0.039062 -0.062500 0.130522 186 197 201
-0.035156 -0.062500 0.132950 188 199 202
-0.031250 -0.062500 0.134985 188 198 202
-0.027344 -0.062500 0.136596 188 196 201
-0.023438 -0.062500 0.137951 190 197 202
-0.019531 -0.062500 0.138958 195 200 205
-0.015625 -0.062500 0.139676 198 203 206
-0.011719 -0.062500 0.140446 199 204 206
-0.007812 -0.062500 0.141392 194 199 201
-0.003906 -0.062500 0.142214 179 185 190
0.000000 -0.062500 0.142685 165 173 179
0.003906 -0.062500 0.142687 145 156 165
0.007812 -0.062500 0.142183 130 142 153
0.011719 -0.062500 0.141505 125 137 146
0.015625 -0.062500 0.140733 111 125 136
0.019531 -0.062500 0.139728 117 128 137
0.023438 -0.062500 0.138722 136 145 149
0.027344 -0.062500 0.137806 153 160 163
0.031250 -0.062500 0.137073 173 178 177
0.035156 -0.062500 0.136720 178 183 182
0.039062 -0.062500 0.136891 172 177 178
0.042969 -0.062500 0.137237 161 169 170
0.046875 -0.062500 0.137453 147 157 159
0.050781 -0.062500 0.137818 141 151 154
0.054688 -0.062500 0.138174 138 147 150
0.058594 -0.062500 0.138375 135 143 147
0.062500 -0.062500 0.138642 134 142 146
0.066406 -0.062500 0.138446 139 146 150
0.070312 -0.062500 0.137889 143 150 154
0.074219 -0.062500 0.137373 144 152 155
0.078125 -0.062500 0.136652 146 153 156
0.082031 -0.062500 0.135786 142 150 153
0.085938 -0.062500 0.134669 136 145 148
0.089844 -0.062500 0.133519 132 142 145
0.093750 -0.062500 0.132368 132 143 146
0.097656 -0.062500 0.131251 134 145 149
0.101562 -0.062500 0.130039 133 146 150
0.105469 -0.062500 0.128704 133 146 151
0.109375 -0.062500 0.126859 137 150 154
0.113281 -0.062500 0.124535 130 143 148
0.117188 -0.062500 0.121556 122 134 138
0.121094 -0.062500 0.117244 115 126 130
0.125000 -0.062500 0.111062 95 106 110
0.128906 -0.062500 0.105148 84 92 97
0.132812 -0.062500 0.103710 93 100 104
0.136719 -0.062500 0.103313 98 106 112
0.140625 -0.062500 0.104831 96 105 111
0.144531 -0.062500 0.106751 121 129 134
0.148438 -0.062500 0.109008 150 156 160
0.152344 -0.062500 0.111549 143 151 155
0.156250 -0.062500 0.113820 136 147 150
0.160156 -0.062500 0.116894 142 154 156
0.164062 -0.062500 0.120727 148 159 162
0.167969 -0.062500 0.124401 156 166 167
0.171875 -0.062500 0.127798 155 164 167
0.175781 -0.062500 0.130671 147 157 160
0.179688 -0.062500 0.133290 143 153 157
0.183594 -0.062500 0.135722 149 157 161
0.187500 -0.062500 0.137878 153 160 164
0.191406 -0.062500 0.139851 150 158 162
0.195312 -0.062500 0.141370 149 157 161
0.199219 -0.062500 0.142755 151 158 163
0.203125 -0.062500 0.144031 154 161 166
0.207031 -0.062500 0.144808 155 161 167
0.210938 -0.062500 0.144951 157 162 168
0.214844 -0.062500 0.144621 156 162 167
0.218750 -0.062500 0.144012 154 160 165
0.222656 -0.062500 0.143200 153 159 165
0.226562 -0.062500 0.142407 152 158 164
0.230469 -0.062500 0.141595 153 159 166
0.234375 -0.062500 0.140839 153 158 165
0.238281 -0.062500 0.140267 150 156 163
0.242188 -0.062500 0.139964 152 157 164
0.246094 -0.062500 0.139867 152 158 165
0.250000 -0.062500 0.140003 156 161 167
0.253906 -0.062500 0.140284 162 166 172
0.257812 -0.062500 0.140794 164 169 175
0.261719 -0.062500 0.141159 169 173 177
0.265625 -0.062500 0.141357 170 174 179
0.269531 -0.062500 0.141369 175 179 183
0.273438 -0.062500 0.141050 180 184 188
0.277344 -0.062500 0.140379 177 183 188
0.281250 -0.062500 0.139210 174 182 187
0.285156 -0.062500 0.137657 175 182 188
0.289062 -0.062500 0.135692 176 183 188
0.292969 -0.062500 0.133477 177 184 188
0.296875 -0.062500 0.131061 179 185 189
0.300781 -0.062500 0.128555 181 186 190
0.304688 -0.062500 0.125944 181 186 190
0.308594 -0.062500 0.123219 180 185 189
0.312500 -0.062500 0.120406 179 184 188
0.316406 -0.062500 0.117325 180 185 187
0.320312 -0.062500 0.113638 180 185 188
0.324219 -0.062500 0.109806 179 184 187
0.328125 -0.062500 0.105916 177 182 184
0.332031 -0.062500 0.101884 172 175 177
0.335938 -0.062500 0.097560 168 171 173
0.339844 -0.062500 0.093315 161 164 166
0.343750 -0.062500 0.089298 174 175 173
0.347656 -0.062500 0.084322 162 162 154
0.351562 -0.062500 0.078244 113 113 101
0.355469 -0.062500 0.069713 112 108 93
0.359375 -0.062500 0.058527 45 47 41
0.363281 -0.062500 0.047719 79 77 73
0.367188 -0.062500 0.038042 163 139 126
0.371094 -0.062500 0.033177 178 144 126
0.375000 -0.062500 0.055587 167 136 113
0.378906 -0.062500 0.071050 179 158 134
0.382812 -0.062500 0.078257 193 176 146
0.386719 -0.062500 0.085283 204 193 161
0.390625 -0.062500 0.090347 178 161 142
0.394531 -0.062500 0.094628 144 139 141
0.398438 -0.062500 0.099040 223 223 224
0.402344 -0.062500 0.103356 245 245 245
0.406250 -0.062500 0.107176 246 246 247
0.410156 -0.062500 0.110319 242 243 243
0.414062 -0.062500 0.112192 238 238 240
0.417969 -0.062500 0.113107 236 237 239
0.421875 -0.062500 0.112979 234 236 237
0.425781 -0.062500 0.111903 235 236 237
0.429688 -0.062500 0.110228 240 241 241
0.433594 -0.062500 0.108068 244 244 245
0.437500 -0.062500 0.105831 247 247 247
0.441406 -0.062500 0.103453 246 246 246
0.445312 -0.062500 0.100391 245 245 245
0.449219 -0.062500 0.097377 245 245 245
0.453125 -0.062500 0.094342 245 245 245
0.457031 -0.062500 0.091899 244 244 244
0.460938 -0.062500 0.089697 242 242 242
0.464844 -0.062500 0.086620 240 240 240
0.468750 -0.062500 0.082332 241 241 241
0.472656 -0.062500 0.078098 247 245 246
-0.207031 -0.066406 0.086879 149 125 101
-0.203125 -0.066406 0.111261 90 67 54
-0.199219 -0.066406 0.124954 107 88 70
-0.195312 -0.066406 0.139970 175 157 129
-0.191406 -0.066406 0.148362 196 176 148
-0.187500 -0.066406 0.153341 190 161 130
-0.183594 -0.066406 0.156641 185 150 118
-0.179688 -0.066406 0.158387 193 157 125
-0.175781 -0.066406 0.159891 196 161 130
-0.171875 -0.066406 0.161217 194 159 132
-0.167969 -0.066406 0.162847 196 161 136
-0.164062 -0.066406 0.164882 199 166 139
-0.160156 -0.066406 0.167099 202 169 141
-0.156250 -0.066406 0.168560 203 169 141
-0.152344 -0.066406 0.169004 202 166 137
-0.148438 -0.066406 0.168393 203 163 135
-0.144531 -0.066406 0.167919 208 168 140
-0.140625 -0.066406 0.166591 211 172 144
-0.136719 -0.066406 0.163968 206 164 137
-0.132812 -0.066406 0.161411 201 162 132
-0.128906 -0.066406 0.156805 198 164 134
-0.125000 -0.066406 0.144216 178 137 112
-0.121094 -0.066406 0.126809 148 106 79
-0.117188 -0.066406 0.110582 161 102 78
-0.113281 -0.066406 0.099845 241 196 180
-0.109375 -0.066406 0.075162 254 250 245
-0.105469 -0.066406 0.055076 253 249 243
-0.101562 -0.066406 0.057870 231 210 192
-0.097656 -0.066406 0.061705 171 166 154
-0.093750 -0.066406 0.066483 172 177 170
-0.089844 -0.066406 0.071853 173 181 179
-0.085938 -0.066406 0.079264 177 186 186
-0.082031 -0.066406 0.087037 183 191 192
-0.078125 -0.066406 0.093328 183 190 193
-0.074219 -0.066406 0.098280 189 195 198
-0.070312 -0.066406 0.101632 192 198 201
-0.066406 -0.066406 0.105267 193 201 203
-0.062500 -0.066406 0.109236 195 203 205
-0.058594 -0.066406 0.113474 194 203 205
-0.054688 -0.066406 0.118199 196 205 207
-0.050781 -0.066406 0.122759 196 206 207
-0.046875 -0.066406 0.127004 197 206 207
-0.042969 -0.066406 0.130503 197 206 207
-0.039062 -0.066406 0.133171 195 205 206
-0.035156 -0.066406 0.135404 194 204 204
-0.031250 -0.066406 0.137310 191 202 202
-0.027344 -0.066406 0.138932 188 198 199
-0.023438 -0.066406 0.140345 187 195 199
-0.019531 -0.066406 0.141392 185 193 197
-0.015625 -0.066406 0.142140 181 190 195
-0.011719 -0.066406 0.142972 184 193 197
-0.007812 -0.066406 0.143989 189 196 200
-0.003906 -0.066406 0.144942 192 199 203
0.000000 -0.066406 0.145560 199 204 207
0.003906 -0.066406 0.145693 194 199 203
0.007812 -0.066406 0.145186 185 190 195
0.011719 -0.066406 0.144178 173 180 184
0.015625 -0.066406 0.142724 140 151 160
0.019531 -0.066406 0.140903 114 126 136
0.023438 -0.066406 0.139140 98 109 118
0.027344 -0.066406 0.137650 92 100 111
0.031250 -0.066406 0.136490 109 115 121
0.035156 -0.066406 0.135987 127 131 135
0.039062 -0.066406 0.136109 146 150 153
0.042969 -0.066406 0.136505 162 168 166
0.046875 -0.066406 0.136992 166 174 172
0.050781 -0.066406 0.137622 168 175 174
0.054688 -0.066406 0.138373 160 168 168
0.058594 -0.066406 0.139082 147 157 160
0.062500 -0.066406 0.139775 140 149 153
0.066406 -0.066406 0.139850 140 149 153
0.070312 -0.066406 0.139344 142 150 154
0.074219 -0.066406 0.138542 140 149 153
0.078125 -0.066406 0.137545 141 149 153
0.082031 -0.066406 0.136435 140 148 151
0.085938 -0.066406 0.135114 138 146 149
0.089844 -0.066406 0.133758 136 144 148
0.093750 -0.066406 0.132374 133 142 146
0.097656 -0.066406 0.130994 131 141 145
0.101562 -0.066406 0.129532 126 139 144
0.105469 -0.066406 0.127943 123 136 141
0.109375 -0.066406 0.125850 128 140 144
0.113281 -0.066406 0.123324 128 139 143
0.117188 -0.066406 0.120094 120 131 135
0.121094 -0.066406 0.115647 107 119 122
0.125000 -0.066406 0.110247 87 99 104
0.128906 -0.066406 0.105147 77 87 93
0.132812 -0.066406 0.103549 90 100 104
0.136719 -0.066406 0.103430 109 117 121
0.140625 -0.066406 0.104758 113 121 126
0.144531 -0.066406 0.106579 127 134 139
0.148438 -0.066406 0.108372 142 150 154
0.152344 -0.066406 0.110425 137 147 152
0.156250 -0.066406 0.112480 139 150 153
0.160156 -0.066406 0.115490 143 154 156
0.164062 -0.066406 0.119386 141 152 155
0.167969 -0.066406 0.123305 146 156 158
0.171875 -0.066406 0.127073 146 157 159
0.175781 -0.066406 0.130235 144 155 159
0.179688 -0.066406 0.132997 146 155 160
0.183594 -0.066406 0.135472 150 158 162
0.187500 -0.066406 0.137659 153 160 164
0.191406 -0.066406 0.139679 151 159 163
0.195312 -0.066406 0.141241 150 158 162
0.199219 -0.066406 0.142643 150 158 163
0.203125 -0.066406 0.143923 152 159 165
0.207031 -0.066406 0.144627 152 158 164
0.210938 -0.066406 0.144619 150 156 163
0.214844 -0.066406 0.144100 148 154 160
0.218750 -0.066406 0.143314 143 150 157
0.222656 -0.066406 0.142444 147 154 160
0.226562 -0.066406 0.141724 153 159 166
0.230469 -0.066406 0.141075 160 166 171
0.234375 -0.066406 0.140522 163 168 173
0.238281 -0.066406 0.140189 163 169 174
0.242188 -0.066406 0.140101 168 173 177
0.246094 -0.066406 0.140125 166 171 176
0.250000 -0.066406 0.140366 165 169 174
0.253906 -0.066406 0.140713 167 170 175
0.257812 -0.066406 0.141224 167 170 176
0.261719 -0.066406 0.141538 166 168 174
0.265625 -0.066406 0.141662 161 164 170
0.269531 -0.066406 0.141646 164 168 173
0.273438 -0.066406 0.141349 172 176 181
0.277344 -0.066406 0.140719 172 178 183
0.281250 -0.066406 0.139582 171 179 185
0.285156 -0.066406 0.138043 172 180 186
0.289062 -0.066406 0.136046 175 183 188
0.292969 -0.066406 0.133797 178 184 189
0.296875 -0.066406 0.131356 179 185 189
0.300781 -0.066406 0.128830 180 186 189
0.304688 -0.066406 0.126228 179 185 189
0.308594 -0.066406 0.123526 180 185 189
0.312500 -0.066406 0.120724 181 186 190
0.316406 -0.066406 0.117635 181 186 189
0.320312 -0.066406 0.113923 180 185 188
0.324219 -0.066406 0.110048 178 184 187
0.328125 -0.066406 0.106072 177 181 184
0.332031 -0.066406 0.102009 170 174 177
0.335938 -0.066406 0.097733 167 171 174
0.339844 -0.066406 0.093543 158 163 166
0.343750 -0.066406 0.089734 173 175 175
0.347656 -0.066406 0.085115 164 165 160
0.351562 -0.066406 0.079323 112 114 105
0.355469 -0.066406 0.071032 108 105 92
0.359375 -0.066406 0.059875 56 57 47
0.363281 -0.066406 0.048271 83 76 59
0.367188 -0.066406 0.036213 186 161 124
0.371094 -0.066406 0.027112 171 139 101
0.375000 -0.066406 0.043571 164 137 104
0.378906 -0.066406 0.068840 174 157 130
0.382812 -0.066406 0.075941 176 162 132
0.386719 -0.066406 0.082912 194 182 152
0.390625 -0.066406 0.088763 190 174 147
0.394531 -0.066406 0.093335 171 156 136
0.398438 -0.066406 0.098266 167 157 147
0.402344 -0.066406 0.103554 196 193 193
0.406250 -0.066406 0.107915 228 228 229
0.410156 -0.066406 0.111481 241 241 241
0.414062 -0.066406 0.113750 247 247 247
0.417969 -0.066406 0.114984 248 248 249
0.421875 -0.066406 0.115156 244 245 246
0.425781 -0.066406 0.114003 238 240 240
0.429688 -0.066406 0.111992 236 238 239
0.433594 -0.066406 0.109589 240 241 241
0.437500 -0.066406 0.107269 244 244 244
0.441406 -0.066406 0.104867 245 245 245
0.445312 -0.066406 0.101805 244 244 244
0.449219 -0.066406 0.098783 244 244 244
0.453125 -0.066406 0.095790 244 244 244
0.457031 -0.066406 0.093101 243 243 243
0.460938 -0.066406 0.090851 241 241 241
0.464844 -0.066406 0.088011 240 240 240
0.468750 -0.066406 0.083394 241 241 241
0.472656 -0.066406 0.076342 245 244 245
0.476562 -0.066406 0.071041 250 247 249
-0.207031 -0.070312 0.090327 154 124 99
-0.203125 -0.070312 0.109579 79 59 48
-0.199219 -0.070312 0.124063 98 83 68
-0.195312 -0.070312 0.140058 179 163 137
-0.191406 -0.070312 0.148155 196 177 150
-0.187500 -0.070312 0.152795 189 162 132
-0.183594 -0.070312 0.156137 187 155 124
-0.179688 -0.070312 0.158052 192 158 127
-0.175781 -0.070312 0.159679 194 160 130
-0.171875 -0.070312 0.161197 196 162 135
-0.167969 -0.070312 0.163040 200 166 142
-0.164062 -0.070312 0.165245 204 171 146
-0.160156 -0.070312 0.167681 205 171 147
-0.156250 -0.070312 0.169287 205 169 145
-0.152344 -0.070312 0.169816 202 165 140
-0.148438 -0.070312 0.169259 202 163 137
-0.144531 -0.070312 0.169042 209 170 144
-0.140625 -0.070312 0.168170 213 176 149
-0.136719 -0.070312 0.165696 204 163 137
-0.132812 -0.070312 0.163449 196 157 129
-0.128906 -0.070312 0.157525 191 157 127
-0.125000 -0.070312 0.140680 159 116 93
-0.121094 -0.070312 0.121054 126 86 63
-0.117188 -0.070312 0.108627 163 102 79
-0.113281 -0.070312 0.100950 240 194 178
-0.109375 -0.070312 0.082842 253 247 240
-0.105469 -0.070312 0.057500 253 248 242
-0.101562 -0.070312 0.059733 239 217 202
-0.097656 -0.070312 0.063071 174 166 154
-0.093750 -0.070312 0.067695 172 179 171
-0.089844 -0.070312 0.072682 182 189 186
-0.085938 -0.070312 0.080029 184 193 191
-0.082031 -0.070312 0.087906 188 195 194
-0.078125 -0.070312 0.094210 184 190 191
-0.074219 -0.070312 0.099184 188 193 194
-0.070312 -0.070312 0.102578 189 194 195
-0.066406 -0.070312 0.106265 188 195 195
-0.062500 -0.070312 0.110394 191 198 198
-0.058594 -0.070312 0.114799 190 197 197
-0.054688 -0.070312 0.119572 186 195 195
-0.050781 -0.070312 0.124129 182 192 193
-0.046875 -0.070312 0.128348 182 192 192
-0.042969 -0.070312 0.131711 184 194 194
-0.039062 -0.070312 0.134204 185 195 194
-0.035156 -0.070312 0.136267 186 196 194
-0.031250 -0.070312 0.138036 186 196 193
-0.027344 -0.070312 0.139653 188 196 194
-0.023438 -0.070312 0.141174 193 199 199
-0.019531 -0.070312 0.142379 194 200 201
-0.015625 -0.070312 0.143281 191 198 200
-0.011719 -0.070312 0.144251 189 196 200
-0.007812 -0.070312 0.145323 186 193 199
-0.003906 -0.070312 0.146255 181 190 197
0.000000 -0.070312 0.146852 181 189 196
0.003906 -0.070312 0.146967 178 185 193
0.007812 -0.070312 0.146589 184 190 195
0.011719 -0.070312 0.145849 194 199 201
0.015625 -0.070312 0.144772 195 199 200
0.019531 -0.070312 0.143195 188 193 193
0.023438 -0.070312 0.141314 164 170 172
0.027344 -0.070312 0.139482 122 130 138
0.031250 -0.070312 0.137823 93 102 111
0.035156 -0.070312 0.136679 79 86 97
0.039062 -0.070312 0.136185 86 94 103
0.042969 -0.070312 0.135952 112 120 123
0.046875 -0.070312 0.136025 137 143 142
0.050781 -0.070312 0.136524 157 161 159
0.054688 -0.070312 0.137461 166 171 168
0.058594 -0.070312 0.138641 167 172 172
0.062500 -0.070312 0.139824 165 171 171
0.066406 -0.070312 0.140291 160 168 169
0.070312 -0.070312 0.139957 154 162 165
0.074219 -0.070312 0.139147 145 154 158
0.078125 -0.070312 0.138107 138 148 153
0.082031 -0.070312 0.136905 135 144 149
0.085938 -0.070312 0.135514 134 142 147
0.089844 -0.070312 0.134109 131 140 144
0.093750 -0.070312 0.132667 127 137 142
0.097656 -0.070312 0.131212 127 138 143
0.101562 -0.070312 0.129626 127 139 144
0.105469 -0.070312 0.127831 121 134 139
0.109375 -0.070312 0.125441 114 127 132
0.113281 -0.070312 0.122616 109 121 126
0.117188 -0.070312 0.119151 109 120 125
0.121094 -0.070312 0.114674 111 122 125
0.125000 -0.070312 0.109819 108 118 122
0.128906 -0.070312 0.105409 100 111 115
0.132812 -0.070312 0.103731 106 116 119
0.136719 -0.070312 0.103654 119 127 130
0.140625 -0.070312 0.104552 120 128 131
0.144531 -0.070312 0.105864 127 135 140
0.148438 -0.070312 0.107117 140 148 153
0.152344 -0.070312 0.108806 141 150 154
0.156250 -0.070312 0.110661 143 153 155
0.160156 -0.070312 0.113580 142 153 154
0.164062 -0.070312 0.117540 134 145 148
0.167969 -0.070312 0.121723 134 145 147
0.171875 -0.070312 0.125916 138 149 153
0.175781 -0.070312 0.129430 144 155 159
0.179688 -0.070312 0.132380 148 157 161
0.183594 -0.070312 0.134909 146 155 159
0.187500 -0.070312 0.137108 147 155 160
0.191406 -0.070312 0.139181 149 157 162
0.195312 -0.070312 0.140805 150 158 163
0.199219 -0.070312 0.142256 150 158 164
0.203125 -0.070312 0.143559 151 159 165
0.207031 -0.070312 0.144193 149 156 163
0.210938 -0.070312 0.144044 147 154 161
0.214844 -0.070312 0.143373 148 155 161
0.218750 -0.070312 0.142477 151 157 163
0.222656 -0.070312 0.141614 159 164 169
0.226562 -0.070312 0.141011 163 168 172
0.230469 -0.070312 0.140582 168 171 175
0.234375 -0.070312 0.140290 170 173 177
0.238281 -0.070312 0.140179 168 173 176
0.242188 -0.070312 0.140252 167 171 175
0.246094 -0.070312 0.140370 158 162 167
0.250000 -0.070312 0.140688 149 154 160
0.253906 -0.070312 0.141059 149 153 159
0.257812 -0.070312 0.141550 151 155 162
0.261719 -0.070312 0.141843 152 156 163
0.265625 -0.070312 0.141927 151 156 163
0.269531 -0.070312 0.141885 157 162 168
0.273438 -0.070312 0.141594 167 172 177
0.277344 -0.070312 0.140996 174 180 185
0.281250 -0.070312 0.139892 177 184 189
0.285156 -0.070312 0.138352 177 185 190
0.289062 -0.070312 0.136324 177 185 190
0.292969 -0.070312 0.134045 178 185 190
0.296875 -0.070312 0.131584 178 184 189
0.300781 -0.070312 0.129044 177 184 188
0.304688 -0.070312 0.126454 177 183 187
0.308594 -0.070312 0.123770 180 186 190
0.312500 -0.070312 0.120973 183 188 191
0.316406 -0.070312 0.117874 182 186 189
0.320312 -0.070312 0.114135 178 184 187
0.324219 -0.070312 0.110217 178 183 187
0.328125 -0.070312 0.106194 177 181 184
0.332031 -0.070312 0.102135 171 175 178
0.335938 -0.070312 0.097920 170 175 177
0.339844 -0.070312 0.093750 160 166 168
0.343750 -0.070312 0.090095 167 172 171
0.347656 -0.070312 0.085763 161 165 160
0.351562 -0.070312 0.080089 120 124 115
0.355469 -0.070312 0.071959 121 117 103
0.359375 -0.070312 0.060739 114 107 90
0.363281 -0.070312 0.048176 168 153 125
0.367188 -0.070312 0.033982 200 179 146
0.371094 -0.070312 0.023855 151 127 99
0.375000 -0.070312 0.037857 147 127 103
0.378906 -0.070312 0.069440 171 153 132
0.382812 -0.070312 0.075725 188 171 150
0.386719 -0.070312 0.082232 198 185 164
0.390625 -0.070312 0.087654 185 175 152
0.394531 -0.070312 0.091827 187 177 152
0.398438 -0.070312 0.096623 206 194 168
0.402344 -0.070312 0.102350 199 184 162
0.406250 -0.070312 0.107138 192 175 162
0.410156 -0.070312 0.111078 224 223 220
0.414062 -0.070312 0.113556 249 249 249
0.417969 -0.070312 0.115163 252 252 252
0.421875 -0.070312 0.116115 250 251 251
0.425781 -0.070312 0.115541 242 243 244
0.429688 -0.070312 0.113681 230 232 232
0.433594 -0.070312 0.111187 228 229 229
0.437500 -0.070312 0.108738 236 236 237
0.441406 -0.070312 0.106255 241 241 241
0.445312 -0.070312 0.103437 243 243 243
0.449219 -0.070312 0.100343 244 244 244
0.453125 -0.070312 0.097393 243 243 243
0.457031 -0.070312 0.094542 242 242 242
0.460938 -0.070312 0.091915 240 240 240
0.464844 -0.070312 0.088943 241 241 241
0.468750 -0.070312 0.084917 242 242 242
0.472656 -0.070312 0.079811 244 244 244
0.476562 -0.070312 0.075833 247 245 246
-0.207031 -0.074219 0.088655 119 80 73
-0.203125 -0.074219 0.108911 75 55 48
-0.199219 -0.074219 0.124769 112 96 82
-0.195312 -0.074219 0.141314 186 169 146
-0.191406 -0.074219 0.149039 195 174 149
-0.187500 -0.074219 0.153215 189 161 133
-0.183594 -0.074219 0.156595 191 158 129
-0.179688 -0.074219 0.158655 192 158 129
-0.175781 -0.074219 0.160366 194 159 132
-0.171875 -0.074219 0.161992 199 164 139
-0.167969 -0.074219 0.164030 204 169 146
-0.164062 -0.074219 0.166424 208 174 152
-0.160156 -0.074219 0.169013 210 174 152
-0.156250 -0.074219 0.170729 208 171 148
-0.152344 -0.074219 0.171251 205 166 143
-0.148438 -0.074219 0.170829 204 165 141
-0.144531 -0.074219 0.170876 209 171 146
-0.140625 -0.074219 0.169929 209 172 147
-0.136719 -0.074219 0.167718 197 159 135
-0.132812 -0.074219 0.165386 192 156 130
-0.128906 -0.074219 0.157030 183 148 119
-0.125000 -0.074219 0.135523 135 94 72
-0.121094 -0.074219 0.110894 111 71 51
-0.117188 -0.074219 0.103105 164 99 79
-0.113281 -0.074219 0.099324 236 179 165
-0.109375 -0.074219 0.080288 252 240 229
-0.105469 -0.074219 0.057419 253 245 235
-0.101562 -0.074219 0.060435 242 223 206
-0.097656 -0.074219 0.064070 196 189 172
-0.093750 -0.074219 0.068705 188 194 184
-0.089844 -0.074219 0.073235 183 190 186
-0.085938 -0.074219 0.080160 171 181 180
-0.082031 -0.074219 0.088124 168 176 178
-0.078125 -0.074219 0.094568 157 164 168
-0.074219 -0.074219 0.099681 157 163 168
-0.070312 -0.074219 0.103145 153 160 165
-0.066406 -0.074219 0.106732 149 156 162
-0.062500 -0.074219 0.110849 152 160 165
-0.058594 -0.074219 0.115282 152 161 166
-0.054688 -0.074219 0.119985 150 160 165
-0.050781 -0.074219 0.124378 149 160 164
-0.046875 -0.074219 0.128453 149 160 164
-0.042969 -0.074219 0.131645 148 159 163
-0.039062 -0.074219 0.133968 147 159 162
-0.035156 -0.074219 0.135832 146 159 160
-0.031250 -0.074219 0.137422 145 157 158
-0.027344 -0.074219 0.138948 148 159 160
-0.023438 -0.074219 0.140485 157 166 168
-0.019531 -0.074219 0.141780 167 174 176
-0.015625 -0.074219 0.142853 175 181 184
-0.011719 -0.074219 0.143999 183 189 192
-0.007812 -0.074219 0.145213 186 192 196
-0.003906 -0.074219 0.146246 184 192 196
0.000000 -0.074219 0.146953 182 190 195
0.003906 -0.074219 0.147170 179 187 192
0.007812 -0.074219 0.146942 181 189 193
0.011719 -0.074219 0.146516 182 189 194
0.015625 -0.074219 0.145947 182 189 192
0.019531 -0.074219 0.145213 189 194 196
0.023438 -0.074219 0.144113 191 194 196
0.027344 -0.074219 0.142650 187 190 190
0.031250 -0.074219 0.141006 173 178 177
0.035156 -0.074219 0.139373 147 152 154
0.039062 -0.074219 0.138139 122 128 133
0.042969 -0.074219 0.137160 106 112 117
0.046875 -0.074219 0.136462 95 101 105
0.050781 -0.074219 0.136300 98 104 107
0.054688 -0.074219 0.136606 110 117 118
0.058594 -0.074219 0.137343 129 134 135
0.062500 -0.074219 0.138341 146 151 150
0.066406 -0.074219 0.138858 151 158 158
0.070312 -0.074219 0.138819 152 160 161
0.074219 -0.074219 0.138395 152 160 161
0.078125 -0.074219 0.137662 152 160 162
0.082031 -0.074219 0.136704 153 161 163
0.085938 -0.074219 0.135559 152 160 161
0.089844 -0.074219 0.134399 144 153 156
0.093750 -0.074219 0.133117 138 149 153
0.097656 -0.074219 0.131743 136 147 152
0.101562 -0.074219 0.130081 130 142 147
0.105469 -0.074219 0.128110 119 132 138
0.109375 -0.074219 0.125583 106 121 127
0.113281 -0.074219 0.122550 100 114 120
0.117188 -0.074219 0.118797 103 116 121
0.121094 -0.074219 0.114128 108 119 123
0.125000 -0.074219 0.109374 114 124 127
0.128906 -0.074219 0.105366 110 121 124
0.132812 -0.074219 0.103259 105 115 119
0.136719 -0.074219 0.102651 106 115 119
0.140625 -0.074219 0.103015 111 121 124
0.144531 -0.074219 0.103875 125 134 137
0.148438 -0.074219 0.104772 136 143 147
0.152344 -0.074219 0.106430 136 143 146
0.156250 -0.074219 0.108368 135 143 146
0.160156 -0.074219 0.111274 135 144 146
0.164062 -0.074219 0.115274 130 140 142
0.167969 -0.074219 0.119670 129 139 143
0.171875 -0.074219 0.124206 136 146 150
0.175781 -0.074219 0.128085 145 155 159
0.179688 -0.074219 0.131246 148 157 161
0.183594 -0.074219 0.133864 141 150 155
0.187500 -0.074219 0.136115 140 150 155
0.191406 -0.074219 0.138244 144 154 159
0.195312 -0.074219 0.139859 149 158 162
0.199219 -0.074219 0.141275 154 163 166
0.203125 -0.074219 0.142565 158 166 170
0.207031 -0.074219 0.143148 157 164 168
0.210938 -0.074219 0.142882 154 161 166
0.214844 -0.074219 0.142073 155 160 165
0.218750 -0.074219 0.141092 156 160 165
0.222656 -0.074219 0.140297 156 159 164
0.226562 -0.074219 0.139963 146 150 155
0.230469 -0.074219 0.139923 141 144 152
0.234375 -0.074219 0.140047 142 146 153
0.238281 -0.074219 0.140245 143 147 155
0.242188 -0.074219 0.140526 143 148 155
0.246094 -0.074219 0.140818 140 145 152
0.250000 -0.074219 0.141260 141 147 153
0.253906 -0.074219 0.141658 149 154 160
0.257812 -0.074219 0.142083 158 163 168
0.261719 -0.074219 0.142316 164 168 173
0.265625 -0.074219 0.142336 166 170 175
0.269531 -0.074219 0.142227 167 171 176
0.273438 -0.074219 0.141888 168 173 179
0.277344 -0.074219 0.141270 173 179 184
0.281250 -0.074219 0.140144 176 183 189
0.285156 -0.074219 0.138568 176 184 189
0.289062 -0.074219 0.136511 176 184 189
0.292969 -0.074219 0.134209 178 185 190
0.296875 -0.074219 0.131731 180 186 190
0.300781 -0.074219 0.129180 180 186 189
0.304688 -0.074219 0.126594 180 186 190
0.308594 -0.074219 0.123910 182 188 191
0.312500 -0.074219 0.121106 182 187 191
0.316406 -0.074219 0.117996 179 184 187
0.320312 -0.074219 0.114250 175 181 185
0.324219 -0.074219 0.110322 176 182 185
0.328125 -0.074219 0.106268 175 181 184
0.332031 -0.074219 0.102190 172 177 180
0.335938 -0.074219 0.098042 174 179 180
0.339844 -0.074219 0.093892 163 171 170
0.343750 -0.074219 0.090326 161 168 166
0.347656 -0.074219 0.086196 156 162 155
0.351562 -0.074219 0.080661 132 138 127
0.355469 -0.074219 0.072643 125 122 108
0.359375 -0.074219 0.060837 122 116 99
0.363281 -0.074219 0.047110 170 157 136
0.367188 -0.074219 0.032454 182 164 141
0.371094 -0.074219 0.022175 144 128 108
0.375000 -0.074219 0.038547 149 134 114
0.378906 -0.074219 0.072543 171 154 136
0.382812 -0.074219 0.076959 193 175 160
0.386719 -0.074219 0.082846 199 184 166
0.390625 -0.074219 0.087504 185 172 155
0.394531 -0.074219 0.091281 179 165 147
0.398438 -0.074219 0.095277 192 179 154
0.402344 -0.074219 0.100107 200 187 161
0.406250 -0.074219 0.104863 210 192 165
0.410156 -0.074219 0.109319 206 195 169
0.414062 -0.074219 0.111925 220 220 217
0.417969 -0.074219 0.113815 248 248 248
0.421875 -0.074219 0.115408 250 250 250
0.425781 -0.074219 0.115675 246 247 247
0.429688 -0.074219 0.114606 235 236 236
0.433594 -0.074219 0.112448 226 227 227
0.437500 -0.074219 0.110041 228 228 228
0.441406 -0.074219 0.107615 235 235 235
0.445312 -0.074219 0.105121 241 241 241
0.449219 -0.074219 0.102320 243 243 243
0.453125 -0.074219 0.099293 243 243 243
0.457031 -0.074219 0.096464 242 242 242
0.460938 -0.074219 0.093426 241 241 241
0.464844 -0.074219 0.090241 242 242 242
0.468750 -0.074219 0.086336 243 243 243
0.472656 -0.074219 0.082049 244 244 244
0.476562 -0.074219 0.075987 245 245 245
0.480469 -0.074219 0.075696 240 239 240
-0.207031 -0.078125 0.082187 107 67 65
-0.203125 -0.078125 0.107438 79 58 56
-0.199219 -0.078125 0.124045 124 107 97
-0.195312 -0.078125 0.141449 189 168 150
-0.191406 -0.078125 0.149648 194 169 148
-0.187500 -0.078125 0.153754 189 158 133
-0.183594 -0.078125 0.157370 194 159 133
-0.179688 -0.078125 0.159655 195 159 132
-0.175781 -0.078125 0.161480 198 161 136
-0.171875 -0.078125 0.163121 201 164 141
-0.167969 -0.078125 0.165249 204 166 145
-0.164062 -0.078125 0.167805 208 170 150
-0.160156 -0.078125 0.170611 211 173 153
-0.156250 -0.078125 0.172548 211 172 152
-0.152344 -0.078125 0.173189 209 168 147
-0.148438 -0.078125 0.172758 207 167 146
-0.144531 -0.078125 0.172766 206 168 146
-0.140625 -0.078125 0.172293 201 164 141
-0.136719 -0.078125 0.171037 192 158 136
-0.132812 -0.078125 0.165289 193 159 136
-0.128906 -0.078125 0.157325 170 134 107
-0.125000 -0.078125 0.127054 104 69 52
-0.121094 -0.078125 0.098954 99 61 45
-0.117188 -0.078125 0.095104 166 101 81
-0.113281 -0.078125 0.095372 234 176 162
-0.109375 -0.078125 0.074462 251 237 226
-0.105469 -0.078125 0.057242 252 241 228
-0.101562 -0.078125 0.060291 238 216 195
-0.097656 -0.078125 0.064746 203 196 178
-0.093750 -0.078125 0.069943 190 196 186
-0.089844 -0.078125 0.074575 170 181 177
-0.085938 -0.078125 0.081156 159 173 172
-0.082031 -0.078125 0.088999 164 174 176
-0.078125 -0.078125 0.095595 161 169 173
-0.074219 -0.078125 0.101043 165 172 175
-0.070312 -0.078125 0.104869 163 171 175
-0.066406 -0.078125 0.108622 160 168 173
-0.062500 -0.078125 0.112667 162 170 175
-0.058594 -0.078125 0.116987 162 171 175
-0.054688 -0.078125 0.121552 162 173 177
-0.050781 -0.078125 0.125754 164 175 178
-0.046875 -0.078125 0.129551 164 176 178
-0.042969 -0.078125 0.132514 163 175 177
-0.039062 -0.078125 0.134612 162 175 176
-0.035156 -0.078125 0.136243 160 173 174
-0.031250 -0.078125 0.137618 156 170 171
-0.027344 -0.078125 0.138911 154 166 168
-0.023438 -0.078125 0.140209 152 162 166
-0.019531 -0.078125 0.141283 152 161 165
-0.015625 -0.078125 0.142225 155 163 168
-0.011719 -0.078125 0.143294 163 170 175
-0.007812 -0.078125 0.144518 171 178 182
-0.003906 -0.078125 0.145686 179 185 189
0.000000 -0.078125 0.146601 185 191 194
0.003906 -0.078125 0.147105 188 194 196
0.007812 -0.078125 0.147148 188 194 196
0.011719 -0.078125 0.147088 179 185 190
0.015625 -0.078125 0.146837 170 177 183
0.019531 -0.078125 0.146421 172 178 184
0.023438 -0.078125 0.145779 178 182 186
0.027344 -0.078125 0.144861 186 188 188
0.031250 -0.078125 0.143929 186 189 186
0.035156 -0.078125 0.142723 180 182 180
0.039062 -0.078125 0.141442 176 177 174
0.042969 -0.078125 0.140083 162 165 163
0.046875 -0.078125 0.138779 139 144 143
0.050781 -0.078125 0.137944 115 124 125
0.054688 -0.078125 0.137394 94 105 108
0.058594 -0.078125 0.137166 93 101 105
0.062500 -0.078125 0.137321 104 111 114
0.066406 -0.078125 0.137248 115 121 124
0.070312 -0.078125 0.137025 124 130 133
0.074219 -0.078125 0.136705 130 136 138
0.078125 -0.078125 0.136200 133 140 143
0.082031 -0.078125 0.135616 137 144 146
0.085938 -0.078125 0.134932 138 147 148
0.089844 -0.078125 0.134211 137 147 150
0.093750 -0.078125 0.133252 140 150 153
0.097656 -0.078125 0.132061 139 151 154
0.101562 -0.078125 0.130467 132 145 150
0.105469 -0.078125 0.128534 126 140 145
0.109375 -0.078125 0.126040 122 136 141
0.113281 -0.078125 0.122812 121 134 138
0.117188 -0.078125 0.118586 119 131 134
0.121094 -0.078125 0.113383 114 125 128
0.125000 -0.078125 0.108237 114 124 127
0.128906 -0.078125 0.104259 112 121 124
0.132812 -0.078125 0.101946 102 112 116
0.136719 -0.078125 0.100944 100 109 113
0.140625 -0.078125 0.100785 109 117 121
0.144531 -0.078125 0.101252 117 124 128
0.148438 -0.078125 0.101962 114 121 125
0.152344 -0.078125 0.103615 111 118 124
0.156250 -0.078125 0.105679 112 121 125
0.160156 -0.078125 0.108653 116 126 129
0.164062 -0.078125 0.112778 121 131 134
0.167969 -0.078125 0.117415 125 135 138
0.171875 -0.078125 0.122186 131 142 145
0.175781 -0.078125 0.126372 141 151 154
0.179688 -0.078125 0.129722 146 155 159
0.183594 -0.078125 0.132412 143 152 156
0.187500 -0.078125 0.134678 144 152 156
0.191406 -0.078125 0.136776 146 155 158
0.195312 -0.078125 0.138316 146 155 158
