ply
    format ascii 1.0
    element vertex 103962
    property float x
    property float y
    property float z
    property uchar red
    property uchar green
    property uchar blue
    end_header
0.089844 -0.027344 0.109579 150 149 154
0.093750 -0.027344 0.107803 137 137 139
0.097656 -0.027344 0.105518 126 128 127
0.101562 -0.027344 0.102599 120 122 119
0.105469 -0.027344 0.099281 110 112 107
0.109375 -0.027344 0.095755 102 105 98
0.113281 -0.027344 0.092041 114 117 110
0.117188 -0.027344 0.088211 133 135 130
0.121094 -0.027344 0.084316 135 135 137
0.125000 -0.027344 0.080510 132 131 136
0.128906 -0.027344 0.076616 113 112 117
0.132812 -0.027344 0.072578 100 100 102
0.136719 -0.027344 0.068460 123 124 126
0.140625 -0.027344 0.064220 95 99 102
0.144531 -0.027344 0.060684 72 78 79
0.148438 -0.027344 0.058763 83 86 86
0.152344 -0.027344 0.058415 104 105 104
0.156250 -0.027344 0.059263 125 125 124
0.160156 -0.027344 0.063612 139 138 137
0.164062 -0.027344 0.068953 146 146 143
0.167969 -0.027344 0.072793 144 144 141
0.171875 -0.027344 0.074743 142 141 139
0.175781 -0.027344 0.075065 144 143 140
0.179688 -0.027344 0.074072 149 148 146
0.183594 -0.027344 0.073172 155 154 153
0.187500 -0.027344 0.072504 160 160 160
0.191406 -0.027344 0.072305 165 165 165
0.195312 -0.027344 0.072488 169 169 169
0.199219 -0.027344 0.072666 172 172 172
0.203125 -0.027344 0.072710 175 174 174
0.207031 -0.027344 0.072513 176 176 176
0.210938 -0.027344 0.072062 177 177 177
0.214844 -0.027344 0.071518 179 178 178
0.218750 -0.027344 0.070815 180 179 179
0.222656 -0.027344 0.069535 181 179 180
0.226562 -0.027344 0.067272 182 179 179
0.230469 -0.027344 0.064332 181 178 178
0.234375 -0.027344 0.061273 180 175 175
0.238281 -0.027344 0.059141 178 171 172
0.242188 -0.027344 0.058791 177 169 170
0.246094 -0.027344 0.060036 177 167 168
0.250000 -0.027344 0.062319 176 166 168
0.253906 -0.027344 0.063983 176 166 168
0.257812 -0.027344 0.064697 178 167 168
0.261719 -0.027344 0.064376 177 167 168
0.265625 -0.027344 0.064035 174 165 166
0.269531 -0.027344 0.063961 167 157 158
0.273438 -0.027344 0.059340 156 145 148
0.277344 -0.027344 0.050773 156 141 147
0.281250 -0.027344 0.036576 184 162 171
-0.289062 -0.031250 0.032745 63 56 48
-0.285156 -0.031250 0.032936 50 44 38
-0.281250 -0.031250 0.033695 51 46 39
-0.277344 -0.031250 0.031360 56 50 42
-0.273438 -0.031250 0.027759 53 48 40
-0.269531 -0.031250 0.023219 54 50 41
-0.265625 -0.031250 0.020356 53 49 40
-0.261719 -0.031250 0.021112 48 46 37
-0.257812 -0.031250 0.023528 44 42 36
-0.253906 -0.031250 0.026285 41 38 34
-0.250000 -0.031250 0.028952 39 33 32
-0.246094 -0.031250 0.031554 52 46 48
-0.242188 -0.031250 0.034743 94 90 91
-0.238281 -0.031250 0.038644 134 131 132
-0.234375 -0.031250 0.042107 161 160 160
-0.230469 -0.031250 0.045023 169 167 168
-0.226562 -0.031250 0.050118 169 166 167
-0.222656 -0.031250 0.058429 164 162 163
-0.218750 -0.031250 0.065762 161 158 159
-0.214844 -0.031250 0.070727 155 150 152
-0.210938 -0.031250 0.073566 154 149 152
-0.207031 -0.031250 0.075362 140 135 139
-0.203125 -0.031250 0.076942 108 103 109
-0.199219 -0.031250 0.078600 79 74 81
-0.195312 -0.031250 0.080887 63 58 66
-0.191406 -0.031250 0.083577 59 54 63
-0.187500 -0.031250 0.086564 76 69 79
-0.183594 -0.031250 0.089566 120 111 117
-0.179688 -0.031250 0.092286 113 102 103
-0.175781 -0.031250 0.094728 87 80 70
-0.171875 -0.031250 0.096699 104 98 84
-0.167969 -0.031250 0.098191 115 112 95
-0.164062 -0.031250 0.099170 106 103 84
-0.160156 -0.031250 0.099842 102 99 82
-0.156250 -0.031250 0.100551 104 102 89
-0.152344 -0.031250 0.101374 109 106 99
-0.148438 -0.031250 0.102420 119 115 114
-0.144531 -0.031250 0.103541 132 127 134
-0.140625 -0.031250 0.104830 138 134 148
-0.136719 -0.031250 0.106174 133 128 148
-0.132812 -0.031250 0.107471 121 118 139
-0.128906 -0.031250 0.108887 128 131 150
-0.125000 -0.031250 0.110279 123 130 148
-0.121094 -0.031250 0.112087 131 137 153
-0.117188 -0.031250 0.114466 139 146 162
-0.113281 -0.031250 0.117034 135 142 158
-0.109375 -0.031250 0.119578 122 129 145
-0.105469 -0.031250 0.121857 120 127 143
-0.101562 -0.031250 0.123862 128 135 151
-0.097656 -0.031250 0.125687 139 148 163
-0.093750 -0.031250 0.127375 144 153 168
-0.089844 -0.031250 0.128928 147 156 171
-0.085938 -0.031250 0.130348 146 155 170
-0.082031 -0.031250 0.131605 143 155 169
-0.078125 -0.031250 0.132610 140 152 166
-0.074219 -0.031250 0.133454 133 145 159
-0.070312 -0.031250 0.134110 127 136 151
-0.066406 -0.031250 0.134549 124 131 149
-0.062500 -0.031250 0.134815 122 127 146
-0.058594 -0.031250 0.134839 121 127 143
-0.054688 -0.031250 0.134599 127 133 149
-0.050781 -0.031250 0.134290 136 142 158
-0.046875 -0.031250 0.134074 142 148 164
-0.042969 -0.031250 0.133980 140 146 160
-0.039062 -0.031250 0.134077 136 142 156
-0.035156 -0.031250 0.134261 131 137 149
-0.031250 -0.031250 0.134403 140 146 158
-0.027344 -0.031250 0.134522 145 151 163
-0.023438 -0.031250 0.134560 141 148 158
-0.019531 -0.031250 0.134447 136 143 153
-0.015625 -0.031250 0.134162 136 143 153
-0.011719 -0.031250 0.133454 137 144 154
-0.007812 -0.031250 0.132262 138 142 151
-0.003906 -0.031250 0.130872 145 148 157
0.000000 -0.031250 0.129420 140 140 150
0.003906 -0.031250 0.127925 141 141 151
0.007812 -0.031250 0.126496 152 152 162
0.011719 -0.031250 0.125041 159 159 171
0.015625 -0.031250 0.123636 155 155 167
0.019531 -0.031250 0.122457 147 147 159
0.023438 -0.031250 0.121615 144 144 156
0.027344 -0.031250 0.121034 135 135 147
0.031250 -0.031250 0.120586 135 135 147
0.035156 -0.031250 0.120358 138 138 150
0.039062 -0.031250 0.120326 145 145 157
0.042969 -0.031250 0.120313 149 149 161
0.046875 -0.031250 0.120169 145 145 157
0.050781 -0.031250 0.119870 134 134 146
0.054688 -0.031250 0.119363 124 124 136
0.058594 -0.031250 0.118717 135 131 145
0.062500 -0.031250 0.117996 125 121 135
0.066406 -0.031250 0.117109 113 110 121
0.070312 -0.031250 0.116058 106 103 114
0.074219 -0.031250 0.114955 109 106 117
0.078125 -0.031250 0.113788 120 117 126
0.082031 -0.031250 0.112591 132 131 139
0.085938 -0.031250 0.111292 140 139 145
0.089844 -0.031250 0.109799 149 148 154
0.093750 -0.031250 0.108011 144 143 148
0.097656 -0.031250 0.105729 127 128 132
0.101562 -0.031250 0.102815 111 112 114
0.105469 -0.031250 0.099492 114 115 117
0.109375 -0.031250 0.095930 130 131 133
0.113281 -0.031250 0.092152 135 136 138
0.117188 -0.031250 0.088233 128 129 131
0.121094 -0.031250 0.084237 133 132 137
0.125000 -0.031250 0.080358 130 129 134
0.128906 -0.031250 0.076439 107 106 111
0.132812 -0.031250 0.072446 101 101 103
0.136719 -0.031250 0.068485 127 129 131
0.140625 -0.031250 0.064459 80 86 87
0.144531 -0.031250 0.061294 66 73 71
0.148438 -0.031250 0.059968 85 88 86
0.152344 -0.031250 0.060197 111 112 111
0.156250 -0.031250 0.062111 130 130 127
0.160156 -0.031250 0.067774 140 140 138
0.164062 -0.031250 0.072266 146 146 142
0.167969 -0.031250 0.075314 144 145 141
0.171875 -0.031250 0.076742 143 143 140
0.175781 -0.031250 0.076904 146 146 141
0.179688 -0.031250 0.075881 151 151 148
0.183594 -0.031250 0.074958 157 157 156
0.187500 -0.031250 0.074205 163 163 163
0.191406 -0.031250 0.073811 168 168 168
0.195312 -0.031250 0.073776 173 172 172
0.199219 -0.031250 0.073731 176 176 176
0.203125 -0.031250 0.073552 179 179 179
0.207031 -0.031250 0.073063 181 180 180
0.210938 -0.031250 0.072332 182 181 181
0.214844 -0.031250 0.071521 183 182 182
0.218750 -0.031250 0.070535 184 183 183
0.222656 -0.031250 0.068953 185 183 183
0.226562 -0.031250 0.066340 185 183 183
0.230469 -0.031250 0.063035 185 181 181
0.234375 -0.031250 0.059812 183 178 178
0.238281 -0.031250 0.057679 181 174 175
0.242188 -0.031250 0.057482 180 172 173
0.246094 -0.031250 0.058917 179 170 171
0.250000 -0.031250 0.061368 179 169 171
0.253906 -0.031250 0.062966 179 169 170
0.257812 -0.031250 0.063480 179 169 170
0.261719 -0.031250 0.063126 179 170 170
0.265625 -0.031250 0.062634 178 169 169
0.269531 -0.031250 0.062200 171 161 162
0.273438 -0.031250 0.057949 161 149 152
0.277344 -0.031250 0.050510 160 145 152
0.281250 -0.031250 0.034220 184 164 173
-0.289062 -0.035156 0.031485 65 57 47
-0.285156 -0.035156 0.032891 52 45 37
-0.281250 -0.035156 0.033924 51 45 37
-0.277344 -0.035156 0.031563 52 46 38
-0.273438 -0.035156 0.027854 51 46 38
-0.269531 -0.035156 0.022756 55 50 41
-0.265625 -0.035156 0.019553 55 50 42
-0.261719 -0.035156 0.020484 52 49 40
-0.257812 -0.035156 0.023250 46 45 38
-0.253906 -0.035156 0.026062 42 40 34
-0.250000 -0.035156 0.028859 41 37 31
-0.246094 -0.035156 0.031743 35 29 25
-0.242188 -0.035156 0.034793 38 29 28
-0.238281 -0.035156 0.037926 55 47 49
-0.234375 -0.035156 0.041395 89 84 87
-0.230469 -0.035156 0.044518 118 114 116
-0.226562 -0.035156 0.047483 142 138 141
-0.222656 -0.035156 0.050610 160 157 159
-0.218750 -0.035156 0.054473 166 163 165
-0.214844 -0.035156 0.060118 171 167 170
-0.210938 -0.035156 0.066412 177 174 176
-0.207031 -0.035156 0.072288 167 164 167
-0.203125 -0.035156 0.077008 141 137 141
-0.199219 -0.035156 0.080649 110 106 111
-0.195312 -0.035156 0.083993 85 80 88
-0.191406 -0.035156 0.087159 66 59 70
-0.187500 -0.035156 0.090234 63 56 68
-0.183594 -0.035156 0.093031 94 87 98
-0.179688 -0.035156 0.095279 144 134 138
-0.175781 -0.035156 0.097172 128 120 113
-0.171875 -0.035156 0.098520 100 93 80
-0.167969 -0.035156 0.099381 109 104 85
-0.164062 -0.035156 0.099861 131 128 109
-0.160156 -0.035156 0.100149 108 105 86
-0.156250 -0.035156 0.100561 105 102 87
-0.152344 -0.035156 0.101142 112 108 97
-0.148438 -0.035156 0.102072 98 93 90
-0.144531 -0.035156 0.103219 102 96 100
-0.140625 -0.035156 0.104567 133 127 137
-0.136719 -0.035156 0.105971 141 134 150
-0.132812 -0.035156 0.107335 138 135 152
-0.128906 -0.035156 0.108821 129 131 146
-0.125000 -0.035156 0.110275 118 124 138
-0.121094 -0.035156 0.112154 121 124 139
-0.117188 -0.035156 0.114609 132 138 152
-0.113281 -0.035156 0.117234 140 146 160
-0.109375 -0.035156 0.119833 135 141 155
-0.105469 -0.035156 0.122157 127 135 148
-0.101562 -0.035156 0.124196 125 133 146
-0.097656 -0.035156 0.126089 121 129 142
-0.093750 -0.035156 0.127842 122 130 143
-0.089844 -0.035156 0.129381 123 133 145
-0.085938 -0.035156 0.130733 130 140 152
-0.082031 -0.035156 0.131922 140 152 166
-0.078125 -0.035156 0.132890 148 160 174
-0.074219 -0.035156 0.133756 142 154 168
-0.070312 -0.035156 0.134486 133 142 157
-0.066406 -0.035156 0.135030 143 150 166
-0.062500 -0.035156 0.135405 135 142 158
-0.058594 -0.035156 0.135546 135 142 158
-0.054688 -0.035156 0.135422 146 153 169
-0.050781 -0.035156 0.135202 150 157 173
-0.046875 -0.035156 0.135042 144 151 167
-0.042969 -0.035156 0.134963 138 146 159
-0.039062 -0.035156 0.135038 140 148 161
-0.035156 -0.035156 0.135159 143 151 164
-0.031250 -0.035156 0.135198 139 147 160
-0.027344 -0.035156 0.135208 140 148 161
-0.023438 -0.035156 0.135137 147 155 166
-0.019531 -0.035156 0.134890 150 158 169
-0.015625 -0.035156 0.134456 145 153 164
-0.011719 -0.035156 0.133596 136 144 155
-0.007812 -0.035156 0.132255 133 140 150
-0.003906 -0.035156 0.130736 142 145 152
0.000000 -0.035156 0.129189 146 146 154
0.003906 -0.035156 0.127624 146 146 154
0.007812 -0.035156 0.126145 142 142 150
0.011719 -0.035156 0.124674 137 137 145
0.015625 -0.035156 0.123263 136 136 144
0.019531 -0.035156 0.122077 140 140 148
0.023438 -0.035156 0.121219 145 145 153
0.027344 -0.035156 0.120621 134 134 142
0.031250 -0.035156 0.120170 141 141 149
0.035156 -0.035156 0.119971 145 146 151
0.039062 -0.035156 0.119985 141 142 147
0.042969 -0.035156 0.120007 133 134 139
0.046875 -0.035156 0.119916 132 133 138
0.050781 -0.035156 0.119668 136 137 142
0.054688 -0.035156 0.119221 140 141 146
0.058594 -0.035156 0.118655 129 127 132
0.062500 -0.035156 0.118001 112 110 113
0.066406 -0.035156 0.117173 105 103 108
0.070312 -0.035156 0.116146 120 118 123
0.074219 -0.035156 0.115065 139 137 142
0.078125 -0.035156 0.113924 145 143 148
0.082031 -0.035156 0.112741 136 135 141
0.085938 -0.035156 0.111454 128 127 133
0.089844 -0.035156 0.109966 130 129 137
0.093750 -0.035156 0.108175 122 121 129
0.097656 -0.035156 0.105903 119 119 127
0.101562 -0.035156 0.103001 128 128 138
0.105469 -0.035156 0.099673 138 138 148
0.109375 -0.035156 0.096078 139 139 149
0.113281 -0.035156 0.092243 134 134 144
0.117188 -0.035156 0.088255 131 131 141
0.121094 -0.035156 0.084190 127 126 132
0.125000 -0.035156 0.080269 119 118 123
0.128906 -0.035156 0.076344 104 104 106
0.132812 -0.035156 0.072374 117 118 119
0.136719 -0.035156 0.068532 131 133 135
0.140625 -0.035156 0.064702 73 80 79
0.144531 -0.035156 0.061876 66 76 71
0.148438 -0.035156 0.061092 94 99 95
0.152344 -0.035156 0.061834 121 122 120
0.156250 -0.035156 0.065409 135 136 133
0.160156 -0.035156 0.071091 142 143 140
0.164062 -0.035156 0.074834 145 145 142
0.167969 -0.035156 0.077256 142 142 139
0.171875 -0.035156 0.078442 140 140 136
0.175781 -0.035156 0.078618 143 143 139
0.179688 -0.035156 0.077720 148 148 145
0.183594 -0.035156 0.076770 155 155 154
0.187500 -0.035156 0.075932 162 161 161
0.191406 -0.035156 0.075393 169 169 169
0.195312 -0.035156 0.075172 176 175 175
0.199219 -0.035156 0.074923 181 181 181
0.203125 -0.035156 0.074463 185 184 184
0.207031 -0.035156 0.073671 187 186 186
0.210938 -0.035156 0.072660 188 188 188
0.214844 -0.035156 0.071548 189 188 188
0.218750 -0.035156 0.070245 190 189 189
0.222656 -0.035156 0.068313 191 188 189
0.226562 -0.035156 0.065330 191 188 188
0.230469 -0.035156 0.061747 191 186 186
0.234375 -0.035156 0.058519 189 183 183
0.238281 -0.035156 0.056622 186 179 180
0.242188 -0.035156 0.056667 185 177 178
0.246094 -0.035156 0.058290 184 175 176
0.250000 -0.035156 0.060815 183 174 175
0.253906 -0.035156 0.062251 182 173 174
0.257812 -0.035156 0.062506 182 173 173
0.261719 -0.035156 0.062120 183 174 173
0.265625 -0.035156 0.061356 182 173 173
0.269531 -0.035156 0.060410 177 167 167
0.273438 -0.035156 0.056426 169 157 160
0.277344 -0.035156 0.050344 170 154 161
0.281250 -0.035156 0.030430 190 171 180
-0.289062 -0.039062 0.028789 65 57 46
-0.285156 -0.039062 0.032122 54 47 37
-0.281250 -0.039062 0.033790 51 45 35
-0.277344 -0.039062 0.031594 52 45 36
-0.273438 -0.039062 0.028251 52 45 37
-0.269531 -0.039062 0.022484 53 47 39
-0.265625 -0.039062 0.018915 53 48 39
-0.261719 -0.039062 0.019802 52 49 40
-0.257812 -0.039062 0.022843 50 47 40
-0.253906 -0.039062 0.025849 48 45 38
-0.250000 -0.039062 0.028927 47 43 35
-0.246094 -0.039062 0.031985 42 38 30
-0.242188 -0.039062 0.035009 39 35 27
-0.238281 -0.039062 0.038039 38 32 26
-0.234375 -0.039062 0.040880 38 32 30
-0.230469 -0.039062 0.043794 50 42 41
-0.226562 -0.039062 0.046834 68 58 61
-0.222656 -0.039062 0.049947 96 89 93
-0.218750 -0.039062 0.053367 128 123 126
-0.214844 -0.039062 0.056459 156 152 154
-0.210938 -0.039062 0.059462 178 176 178
-0.207031 -0.039062 0.062909 182 180 182
-0.203125 -0.039062 0.067945 169 167 169
-0.199219 -0.039062 0.075710 149 147 150
-0.195312 -0.039062 0.084063 129 125 131
-0.191406 -0.039062 0.089987 109 103 112
-0.187500 -0.039062 0.093532 90 82 94
-0.183594 -0.039062 0.095907 81 74 84
-0.179688 -0.039062 0.097736 94 88 95
-0.175781 -0.039062 0.099172 139 132 132
-0.171875 -0.039062 0.100063 142 135 126
-0.167969 -0.039062 0.100471 108 102 86
-0.164062 -0.039062 0.100543 95 90 71
-0.160156 -0.039062 0.100609 111 108 91
-0.156250 -0.039062 0.100820 129 126 111
-0.152344 -0.039062 0.101204 127 123 112
-0.148438 -0.039062 0.102025 98 93 87
-0.144531 -0.039062 0.103129 105 99 101
-0.140625 -0.039062 0.104431 126 119 126
-0.136719 -0.039062 0.105804 123 117 127
-0.132812 -0.039062 0.107187 137 134 145
-0.128906 -0.039062 0.108752 139 139 149
-0.125000 -0.039062 0.110324 134 137 146
-0.121094 -0.039062 0.112361 132 135 144
-0.117188 -0.039062 0.114957 131 135 146
-0.113281 -0.039062 0.117687 130 134 145
-0.109375 -0.039062 0.120350 127 134 144
-0.105469 -0.039062 0.122674 132 138 150
-0.101562 -0.039062 0.124691 138 146 157
-0.097656 -0.039062 0.126531 138 146 157
-0.093750 -0.039062 0.128230 137 145 158
-0.089844 -0.039062 0.129707 134 142 155
-0.085938 -0.039062 0.131024 131 141 153
-0.082031 -0.039062 0.132170 134 143 158
-0.078125 -0.039062 0.133102 137 149 163
-0.074219 -0.039062 0.133959 136 148 162
-0.070312 -0.039062 0.134713 133 142 157
-0.066406 -0.039062 0.135340 133 140 156
-0.062500 -0.039062 0.135805 135 142 158
-0.058594 -0.039062 0.136065 141 148 164
-0.054688 -0.039062 0.136065 144 151 167
-0.050781 -0.039062 0.135960 140 147 163
-0.046875 -0.039062 0.135898 135 142 158
-0.042969 -0.039062 0.135880 137 145 158
-0.039062 -0.039062 0.135983 142 150 163
-0.035156 -0.039062 0.136092 132 140 153
-0.031250 -0.039062 0.136086 127 135 148
-0.027344 -0.039062 0.136037 125 133 146
-0.023438 -0.039062 0.135892 127 135 148
-0.019531 -0.039062 0.135546 123 131 144
-0.015625 -0.039062 0.134994 111 119 130
-0.011719 -0.039062 0.133996 98 106 119
-0.007812 -0.039062 0.132494 91 98 108
-0.003906 -0.039062 0.130830 111 114 121
0.000000 -0.039062 0.129156 120 123 128
0.003906 -0.039062 0.127484 134 135 140
0.007812 -0.039062 0.125931 140 143 148
0.011719 -0.039062 0.124412 144 145 150
0.015625 -0.039062 0.122995 139 142 147
0.019531 -0.039062 0.121822 138 139 144
0.023438 -0.039062 0.120951 134 137 142
0.027344 -0.039062 0.120327 142 143 148
0.031250 -0.039062 0.119839 139 142 147
0.035156 -0.039062 0.119621 142 143 147
0.039062 -0.039062 0.119653 144 148 151
0.042969 -0.039062 0.119692 149 150 154
0.046875 -0.039062 0.119645 140 144 147
0.050781 -0.039062 0.119464 124 125 129
0.054688 -0.039062 0.119097 108 109 111
0.058594 -0.039062 0.118634 103 103 103
0.062500 -0.039062 0.118068 111 110 108
0.066406 -0.039062 0.117297 125 123 124
0.070312 -0.039062 0.116282 137 135 136
0.074219 -0.039062 0.115195 139 137 140
0.078125 -0.039062 0.114050 133 131 134
0.082031 -0.039062 0.112860 130 129 135
0.085938 -0.039062 0.111575 134 133 139
0.089844 -0.039062 0.110090 127 125 136
0.093750 -0.039062 0.108293 122 120 131
0.097656 -0.039062 0.106031 120 120 132
0.101562 -0.039062 0.103141 128 127 141
0.105469 -0.039062 0.099796 134 133 147
0.109375 -0.039062 0.096160 133 132 148
0.113281 -0.039062 0.092268 129 128 144
0.117188 -0.039062 0.088227 126 125 139
0.121094 -0.039062 0.084123 135 134 140
0.125000 -0.039062 0.080178 126 126 128
0.128906 -0.039062 0.076276 112 112 114
0.132812 -0.039062 0.072347 126 126 126
0.136719 -0.039062 0.068619 126 129 128
0.140625 -0.039062 0.064971 74 83 80
0.144531 -0.039062 0.062437 73 84 76
0.148438 -0.039062 0.062061 105 110 106
0.152344 -0.039062 0.063351 130 132 128
0.156250 -0.039062 0.068479 141 141 138
0.160156 -0.039062 0.073901 144 145 141
0.164062 -0.039062 0.077181 145 145 142
0.167969 -0.039062 0.079184 143 143 139
0.171875 -0.039062 0.080216 142 142 138
0.175781 -0.039062 0.080449 145 145 141
0.179688 -0.039062 0.079692 150 151 147
0.183594 -0.039062 0.078713 158 157 156
0.187500 -0.039062 0.077818 165 165 165
0.191406 -0.039062 0.077168 174 174 174
0.195312 -0.039062 0.076736 183 182 182
0.199219 -0.039062 0.076220 189 189 189
0.203125 -0.039062 0.075463 194 194 194
0.207031 -0.039062 0.074369 196 195 195
0.210938 -0.039062 0.073062 196 195 195
0.214844 -0.039062 0.071660 197 195 195
0.218750 -0.039062 0.070079 197 195 195
0.222656 -0.039062 0.067867 197 195 195
0.226562 -0.039062 0.064641 197 194 194
0.230469 -0.039062 0.060944 197 192 192
0.234375 -0.039062 0.057776 194 188 189
0.238281 -0.039062 0.056141 192 185 185
0.242188 -0.039062 0.056466 190 182 183
0.246094 -0.039062 0.058183 189 180 181
0.250000 -0.039062 0.060617 187 179 179
0.253906 -0.039062 0.061868 186 178 178
0.257812 -0.039062 0.061786 185 178 177
0.261719 -0.039062 0.061261 186 179 177
0.265625 -0.039062 0.059952 186 178 176
0.269531 -0.039062 0.058845 182 171 171
0.273438 -0.039062 0.054769 176 163 166
0.277344 -0.039062 0.048436 177 161 168
0.281250 -0.039062 0.026817 193 175 183
-0.289062 -0.042969 0.025917 63 54 43
-0.285156 -0.042969 0.031086 58 50 39
-0.281250 -0.042969 0.033656 52 46 36
-0.277344 -0.042969 0.031721 52 45 35
-0.273438 -0.042969 0.029138 51 45 36
-0.269531 -0.042969 0.022627 52 45 36
-0.265625 -0.042969 0.018360 50 45 36
-0.261719 -0.042969 0.019187 49 45 37
-0.257812 -0.042969 0.022442 51 47 39
-0.253906 -0.042969 0.025583 54 49 41
-0.250000 -0.042969 0.028842 55 49 40
-0.246094 -0.042969 0.032016 52 47 36
-0.242188 -0.042969 0.035165 47 44 33
-0.238281 -0.042969 0.038372 49 45 33
-0.234375 -0.042969 0.041470 48 45 33
-0.230469 -0.042969 0.044630 47 44 33
-0.226562 -0.042969 0.047763 49 43 35
-0.222656 -0.042969 0.050869 46 39 36
-0.218750 -0.042969 0.054232 54 47 46
-0.214844 -0.042969 0.057482 68 64 65
-0.210938 -0.042969 0.060605 96 93 95
-0.207031 -0.042969 0.063644 119 117 119
-0.203125 -0.042969 0.066554 131 129 131
-0.199219 -0.042969 0.069848 138 135 139
-0.195312 -0.042969 0.073990 142 139 143
-0.191406 -0.042969 0.082381 139 134 140
-0.187500 -0.042969 0.091826 127 120 129
-0.183594 -0.042969 0.097281 105 99 107
-0.179688 -0.042969 0.099597 91 85 93
-0.175781 -0.042969 0.100787 113 107 111
-0.171875 -0.042969 0.101441 168 161 158
-0.167969 -0.042969 0.101708 164 159 149
-0.164062 -0.042969 0.101512 117 114 99
-0.160156 -0.042969 0.101219 105 102 87
-0.156250 -0.042969 0.101237 97 93 81
-0.152344 -0.042969 0.101528 133 129 118
-0.148438 -0.042969 0.102312 135 130 124
-0.144531 -0.042969 0.103435 108 103 100
-0.140625 -0.042969 0.104774 114 108 110
-0.136719 -0.042969 0.106198 122 116 120
-0.132812 -0.042969 0.107622 118 113 119
-0.128906 -0.042969 0.109223 128 127 132
-0.125000 -0.042969 0.110921 132 133 137
-0.121094 -0.042969 0.113167 137 138 141
-0.117188 -0.042969 0.115922 135 138 143
-0.113281 -0.042969 0.118786 136 139 144
-0.109375 -0.042969 0.121544 137 142 148
-0.105469 -0.042969 0.123880 136 140 149
-0.101562 -0.042969 0.125883 129 136 144
-0.097656 -0.042969 0.127669 143 150 160
-0.093750 -0.042969 0.129306 145 153 164
-0.089844 -0.042969 0.130665 143 151 164
-0.085938 -0.042969 0.131860 136 146 158
-0.082031 -0.042969 0.132858 133 142 157
-0.078125 -0.042969 0.133654 134 143 158
-0.074219 -0.042969 0.134413 134 143 160
-0.070312 -0.042969 0.135107 131 140 157
-0.066406 -0.042969 0.135742 130 137 153
-0.062500 -0.042969 0.136229 136 143 159
-0.058594 -0.042969 0.136554 139 146 162
-0.054688 -0.042969 0.136629 136 143 159
-0.050781 -0.042969 0.136619 135 142 158
-0.046875 -0.042969 0.136647 137 144 159
-0.042969 -0.042969 0.136691 139 145 161
-0.039062 -0.042969 0.136842 138 144 160
-0.035156 -0.042969 0.136975 129 136 152
-0.031250 -0.042969 0.136983 122 129 145
-0.027344 -0.042969 0.136929 118 125 141
-0.023438 -0.042969 0.136752 120 127 142
-0.019531 -0.042969 0.136329 118 125 141
-0.015625 -0.042969 0.135681 111 119 132
-0.011719 -0.042969 0.134576 104 111 127
-0.007812 -0.042969 0.132917 102 108 120
-0.003906 -0.042969 0.131079 120 124 133
0.000000 -0.042969 0.129219 122 127 133
0.003906 -0.042969 0.127382 128 131 138
0.007812 -0.042969 0.125734 133 138 144
0.011719 -0.042969 0.124172 140 143 150
0.015625 -0.042969 0.122756 143 148 154
0.019531 -0.042969 0.121593 146 149 154
0.023438 -0.042969 0.120724 145 150 154
0.027344 -0.042969 0.120089 138 142 145
0.031250 -0.042969 0.119566 139 144 147
0.035156 -0.042969 0.119323 141 145 148
0.039062 -0.042969 0.119358 136 141 144
0.042969 -0.042969 0.119401 127 131 132
0.046875 -0.042969 0.119366 116 122 122
0.050781 -0.042969 0.119226 111 115 116
0.054688 -0.042969 0.118932 110 114 113
0.058594 -0.042969 0.118557 122 122 120
0.062500 -0.042969 0.118068 129 130 125
0.066406 -0.042969 0.117341 133 133 131
0.070312 -0.042969 0.116321 127 127 127
0.074219 -0.042969 0.115210 112 112 114
0.078125 -0.042969 0.114039 102 102 104
0.082031 -0.042969 0.112819 110 109 115
0.085938 -0.042969 0.111509 123 122 128
0.089844 -0.042969 0.110013 130 128 139
0.093750 -0.042969 0.108206 127 125 138
0.097656 -0.042969 0.105946 128 126 140
0.101562 -0.042969 0.103075 133 130 147
0.105469 -0.042969 0.099733 135 132 149
0.109375 -0.042969 0.096078 130 127 146
0.113281 -0.042969 0.092150 126 123 142
0.117188 -0.042969 0.088071 125 123 137
0.121094 -0.042969 0.083949 128 127 132
0.125000 -0.042969 0.080001 120 120 120
0.128906 -0.042969 0.076149 112 112 112
0.132812 -0.042969 0.072296 126 127 125
0.136719 -0.042969 0.068682 110 113 111
0.140625 -0.042969 0.065211 73 82 76
0.144531 -0.042969 0.062914 78 89 81
0.148438 -0.042969 0.062736 114 120 113
0.152344 -0.042969 0.064746 140 142 137
0.156250 -0.042969 0.070942 147 148 144
0.160156 -0.042969 0.076244 146 147 143
0.164062 -0.042969 0.079316 144 144 141
0.167969 -0.042969 0.081134 142 142 139
0.171875 -0.042969 0.082138 142 142 139
0.175781 -0.042969 0.082406 146 146 143
0.179688 -0.042969 0.081688 152 152 149
0.183594 -0.042969 0.080708 160 160 158
0.187500 -0.042969 0.079765 169 168 168
0.191406 -0.042969 0.078999 180 180 180
0.195312 -0.042969 0.078379 190 190 190
0.199219 -0.042969 0.077631 198 198 198
0.203125 -0.042969 0.076594 204 203 203
0.207031 -0.042969 0.075207 205 205 205
0.210938 -0.042969 0.073640 205 203 203
0.214844 -0.042969 0.072007 204 203 203
0.218750 -0.042969 0.070232 204 202 202
0.222656 -0.042969 0.067832 204 201 201
0.226562 -0.042969 0.064524 203 200 200
0.230469 -0.042969 0.060859 202 198 198
0.234375 -0.042969 0.057902 200 194 194
0.238281 -0.042969 0.056577 197 190 190
0.242188 -0.042969 0.056972 195 187 187
0.246094 -0.042969 0.058526 192 185 185
0.250000 -0.042969 0.060703 190 183 182
0.253906 -0.042969 0.061598 187 182 180
0.257812 -0.042969 0.061216 186 181 178
0.261719 -0.042969 0.060495 186 181 178
0.265625 -0.042969 0.058528 184 177 175
0.269531 -0.042969 0.057546 180 169 170
0.273438 -0.042969 0.053109 175 162 166
0.277344 -0.042969 0.043081 172 158 165
-0.289062 -0.046875 0.024248 61 51 41
-0.285156 -0.046875 0.030348 60 51 40
-0.281250 -0.046875 0.033481 53 46 36
-0.277344 -0.046875 0.032050 52 45 35
-0.273438 -0.046875 0.030309 52 45 36
-0.269531 -0.046875 0.024103 52 45 36
-0.265625 -0.046875 0.018618 52 45 36
-0.261719 -0.046875 0.019141 50 45 36
-0.257812 -0.046875 0.022326 52 46 37
-0.253906 -0.046875 0.025561 53 48 39
-0.250000 -0.046875 0.028973 54 48 39
-0.246094 -0.046875 0.032214 54 48 38
-0.242188 -0.046875 0.035454 51 45 36
-0.238281 -0.046875 0.038823 54 48 38
-0.234375 -0.046875 0.042192 54 48 38
-0.230469 -0.046875 0.045606 48 44 34
-0.226562 -0.046875 0.048922 50 45 36
-0.222656 -0.046875 0.052217 47 42 33
-0.218750 -0.046875 0.055538 43 39 32
-0.214844 -0.046875 0.058721 38 36 31
-0.210938 -0.046875 0.061559 35 33 31
-0.207031 -0.046875 0.064267 41 38 37
-0.203125 -0.046875 0.066826 50 46 46
-0.199219 -0.046875 0.069490 62 57 59
-0.195312 -0.046875 0.072155 81 76 79
-0.191406 -0.046875 0.074037 99 92 97
-0.187500 -0.046875 0.077505 111 105 111
-0.183594 -0.046875 0.085259 118 112 118
-0.179688 -0.046875 0.093363 116 109 115
-0.175781 -0.046875 0.099691 128 120 126
-0.171875 -0.046875 0.103663 160 154 157
-0.167969 -0.046875 0.105059 204 198 194
-0.164062 -0.046875 0.104492 196 192 182
-0.160156 -0.046875 0.103123 125 121 110
-0.156250 -0.046875 0.102287 109 105 94
-0.152344 -0.046875 0.102196 97 93 84
-0.148438 -0.046875 0.102909 109 104 98
-0.144531 -0.046875 0.104108 144 139 135
-0.140625 -0.046875 0.105714 128 123 120
-0.136719 -0.046875 0.107444 95 90 87
-0.132812 -0.046875 0.109102 125 121 118
-0.128906 -0.046875 0.110885 118 117 113
-0.125000 -0.046875 0.112743 122 123 118
-0.121094 -0.046875 0.115148 123 123 121
-0.117188 -0.046875 0.117975 126 128 127
-0.113281 -0.046875 0.120871 137 139 138
-0.109375 -0.046875 0.123607 146 150 151
-0.105469 -0.046875 0.125911 140 144 147
-0.101562 -0.046875 0.127917 125 130 136
-0.097656 -0.046875 0.129712 135 139 148
-0.093750 -0.046875 0.131419 139 146 156
-0.089844 -0.046875 0.132811 143 149 161
-0.085938 -0.046875 0.133981 142 150 163
-0.082031 -0.046875 0.134887 140 147 163
-0.078125 -0.046875 0.135563 138 147 162
-0.074219 -0.046875 0.136201 132 141 158
-0.070312 -0.046875 0.136748 125 134 151
-0.066406 -0.046875 0.137250 133 140 156
-0.062500 -0.046875 0.137606 135 142 158
-0.058594 -0.046875 0.137839 132 139 154
-0.054688 -0.046875 0.137858 128 135 151
-0.050781 -0.046875 0.137841 134 141 157
-0.046875 -0.046875 0.137881 143 150 166
-0.042969 -0.046875 0.137935 140 147 162
-0.039062 -0.046875 0.138074 129 136 152
-0.035156 -0.046875 0.138179 138 144 160
-0.031250 -0.046875 0.138132 130 137 153
-0.027344 -0.046875 0.138002 125 132 147
-0.023438 -0.046875 0.137738 126 133 149
-0.019531 -0.046875 0.137200 131 137 153
-0.015625 -0.046875 0.136391 133 140 156
-0.011719 -0.046875 0.135097 137 144 160
-0.007812 -0.046875 0.133268 142 150 163
-0.003906 -0.046875 0.131290 145 152 162
0.000000 -0.046875 0.129327 141 145 154
0.003906 -0.046875 0.127424 136 140 150
0.007812 -0.046875 0.125751 135 139 148
0.011719 -0.046875 0.124193 141 145 153
0.015625 -0.046875 0.122808 146 150 159
0.019531 -0.046875 0.121668 147 151 160
0.023438 -0.046875 0.120802 147 152 158
0.027344 -0.046875 0.120147 142 147 153
0.031250 -0.046875 0.119577 145 150 154
0.035156 -0.046875 0.119289 146 151 155
0.039062 -0.046875 0.119275 139 144 148
0.042969 -0.046875 0.119273 126 130 134
0.046875 -0.046875 0.119197 119 124 127
0.050781 -0.046875 0.119050 124 129 132
0.054688 -0.046875 0.118799 135 140 143
0.058594 -0.046875 0.118479 126 127 129
0.062500 -0.046875 0.118039 121 123 122
0.066406 -0.046875 0.117324 115 116 118
0.070312 -0.046875 0.116264 108 109 111
0.074219 -0.046875 0.115106 106 105 110
0.078125 -0.046875 0.113890 111 110 116
0.082031 -0.046875 0.112638 122 121 127
0.085938 -0.046875 0.111295 132 131 139
0.089844 -0.046875 0.109779 135 134 142
0.093750 -0.046875 0.107971 133 131 142
0.097656 -0.046875 0.105713 135 133 146
0.101562 -0.046875 0.102852 137 135 149
0.105469 -0.046875 0.099511 133 129 144
0.109375 -0.046875 0.095846 125 121 136
0.113281 -0.046875 0.091896 120 116 133
0.117188 -0.046875 0.087798 121 117 131
0.121094 -0.046875 0.083670 115 115 117
0.125000 -0.046875 0.079724 109 110 105
0.128906 -0.046875 0.075916 108 109 104
0.132812 -0.046875 0.072142 116 117 114
0.136719 -0.046875 0.068620 85 88 86
0.140625 -0.046875 0.065265 65 72 67
0.144531 -0.046875 0.063094 79 88 80
0.148438 -0.046875 0.062937 119 124 118
0.152344 -0.046875 0.065496 145 147 142
0.156250 -0.046875 0.072668 150 151 147
0.160156 -0.046875 0.078259 146 146 143
0.164062 -0.046875 0.081329 141 141 138
0.167969 -0.046875 0.083108 137 137 134
0.171875 -0.046875 0.084123 138 138 135
0.175781 -0.046875 0.084400 144 144 141
0.179688 -0.046875 0.083759 152 152 149
0.183594 -0.046875 0.082772 161 160 159
0.187500 -0.046875 0.081769 170 169 169
0.191406 -0.046875 0.080918 182 181 181
0.195312 -0.046875 0.080135 193 192 192
0.199219 -0.046875 0.079159 201 200 200
0.203125 -0.046875 0.077832 206 205 205
0.207031 -0.046875 0.076169 207 205 205
0.210938 -0.046875 0.074390 205 203 203
0.214844 -0.046875 0.072605 205 203 203
0.218750 -0.046875 0.070754 205 202 202
0.222656 -0.046875 0.068289 206 203 203
0.226562 -0.046875 0.064980 206 202 202
0.230469 -0.046875 0.061454 206 201 201
0.234375 -0.046875 0.058806 204 198 198
0.238281 -0.046875 0.057687 201 195 195
0.242188 -0.046875 0.058154 199 192 192
0.246094 -0.046875 0.059430 196 190 189
0.250000 -0.046875 0.061114 193 188 186
0.253906 -0.046875 0.061576 190 186 183
0.257812 -0.046875 0.060804 189 186 181
0.261719 -0.046875 0.059564 189 185 181
0.265625 -0.046875 0.057158 187 180 178
0.269531 -0.046875 0.055567 184 174 174
0.273438 -0.046875 0.050657 183 171 174
0.277344 -0.046875 0.036792 183 171 177
-0.289062 -0.050781 0.024666 56 46 38
-0.285156 -0.050781 0.030285 60 50 40
-0.281250 -0.050781 0.033199 54 46 37
-0.277344 -0.050781 0.032151 52 45 36
-0.273438 -0.050781 0.030865 53 45 36
-0.269531 -0.050781 0.026650 53 46 36
-0.265625 -0.050781 0.019780 53 46 36
-0.261719 -0.050781 0.019460 51 44 35
-0.257812 -0.050781 0.022456 52 45 36
-0.253906 -0.050781 0.025816 52 45 36
-0.250000 -0.050781 0.029361 50 44 35
-0.246094 -0.050781 0.032619 50 43 35
-0.242188 -0.050781 0.035831 48 41 34
-0.238281 -0.050781 0.039170 51 45 37
-0.234375 -0.050781 0.042524 54 48 38
-0.230469 -0.050781 0.045970 51 45 36
-0.226562 -0.050781 0.049343 52 47 37
-0.222656 -0.050781 0.052765 49 44 34
-0.218750 -0.050781 0.056194 44 40 32
-0.214844 -0.050781 0.059520 45 43 34
-0.210938 -0.050781 0.062477 47 43 35
-0.207031 -0.050781 0.065154 47 42 34
-0.203125 -0.050781 0.067582 47 41 34
-0.199219 -0.050781 0.069832 41 36 30
-0.195312 -0.050781 0.071984 38 31 28
-0.191406 -0.050781 0.073773 41 31 32
-0.187500 -0.050781 0.075817 41 34 38
-0.183594 -0.050781 0.077409 50 44 49
-0.179688 -0.050781 0.078652 70 65 71
-0.175781 -0.050781 0.080627 91 86 93
-0.171875 -0.050781 0.084622 123 118 124
-0.167969 -0.050781 0.089276 175 169 172
-0.164062 -0.050781 0.094405 225 220 218
-0.160156 -0.050781 0.099117 221 217 213
-0.156250 -0.050781 0.101941 138 134 128
-0.152344 -0.050781 0.103399 104 101 94
-0.148438 -0.050781 0.104712 99 96 89
-0.144531 -0.050781 0.106449 100 97 90
-0.140625 -0.050781 0.108318 123 120 113
-0.136719 -0.050781 0.110142 122 119 112
-0.132812 -0.050781 0.111859 102 99 90
-0.128906 -0.050781 0.113616 118 115 106
-0.125000 -0.050781 0.115418 122 119 110
-0.121094 -0.050781 0.117810 119 116 109
-0.117188 -0.050781 0.120538 111 111 103
-0.113281 -0.050781 0.123260 118 117 113
-0.109375 -0.050781 0.125869 134 134 132
-0.105469 -0.050781 0.128168 144 144 144
-0.101562 -0.050781 0.130200 143 144 148
-0.097656 -0.050781 0.132027 136 139 146
-0.093750 -0.050781 0.133859 139 143 151
-0.089844 -0.050781 0.135353 140 144 156
-0.085938 -0.050781 0.136581 138 144 158
-0.082031 -0.050781 0.137524 140 146 162
-0.078125 -0.050781 0.138177 138 145 161
-0.074219 -0.050781 0.138773 130 136 154
-0.070312 -0.050781 0.139264 119 126 143
-0.066406 -0.050781 0.139687 125 134 148
-0.062500 -0.050781 0.139970 130 140 152
-0.058594 -0.050781 0.140146 129 138 153
-0.054688 -0.050781 0.140125 124 133 148
-0.050781 -0.050781 0.140092 127 136 150
-0.046875 -0.050781 0.140132 135 143 158
-0.042969 -0.050781 0.140204 134 142 157
-0.039062 -0.050781 0.140313 126 135 149
-0.035156 -0.050781 0.140371 139 147 162
-0.031250 -0.050781 0.140210 134 142 157
-0.027344 -0.050781 0.139932 132 140 157
-0.023438 -0.050781 0.139504 133 142 158
-0.019531 -0.050781 0.138759 135 143 160
-0.015625 -0.050781 0.137703 135 144 161
-0.011719 -0.050781 0.136139 139 148 164
-0.007812 -0.050781 0.134079 145 152 167
-0.003906 -0.050781 0.131904 143 149 164
0.000000 -0.050781 0.129845 139 145 159
0.003906 -0.050781 0.127866 136 142 157
0.007812 -0.050781 0.126086 137 143 157
0.011719 -0.050781 0.124416 140 146 159
0.015625 -0.050781 0.122937 140 145 159
0.019531 -0.050781 0.121723 133 139 152
0.023438 -0.050781 0.120796 127 133 144
0.027344 -0.050781 0.120086 131 137 148
0.031250 -0.050781 0.119453 124 131 141
0.035156 -0.050781 0.119096 123 130 140
0.039062 -0.050781 0.119000 131 138 146
0.042969 -0.050781 0.118939 135 142 150
0.046875 -0.050781 0.118820 129 136 144
0.050781 -0.050781 0.118680 120 127 135
0.054688 -0.050781 0.118488 118 122 131
0.058594 -0.050781 0.118237 125 129 138
0.062500 -0.050781 0.117866 123 126 135
0.066406 -0.050781 0.117189 118 121 130
0.070312 -0.050781 0.116134 115 118 127
0.074219 -0.050781 0.114959 119 119 129
0.078125 -0.050781 0.113715 123 123 133
0.082031 -0.050781 0.112445 125 125 135
0.085938 -0.050781 0.111066 126 125 133
0.089844 -0.050781 0.109519 137 136 144
0.093750 -0.050781 0.107709 136 133 142
0.097656 -0.050781 0.105452 137 134 143
0.101562 -0.050781 0.102590 136 133 142
0.105469 -0.050781 0.099231 131 125 135
0.109375 -0.050781 0.095546 121 115 125
0.113281 -0.050781 0.091596 116 110 120
0.117188 -0.050781 0.087514 117 112 118
0.121094 -0.050781 0.083419 116 115 113
0.125000 -0.050781 0.079516 110 111 105
0.128906 -0.050781 0.075758 115 116 110
0.132812 -0.050781 0.072063 103 104 101
0.136719 -0.050781 0.068634 65 68 66
0.140625 -0.050781 0.065393 60 65 62
0.144531 -0.050781 0.063320 82 89 83
0.148438 -0.050781 0.063038 121 125 120
0.152344 -0.050781 0.065730 142 144 140
0.156250 -0.050781 0.073959 144 145 142
0.160156 -0.050781 0.080201 139 140 137
0.164062 -0.050781 0.083552 135 135 132
0.167969 -0.050781 0.085486 134 134 132
0.171875 -0.050781 0.086517 139 139 136
0.175781 -0.050781 0.086745 148 148 146
0.179688 -0.050781 0.086106 158 158 156
0.183594 -0.050781 0.085064 168 167 167
0.187500 -0.050781 0.083991 174 173 173
0.191406 -0.050781 0.083018 182 181 181
0.195312 -0.050781 0.082037 191 189 190
0.199219 -0.050781 0.080794 197 196 196
0.203125 -0.050781 0.079144 201 200 200
0.207031 -0.050781 0.077223 200 198 198
0.210938 -0.050781 0.075275 198 196 196
0.214844 -0.050781 0.073362 199 197 197
0.218750 -0.050781 0.071517 202 199 199
0.222656 -0.050781 0.069102 205 201 201
0.226562 -0.050781 0.065895 207 203 203
0.230469 -0.050781 0.062623 209 204 204
0.234375 -0.050781 0.060156 207 202 202
0.238281 -0.050781 0.059190 206 200 200
0.242188 -0.050781 0.059581 203 197 197
0.246094 -0.050781 0.060441 200 195 193
0.250000 -0.050781 0.061574 197 193 190
0.253906 -0.050781 0.061632 194 192 187
0.257812 -0.050781 0.060482 193 191 186
0.261719 -0.050781 0.058472 194 191 186
0.265625 -0.050781 0.055982 192 186 183
0.269531 -0.050781 0.053543 191 180 181
0.273438 -0.050781 0.047930 193 181 184
0.277344 -0.050781 0.023658 195 185 189
-0.289062 -0.054688 0.025100 54 45 38
-0.285156 -0.054688 0.030370 61 52 41
-0.281250 -0.054688 0.033075 54 47 38
-0.277344 -0.054688 0.032353 52 45 36
-0.273438 -0.054688 0.031285 53 45 36
-0.269531 -0.054688 0.028821 53 45 36
-0.265625 -0.054688 0.021921 53 45 35
-0.261719 -0.054688 0.020241 51 43 34
-0.257812 -0.054688 0.022865 51 44 34
-0.253906 -0.054688 0.026180 52 45 35
-0.250000 -0.054688 0.029720 50 43 34
-0.246094 -0.054688 0.032978 49 42 33
-0.242188 -0.054688 0.036156 47 40 32
-0.238281 -0.054688 0.039418 48 42 34
-0.234375 -0.054688 0.042838 51 44 36
-0.230469 -0.054688 0.046319 49 44 35
-0.226562 -0.054688 0.049711 52 46 36
-0.222656 -0.054688 0.053147 53 46 36
-0.218750 -0.054688 0.056513 50 45 35
-0.214844 -0.054688 0.059751 53 47 38
-0.210938 -0.054688 0.062790 53 46 37
-0.207031 -0.054688 0.065580 49 41 34
-0.203125 -0.054688 0.068125 47 39 32
-0.199219 -0.054688 0.070480 44 36 29
-0.195312 -0.054688 0.072283 40 33 26
-0.191406 -0.054688 0.073812 42 32 26
-0.187500 -0.054688 0.075803 38 29 26
-0.183594 -0.054688 0.077575 31 24 24
-0.179688 -0.054688 0.079115 36 29 31
-0.175781 -0.054688 0.080291 40 36 41
-0.171875 -0.054688 0.081146 62 59 65
-0.167969 -0.054688 0.081099 104 100 105
-0.164062 -0.054688 0.080737 154 150 155
-0.160156 -0.054688 0.081672 193 187 189
-0.156250 -0.054688 0.084243 204 199 198
-0.152344 -0.054688 0.089193 173 169 165
-0.148438 -0.054688 0.096975 111 108 101
-0.144531 -0.054688 0.105666 102 99 91
-0.140625 -0.054688 0.111602 105 103 91
-0.136719 -0.054688 0.114427 87 85 72
-0.132812 -0.054688 0.115972 100 98 85
-0.128906 -0.054688 0.117297 104 101 86
-0.125000 -0.054688 0.118788 120 117 102
-0.121094 -0.054688 0.120922 131 127 115
-0.117188 -0.054688 0.123541 125 123 111
-0.113281 -0.054688 0.126154 116 113 104
-0.109375 -0.054688 0.128782 117 116 111
-0.105469 -0.054688 0.131191 133 132 130
-0.101562 -0.054688 0.133415 145 145 145
-0.097656 -0.054688 0.135476 146 147 152
-0.093750 -0.054688 0.137527 142 145 152
-0.089844 -0.054688 0.139194 137 139 151
-0.085938 -0.054688 0.140473 132 135 149
-0.082031 -0.054688 0.141467 133 136 152
-0.078125 -0.054688 0.142096 131 136 154
-0.074219 -0.054688 0.142673 125 130 150
-0.070312 -0.054688 0.143196 116 122 140
-0.066406 -0.054688 0.143598 112 120 135
-0.062500 -0.054688 0.143850 122 132 144
-0.058594 -0.054688 0.143948 130 138 153
-0.054688 -0.054688 0.143872 126 135 149
-0.050781 -0.054688 0.143821 119 128 142
-0.046875 -0.054688 0.143824 120 128 142
-0.042969 -0.054688 0.143863 124 133 147
-0.039062 -0.054688 0.143878 129 138 152
-0.035156 -0.054688 0.143800 129 137 151
-0.031250 -0.054688 0.143441 129 138 152
-0.027344 -0.054688 0.142974 133 142 158
-0.023438 -0.054688 0.142327 139 148 164
-0.019531 -0.054688 0.141302 140 148 165
-0.015625 -0.054688 0.139937 135 143 160
-0.011719 -0.054688 0.138017 131 140 157
-0.007812 -0.054688 0.135591 132 139 158
-0.003906 -0.054688 0.133085 137 144 162
0.000000 -0.054688 0.130774 132 137 156
0.003906 -0.054688 0.128572 128 132 153
0.007812 -0.054688 0.126608 126 131 150
0.011719 -0.054688 0.124774 129 134 152
0.015625 -0.054688 0.123155 130 135 152
0.019531 -0.054688 0.121831 130 134 152
0.023438 -0.054688 0.120828 129 134 152
0.027344 -0.054688 0.120024 120 125 143
0.031250 -0.054688 0.119300 114 120 136
0.035156 -0.054688 0.118849 114 119 135
0.039062 -0.054688 0.118632 119 125 138
0.042969 -0.054688 0.118472 118 124 138
0.046875 -0.054688 0.118264 111 117 129
0.050781 -0.054688 0.118100 111 117 129
0.054688 -0.054688 0.117964 116 122 136
0.058594 -0.054688 0.117780 130 136 152
0.062500 -0.054688 0.117498 133 136 155
0.066406 -0.054688 0.116887 127 130 147
0.070312 -0.054688 0.115866 115 116 134
0.074219 -0.054688 0.114728 107 109 124
0.078125 -0.054688 0.113500 109 111 124
0.082031 -0.054688 0.112224 117 117 129
0.085938 -0.054688 0.110820 120 120 130
0.089844 -0.054688 0.109250 140 137 146
0.093750 -0.054688 0.107430 137 134 141
0.097656 -0.054688 0.105172 138 133 139
0.101562 -0.054688 0.102316 138 133 137
0.105469 -0.054688 0.098959 132 128 129
0.109375 -0.054688 0.095286 124 118 120
0.113281 -0.054688 0.091361 120 114 116
0.117188 -0.054688 0.087306 121 116 113
0.121094 -0.054688 0.083265 120 119 114
0.125000 -0.054688 0.079406 115 116 109
0.128906 -0.054688 0.075668 119 120 113
0.132812 -0.054688 0.072001 87 87 85
0.136719 -0.054688 0.068608 53 54 54
0.140625 -0.054688 0.065439 60 63 62
0.144531 -0.054688 0.063425 90 94 91
0.148438 -0.054688 0.063101 124 128 123
0.152344 -0.054688 0.065568 139 141 138
0.156250 -0.054688 0.074657 140 140 138
0.160156 -0.054688 0.081757 134 134 132
0.164062 -0.054688 0.085558 130 130 128
0.167969 -0.054688 0.087727 131 131 129
0.171875 -0.054688 0.088816 138 137 136
0.175781 -0.054688 0.089061 149 148 147
0.179688 -0.054688 0.088409 163 162 160
0.183594 -0.054688 0.087307 172 171 171
0.187500 -0.054688 0.086192 174 172 173
0.191406 -0.054688 0.085114 179 177 177
0.195312 -0.054688 0.083936 187 184 185
0.199219 -0.054688 0.082492 192 190 191
0.203125 -0.054688 0.080578 196 194 194
0.207031 -0.054688 0.078501 197 194 195
0.210938 -0.054688 0.076553 198 195 196
0.214844 -0.054688 0.074658 202 199 199
0.218750 -0.054688 0.072887 206 202 203
0.222656 -0.054688 0.070512 210 206 207
0.226562 -0.054688 0.067372 214 209 210
0.230469 -0.054688 0.064172 216 211 211
0.234375 -0.054688 0.061867 215 210 210
0.238281 -0.054688 0.060867 213 208 208
0.242188 -0.054688 0.060966 210 205 204
0.246094 -0.054688 0.061323 207 202 201
0.250000 -0.054688 0.061874 203 200 197
0.253906 -0.054688 0.061553 199 197 193
0.257812 -0.054688 0.060043 196 195 190
0.261719 -0.054688 0.057449 195 193 188
0.265625 -0.054688 0.054850 192 187 184
0.269531 -0.054688 0.051576 192 182 183
0.273438 -0.054688 0.043742 195 182 186
-0.289062 -0.058594 0.025192 57 49 41
-0.285156 -0.058594 0.029971 61 53 42
-0.281250 -0.058594 0.032585 55 47 39
-0.277344 -0.058594 0.032198 53 45 37
-0.273438 -0.058594 0.031453 53 45 37
-0.269531 -0.058594 0.029823 53 45 36
-0.265625 -0.058594 0.024431 53 45 35
-0.261719 -0.058594 0.021394 51 43 34
-0.257812 -0.058594 0.023504 50 43 33
-0.253906 -0.058594 0.026669 51 44 34
-0.250000 -0.058594 0.030153 50 43 34
-0.246094 -0.058594 0.033359 49 42 33
-0.242188 -0.058594 0.036463 48 41 32
-0.238281 -0.058594 0.039657 47 40 32
-0.234375 -0.058594 0.043024 47 40 32
-0.230469 -0.058594 0.046447 46 40 32
-0.226562 -0.058594 0.049789 49 42 33
-0.222656 -0.058594 0.053220 50 43 34
-0.218750 -0.058594 0.056641 49 42 34
-0.214844 -0.058594 0.059909 49 42 35
-0.210938 -0.058594 0.062915 48 42 34
-0.207031 -0.058594 0.065740 47 40 33
-0.203125 -0.058594 0.068415 47 39 31
-0.199219 -0.058594 0.070966 45 37 29
-0.195312 -0.058594 0.073099 41 35 26
-0.191406 -0.058594 0.075003 44 36 27
-0.187500 -0.058594 0.076892 45 38 28
-0.183594 -0.058594 0.078664 39 33 26
-0.179688 -0.058594 0.080400 42 35 29
-0.175781 -0.058594 0.081989 34 30 27
-0.171875 -0.058594 0.083102 30 28 27
-0.167969 -0.058594 0.083815 35 32 33
-0.164062 -0.058594 0.084321 38 35 38
-0.160156 -0.058594 0.084401 50 45 50
-0.156250 -0.058594 0.083401 64 58 63
-0.152344 -0.058594 0.082084 107 102 106
-0.148438 -0.058594 0.081557 152 149 147
-0.144531 -0.058594 0.082577 136 132 125
-0.140625 -0.058594 0.088711 121 119 107
-0.136719 -0.058594 0.098863 105 103 88
-0.132812 -0.058594 0.108761 89 88 70
-0.128906 -0.058594 0.116119 94 91 72
-0.125000 -0.058594 0.120450 112 107 88
-0.121094 -0.058594 0.123258 132 126 110
-0.117188 -0.058594 0.126015 137 134 119
-0.113281 -0.058594 0.128570 128 124 113
-0.109375 -0.058594 0.130954 117 114 107
-0.105469 -0.058594 0.133093 118 117 113
-0.101562 -0.058594 0.135032 126 126 124
-0.097656 -0.058594 0.136793 137 138 142
-0.093750 -0.058594 0.138721 137 140 147
-0.089844 -0.058594 0.140381 137 139 150
-0.085938 -0.058594 0.141658 131 134 149
-0.082031 -0.058594 0.142726 129 132 149
-0.078125 -0.058594 0.143413 128 133 152
-0.074219 -0.058594 0.144085 126 131 150
-0.070312 -0.058594 0.144653 120 127 145
-0.066406 -0.058594 0.145024 113 122 137
-0.062500 -0.058594 0.145304 114 124 136
-0.058594 -0.058594 0.145356 118 126 141
-0.054688 -0.058594 0.145335 122 131 146
-0.050781 -0.058594 0.145361 123 132 146
-0.046875 -0.058594 0.145388 120 128 143
-0.042969 -0.058594 0.145405 119 128 142
-0.039062 -0.058594 0.145381 123 132 146
-0.035156 -0.058594 0.145209 117 126 142
-0.031250 -0.058594 0.144731 119 128 144
-0.027344 -0.058594 0.144215 125 134 150
-0.023438 -0.058594 0.143421 133 142 158
-0.019531 -0.058594 0.142234 135 144 160
-0.015625 -0.058594 0.140632 132 140 157
-0.011719 -0.058594 0.138398 130 138 156
-0.007812 -0.058594 0.135683 132 139 160
-0.003906 -0.058594 0.132897 136 142 167
0.000000 -0.058594 0.130387 130 136 161
0.003906 -0.058594 0.127999 122 127 154
0.007812 -0.058594 0.125855 119 124 148
0.011719 -0.058594 0.123839 120 125 148
0.015625 -0.058594 0.122143 123 129 150
0.019531 -0.058594 0.120804 128 133 155
0.023438 -0.058594 0.119793 131 137 157
0.027344 -0.058594 0.119018 120 126 147
0.031250 -0.058594 0.118328 121 128 147
0.035156 -0.058594 0.117879 124 131 149
0.039062 -0.058594 0.117638 123 130 149
0.042969 -0.058594 0.117466 113 119 138
0.046875 -0.058594 0.117256 104 111 128
0.050781 -0.058594 0.117168 114 121 139
0.054688 -0.058594 0.117205 133 140 159
0.058594 -0.058594 0.117220 107 113 138
0.062500 -0.058594 0.117108 110 114 143
0.066406 -0.058594 0.116616 106 110 137
0.070312 -0.058594 0.115691 102 104 128
0.074219 -0.058594 0.114618 104 106 126
0.078125 -0.058594 0.113421 117 118 136
0.082031 -0.058594 0.112147 132 131 146
0.085938 -0.058594 0.110710 136 136 146
0.089844 -0.058594 0.109110 134 131 139
0.093750 -0.058594 0.107266 130 128 133
0.097656 -0.058594 0.105002 129 125 126
0.101562 -0.058594 0.102161 131 126 123
0.105469 -0.058594 0.098838 130 125 121
0.109375 -0.058594 0.095211 127 120 114
0.113281 -0.058594 0.091338 125 118 110
0.117188 -0.058594 0.087350 125 121 110
0.121094 -0.058594 0.083391 119 119 109
0.125000 -0.058594 0.079615 115 117 106
0.128906 -0.058594 0.075927 115 117 108
0.132812 -0.058594 0.072282 75 76 73
0.136719 -0.058594 0.068928 51 52 52
0.140625 -0.058594 0.065849 66 68 67
0.144531 -0.058594 0.063823 96 99 97
0.148438 -0.058594 0.063559 122 124 121
0.152344 -0.058594 0.065513 130 130 128
0.156250 -0.058594 0.075340 131 131 129
0.160156 -0.058594 0.083486 129 128 127
0.164062 -0.058594 0.087670 127 126 126
0.167969 -0.058594 0.089824 130 129 129
0.171875 -0.058594 0.090762 141 140 140
0.175781 -0.058594 0.090935 156 155 155
0.179688 -0.058594 0.090240 173 171 172
0.183594 -0.058594 0.089163 182 179 180
0.187500 -0.058594 0.088142 179 175 176
0.191406 -0.058594 0.087147 179 175 176
0.195312 -0.058594 0.085887 186 182 183
