ply
    format ascii 1.0
    element vertex 106326
    property float x
    property float y
    property float z
    property uchar red
    property uchar green
    property uchar blue
    end_header
0.019531 -0.070312 -0.098326 44 55 77
0.023438 -0.070312 -0.098652 45 56 78
0.027344 -0.070312 -0.098697 45 56 77
0.031250 -0.070312 -0.098554 45 56 78
0.035156 -0.070312 -0.098022 45 56 77
0.039062 -0.070312 -0.097160 46 58 79
0.042969 -0.070312 -0.095960 48 60 81
0.046875 -0.070312 -0.094338 48 59 80
0.050781 -0.070312 -0.092306 46 57 78
0.054688 -0.070312 -0.089844 45 56 77
0.058594 -0.070312 -0.087036 46 57 78
0.062500 -0.070312 -0.083765 48 59 80
0.066406 -0.070312 -0.079963 47 59 80
0.070312 -0.070312 -0.075709 45 56 77
0.074219 -0.070312 -0.071175 44 54 75
0.078125 -0.070312 -0.066360 45 56 77
0.082031 -0.070312 -0.061333 46 57 78
0.085938 -0.070312 -0.055944 45 56 77
0.089844 -0.070312 -0.050474 45 56 77
0.093750 -0.070312 -0.045115 44 54 75
0.097656 -0.070312 -0.039386 43 53 74
0.101562 -0.070312 -0.033763 44 54 75
0.105469 -0.070312 -0.028024 45 55 75
0.109375 -0.070312 -0.022249 42 52 72
0.113281 -0.070312 -0.016932 42 52 72
0.117188 -0.070312 -0.011875 44 55 75
0.121094 -0.070312 -0.007518 40 50 71
0.125000 -0.070312 -0.003326 42 51 72
0.128906 -0.070312 0.000472 44 49 69
0.132812 -0.070312 0.003760 33 34 49
0.136719 -0.070312 0.008663 42 51 72
-0.476562 -0.074219 -0.035661 133 91 86
-0.472656 -0.074219 -0.041045 188 136 126
-0.468750 -0.074219 -0.038826 217 169 156
-0.464844 -0.074219 -0.035415 218 162 148
-0.460938 -0.074219 -0.029284 197 146 128
-0.457031 -0.074219 -0.004393 163 119 104
-0.425781 -0.074219 0.013777 199 141 146
-0.421875 -0.074219 0.016152 189 129 135
-0.339844 -0.074219 0.030019 18 21 22
-0.335938 -0.074219 0.028097 15 17 19
-0.332031 -0.074219 0.024896 15 17 18
-0.328125 -0.074219 0.007644 15 16 18
-0.324219 -0.074219 -0.005968 16 17 19
-0.320312 -0.074219 -0.016328 17 18 20
-0.316406 -0.074219 -0.023611 18 20 22
-0.312500 -0.074219 -0.029940 20 22 25
-0.308594 -0.074219 -0.035614 19 22 26
-0.304688 -0.074219 -0.040675 19 22 27
-0.300781 -0.074219 -0.045608 20 23 28
-0.296875 -0.074219 -0.050261 20 24 29
-0.292969 -0.074219 -0.054670 20 24 30
-0.289062 -0.074219 -0.059064 21 25 31
-0.285156 -0.074219 -0.063733 21 26 32
-0.281250 -0.074219 -0.069081 22 26 33
-0.277344 -0.074219 -0.075261 22 27 34
-0.273438 -0.074219 -0.082194 23 27 36
-0.269531 -0.074219 -0.089584 24 29 38
-0.265625 -0.074219 -0.096331 25 30 40
-0.261719 -0.074219 -0.102364 26 31 42
-0.257812 -0.074219 -0.107402 27 32 44
-0.253906 -0.074219 -0.111772 27 32 45
-0.250000 -0.074219 -0.115749 26 32 45
-0.246094 -0.074219 -0.119309 26 31 44
-0.242188 -0.074219 -0.122574 27 32 45
-0.238281 -0.074219 -0.125512 29 35 48
-0.234375 -0.074219 -0.128153 30 36 49
-0.230469 -0.074219 -0.130345 29 34 48
-0.226562 -0.074219 -0.132244 29 34 48
-0.222656 -0.074219 -0.133811 31 36 50
-0.218750 -0.074219 -0.135128 31 36 50
-0.214844 -0.074219 -0.136266 30 35 49
-0.210938 -0.074219 -0.137222 30 35 49
-0.207031 -0.074219 -0.137926 30 35 49
-0.203125 -0.074219 -0.138354 30 35 49
-0.199219 -0.074219 -0.138437 30 35 49
-0.195312 -0.074219 -0.138226 30 35 48
-0.191406 -0.074219 -0.137781 30 34 48
-0.187500 -0.074219 -0.137023 31 36 49
-0.183594 -0.074219 -0.136071 32 37 51
-0.179688 -0.074219 -0.134911 32 37 51
-0.175781 -0.074219 -0.133604 31 36 50
-0.171875 -0.074219 -0.132380 30 35 49
-0.167969 -0.074219 -0.131312 30 35 49
-0.164062 -0.074219 -0.130447 31 36 49
-0.160156 -0.074219 -0.129589 33 38 51
-0.156250 -0.074219 -0.128767 35 40 53
-0.152344 -0.074219 -0.127910 34 40 53
-0.148438 -0.074219 -0.126892 33 38 51
-0.144531 -0.074219 -0.126040 32 37 50
-0.140625 -0.074219 -0.124902 30 35 48
-0.136719 -0.074219 -0.123469 30 35 48
-0.132812 -0.074219 -0.121350 32 37 50
-0.128906 -0.074219 -0.118934 34 39 52
-0.125000 -0.074219 -0.116926 33 37 49
-0.121094 -0.074219 -0.114138 31 35 46
-0.117188 -0.074219 -0.111224 33 37 47
-0.113281 -0.074219 -0.108372 34 39 47
-0.109375 -0.074219 -0.104486 30 35 42
-0.105469 -0.074219 -0.099762 16 19 26
-0.101562 -0.074219 -0.095523 8 10 14
-0.097656 -0.074219 -0.091006 8 9 13
-0.093750 -0.074219 -0.086479 13 13 18
-0.089844 -0.074219 -0.081667 19 21 26
-0.085938 -0.074219 -0.076186 22 25 31
-0.082031 -0.074219 -0.070128 22 25 34
-0.078125 -0.074219 -0.063518 25 29 39
-0.074219 -0.074219 -0.057896 28 32 45
-0.070312 -0.074219 -0.053791 29 33 47
-0.066406 -0.074219 -0.051303 28 33 46
-0.062500 -0.074219 -0.050272 30 34 48
-0.058594 -0.074219 -0.050239 32 37 51
-0.054688 -0.074219 -0.051266 33 39 53
-0.050781 -0.074219 -0.052885 33 39 53
-0.046875 -0.074219 -0.055173 33 39 53
-0.042969 -0.074219 -0.058334 34 39 54
-0.039062 -0.074219 -0.062232 34 40 55
-0.035156 -0.074219 -0.066852 35 41 57
-0.031250 -0.074219 -0.071331 37 42 59
-0.027344 -0.074219 -0.075615 38 44 61
-0.023438 -0.074219 -0.079526 38 44 61
-0.019531 -0.074219 -0.083043 38 44 61
-0.015625 -0.074219 -0.086126 40 47 64
-0.011719 -0.074219 -0.088542 43 51 69
-0.007812 -0.074219 -0.090380 42 51 71
-0.003906 -0.074219 -0.091854 42 52 72
0.000000 -0.074219 -0.093105 43 54 75
0.003906 -0.074219 -0.094283 44 55 76
0.007812 -0.074219 -0.095427 43 54 75
0.011719 -0.074219 -0.096423 41 52 73
0.015625 -0.074219 -0.097188 42 53 73
0.019531 -0.074219 -0.097736 44 55 76
0.023438 -0.074219 -0.098064 45 57 78
0.027344 -0.074219 -0.098104 45 57 78
0.031250 -0.074219 -0.097941 46 57 78
0.035156 -0.074219 -0.097387 45 57 78
0.039062 -0.074219 -0.096501 47 58 79
0.042969 -0.074219 -0.095287 49 60 81
0.046875 -0.074219 -0.093676 48 59 80
0.050781 -0.074219 -0.091621 46 57 78
0.054688 -0.074219 -0.089137 45 56 77
0.058594 -0.074219 -0.086298 46 57 77
0.062500 -0.074219 -0.082956 47 58 79
0.066406 -0.074219 -0.079083 47 58 79
0.070312 -0.074219 -0.074739 45 56 77
0.074219 -0.074219 -0.070120 45 55 76
0.078125 -0.074219 -0.065237 46 56 77
0.082031 -0.074219 -0.060167 45 56 77
0.085938 -0.074219 -0.054760 44 54 75
0.089844 -0.074219 -0.049284 45 55 76
0.093750 -0.074219 -0.043967 45 55 77
0.097656 -0.074219 -0.038359 45 56 77
0.101562 -0.074219 -0.032954 46 57 78
0.105469 -0.074219 -0.027419 45 56 77
0.109375 -0.074219 -0.021836 42 52 73
0.113281 -0.074219 -0.016761 42 53 74
0.117188 -0.074219 -0.011905 47 59 79
0.121094 -0.074219 -0.007753 42 53 73
0.125000 -0.074219 -0.003687 42 52 71
0.128906 -0.074219 0.000059 43 49 68
0.132812 -0.074219 0.003274 34 36 52
0.136719 -0.074219 0.009404 42 52 71
-0.472656 -0.078125 -0.036437 157 108 100
-0.468750 -0.078125 -0.034911 207 159 146
-0.464844 -0.078125 -0.032547 213 155 143
-0.460938 -0.078125 -0.028801 194 144 127
-0.457031 -0.078125 -0.013845 175 133 117
-0.425781 -0.078125 0.016995 207 150 154
-0.421875 -0.078125 0.017406 202 146 151
-0.339844 -0.078125 0.032730 19 22 23
-0.335938 -0.078125 0.028837 15 17 19
-0.332031 -0.078125 0.023133 15 17 19
-0.328125 -0.078125 0.006911 14 15 18
-0.324219 -0.078125 -0.004387 16 16 19
-0.320312 -0.078125 -0.015150 16 17 20
-0.316406 -0.078125 -0.022686 18 19 22
-0.312500 -0.078125 -0.029304 19 21 23
-0.308594 -0.078125 -0.035144 19 21 25
-0.304688 -0.078125 -0.040313 19 22 26
-0.300781 -0.078125 -0.045404 20 23 28
-0.296875 -0.078125 -0.050222 20 24 29
-0.292969 -0.078125 -0.054732 21 24 30
-0.289062 -0.078125 -0.059222 21 25 31
-0.285156 -0.078125 -0.063928 22 26 32
-0.281250 -0.078125 -0.069192 21 26 32
-0.277344 -0.078125 -0.075149 21 25 33
-0.273438 -0.078125 -0.081771 21 26 34
-0.269531 -0.078125 -0.088815 23 28 37
-0.265625 -0.078125 -0.095328 24 29 39
-0.261719 -0.078125 -0.101237 25 30 41
-0.257812 -0.078125 -0.106261 26 32 43
-0.253906 -0.078125 -0.110661 26 32 44
-0.250000 -0.078125 -0.114687 26 32 45
-0.246094 -0.078125 -0.118345 27 32 46
-0.242188 -0.078125 -0.121722 27 32 46
-0.238281 -0.078125 -0.124790 29 34 47
-0.234375 -0.078125 -0.127557 30 35 48
-0.230469 -0.078125 -0.129875 29 34 47
-0.226562 -0.078125 -0.131876 28 33 47
-0.222656 -0.078125 -0.133544 30 35 49
-0.218750 -0.078125 -0.134950 32 37 51
-0.214844 -0.078125 -0.136152 31 37 50
-0.210938 -0.078125 -0.137149 30 35 48
-0.207031 -0.078125 -0.137870 29 34 47
-0.203125 -0.078125 -0.138306 30 36 49
-0.199219 -0.078125 -0.138384 32 37 51
-0.195312 -0.078125 -0.138166 30 35 48
-0.191406 -0.078125 -0.137691 29 33 47
-0.187500 -0.078125 -0.136909 30 35 48
-0.183594 -0.078125 -0.135954 31 36 50
-0.179688 -0.078125 -0.134808 31 36 50
-0.175781 -0.078125 -0.133522 31 36 50
-0.171875 -0.078125 -0.132339 30 35 49
-0.167969 -0.078125 -0.131351 30 35 49
-0.164062 -0.078125 -0.130596 30 35 49
-0.160156 -0.078125 -0.129884 32 37 50
-0.156250 -0.078125 -0.129217 35 40 53
-0.152344 -0.078125 -0.128515 34 40 53
-0.148438 -0.078125 -0.127629 33 38 51
-0.144531 -0.078125 -0.126925 31 37 50
-0.140625 -0.078125 -0.125925 29 35 47
-0.136719 -0.078125 -0.124602 28 33 46
-0.132812 -0.078125 -0.122588 29 34 47
-0.128906 -0.078125 -0.120269 31 36 49
-0.125000 -0.078125 -0.118321 30 34 47
-0.121094 -0.078125 -0.115564 29 33 44
-0.117188 -0.078125 -0.112641 32 35 45
-0.113281 -0.078125 -0.109869 33 38 45
-0.109375 -0.078125 -0.106024 30 35 42
-0.105469 -0.078125 -0.101080 17 21 28
-0.101562 -0.078125 -0.096693 9 11 16
-0.097656 -0.078125 -0.091878 11 11 16
-0.093750 -0.078125 -0.087064 15 16 22
-0.089844 -0.078125 -0.081977 21 24 29
-0.085938 -0.078125 -0.076082 24 26 33
-0.082031 -0.078125 -0.069499 23 26 34
-0.078125 -0.078125 -0.062153 24 28 38
-0.074219 -0.078125 -0.055788 26 30 42
-0.070312 -0.078125 -0.051206 27 32 45
-0.066406 -0.078125 -0.048534 27 32 45
-0.062500 -0.078125 -0.047491 29 34 47
-0.058594 -0.078125 -0.047503 31 37 50
-0.054688 -0.078125 -0.048595 33 38 52
-0.050781 -0.078125 -0.050360 33 39 53
-0.046875 -0.078125 -0.052786 34 39 53
-0.042969 -0.078125 -0.056017 34 39 54
-0.039062 -0.078125 -0.059967 34 40 55
-0.035156 -0.078125 -0.064665 35 40 56
-0.031250 -0.078125 -0.069253 36 42 59
-0.027344 -0.078125 -0.073663 38 44 60
-0.023438 -0.078125 -0.077719 38 44 60
-0.019531 -0.078125 -0.081391 38 43 60
-0.015625 -0.078125 -0.084626 40 47 64
-0.011719 -0.078125 -0.087186 43 50 69
-0.007812 -0.078125 -0.089190 41 50 69
-0.003906 -0.078125 -0.090805 40 50 70
0.000000 -0.078125 -0.092185 42 52 73
0.003906 -0.078125 -0.093476 43 54 75
0.007812 -0.078125 -0.094707 43 54 75
0.011719 -0.078125 -0.095767 42 53 74
0.015625 -0.078125 -0.096569 43 55 75
0.019531 -0.078125 -0.097149 45 57 78
0.023438 -0.078125 -0.097479 46 57 78
0.027344 -0.078125 -0.097500 46 57 78
0.031250 -0.078125 -0.097314 47 59 79
0.035156 -0.078125 -0.096742 47 58 79
0.039062 -0.078125 -0.095839 47 58 79
0.042969 -0.078125 -0.094602 48 59 80
0.046875 -0.078125 -0.092980 48 59 80
0.050781 -0.078125 -0.090905 47 58 79
0.054688 -0.078125 -0.088409 46 57 78
0.058594 -0.078125 -0.085543 45 56 76
0.062500 -0.078125 -0.082148 46 57 77
0.066406 -0.078125 -0.078213 46 57 78
0.070312 -0.078125 -0.073783 46 57 77
0.074219 -0.078125 -0.069099 46 56 77
0.078125 -0.078125 -0.064171 46 57 78
0.082031 -0.078125 -0.059070 45 55 76
0.085938 -0.078125 -0.053662 43 53 74
0.089844 -0.078125 -0.048209 44 55 76
0.093750 -0.078125 -0.042961 44 55 76
0.097656 -0.078125 -0.037465 45 55 76
0.101562 -0.078125 -0.032241 46 57 77
0.105469 -0.078125 -0.026903 46 57 78
0.109375 -0.078125 -0.021519 43 54 74
0.113281 -0.078125 -0.016662 42 54 74
0.117188 -0.078125 -0.011987 46 57 78
0.121094 -0.078125 -0.008025 41 51 72
0.125000 -0.078125 -0.003970 42 52 71
0.128906 -0.078125 -0.000331 41 48 66
0.132812 -0.078125 0.003376 33 36 52
0.136719 -0.078125 0.012000 42 52 71
-0.468750 -0.082031 -0.029853 174 126 114
-0.464844 -0.082031 -0.029804 207 154 141
-0.460938 -0.082031 -0.025689 210 169 153
-0.457031 -0.082031 -0.020212 212 177 162
-0.453125 -0.082031 -0.002588 170 125 114
-0.425781 -0.082031 0.019282 214 161 161
-0.421875 -0.082031 0.019617 209 160 161
-0.335938 -0.082031 0.031244 15 17 19
-0.332031 -0.082031 0.023354 16 17 20
-0.328125 -0.082031 0.007908 14 15 18
-0.324219 -0.082031 -0.003234 16 16 19
-0.320312 -0.082031 -0.014156 17 17 20
-0.316406 -0.082031 -0.021909 18 19 21
-0.312500 -0.082031 -0.028572 19 20 23
-0.308594 -0.082031 -0.034548 19 21 24
-0.304688 -0.082031 -0.039822 19 22 26
-0.300781 -0.082031 -0.045065 19 23 27
-0.296875 -0.082031 -0.050014 20 23 28
-0.292969 -0.082031 -0.054572 20 24 29
-0.289062 -0.082031 -0.059092 21 25 31
-0.285156 -0.082031 -0.063809 22 26 32
-0.281250 -0.082031 -0.069011 21 26 32
-0.277344 -0.082031 -0.074845 21 25 33
-0.273438 -0.082031 -0.081281 21 26 34
-0.269531 -0.082031 -0.088094 22 27 37
-0.265625 -0.082031 -0.094451 23 28 39
-0.261719 -0.082031 -0.100247 24 30 41
-0.257812 -0.082031 -0.105267 26 32 43
-0.253906 -0.082031 -0.109705 26 32 44
-0.250000 -0.082031 -0.113779 27 33 46
-0.246094 -0.082031 -0.117524 28 33 46
-0.242188 -0.082031 -0.120986 27 32 46
-0.238281 -0.082031 -0.124166 29 34 47
-0.234375 -0.082031 -0.127031 30 36 49
-0.230469 -0.082031 -0.129448 29 34 48
-0.226562 -0.082031 -0.131538 28 33 47
-0.222656 -0.082031 -0.133283 30 34 48
-0.218750 -0.082031 -0.134748 32 37 50
-0.214844 -0.082031 -0.136006 32 37 51
-0.210938 -0.082031 -0.137052 29 34 48
-0.207031 -0.082031 -0.137786 28 33 46
-0.203125 -0.082031 -0.138227 30 35 49
-0.199219 -0.082031 -0.138293 32 37 51
-0.195312 -0.082031 -0.138053 30 35 48
-0.191406 -0.082031 -0.137548 28 33 46
-0.187500 -0.082031 -0.136746 29 34 47
-0.183594 -0.082031 -0.135782 30 35 49
-0.179688 -0.082031 -0.134650 30 35 49
-0.175781 -0.082031 -0.133385 30 35 50
-0.171875 -0.082031 -0.132240 29 35 49
-0.167969 -0.082031 -0.131331 29 35 49
-0.164062 -0.082031 -0.130683 30 35 49
-0.160156 -0.082031 -0.130113 32 37 50
-0.156250 -0.082031 -0.129595 34 39 52
-0.152344 -0.082031 -0.129037 33 38 52
-0.148438 -0.082031 -0.128267 31 37 50
-0.144531 -0.082031 -0.127684 30 36 49
-0.140625 -0.082031 -0.126792 29 34 47
-0.136719 -0.082031 -0.125544 27 32 45
-0.132812 -0.082031 -0.123614 27 33 45
-0.128906 -0.082031 -0.121397 29 34 47
-0.125000 -0.082031 -0.119551 28 33 45
-0.121094 -0.082031 -0.116883 28 32 43
-0.117188 -0.082031 -0.113991 31 35 44
-0.113281 -0.082031 -0.111222 32 37 45
-0.109375 -0.082031 -0.107472 31 35 43
-0.105469 -0.082031 -0.102304 19 22 29
-0.101562 -0.082031 -0.097726 11 13 18
-0.097656 -0.082031 -0.092631 12 13 17
-0.093750 -0.082031 -0.087551 16 17 22
-0.089844 -0.082031 -0.082141 20 22 27
-0.085938 -0.082031 -0.075825 22 24 30
-0.082031 -0.082031 -0.068763 21 23 32
-0.078125 -0.082031 -0.060735 22 24 35
-0.074219 -0.082031 -0.053622 23 27 39
-0.070312 -0.082031 -0.048614 26 30 43
-0.066406 -0.082031 -0.045806 26 31 44
-0.062500 -0.082031 -0.044848 28 33 45
-0.058594 -0.082031 -0.044925 31 36 49
-0.054688 -0.082031 -0.046101 32 37 50
-0.050781 -0.082031 -0.048059 33 38 51
-0.046875 -0.082031 -0.050645 33 39 53
-0.042969 -0.082031 -0.053978 34 39 53
-0.039062 -0.082031 -0.057969 34 39 54
-0.035156 -0.082031 -0.062699 34 40 55
-0.031250 -0.082031 -0.067326 36 42 58
-0.027344 -0.082031 -0.071807 38 43 60
-0.023438 -0.082031 -0.075954 38 43 60
-0.019531 -0.082031 -0.079732 37 43 60
-0.015625 -0.082031 -0.083090 40 46 63
-0.011719 -0.082031 -0.085800 42 50 68
-0.007812 -0.082031 -0.087980 40 49 68
-0.003906 -0.082031 -0.089741 39 49 69
0.000000 -0.082031 -0.091257 41 52 73
0.003906 -0.082031 -0.092650 42 54 75
0.007812 -0.082031 -0.093960 42 53 74
0.011719 -0.082031 -0.095083 41 53 73
0.015625 -0.082031 -0.095918 43 55 75
0.019531 -0.082031 -0.096513 45 57 78
0.023438 -0.082031 -0.096835 45 57 78
0.027344 -0.082031 -0.096852 45 57 77
0.031250 -0.082031 -0.096650 47 59 80
0.035156 -0.082031 -0.096062 47 59 79
0.039062 -0.082031 -0.095147 47 58 79
0.042969 -0.082031 -0.093896 48 59 80
0.046875 -0.082031 -0.092271 48 59 80
0.050781 -0.082031 -0.090186 48 60 80
0.054688 -0.082031 -0.087680 47 58 79
0.058594 -0.082031 -0.084777 45 56 76
0.062500 -0.082031 -0.081337 45 56 76
0.066406 -0.082031 -0.077344 46 57 78
0.070312 -0.082031 -0.072823 46 57 78
0.074219 -0.082031 -0.068072 46 57 78
0.078125 -0.082031 -0.063107 47 58 79
0.082031 -0.082031 -0.057984 46 57 78
0.085938 -0.082031 -0.052585 44 55 76
0.089844 -0.082031 -0.047167 44 55 76
0.093750 -0.082031 -0.041996 42 53 74
0.097656 -0.082031 -0.036622 42 52 73
0.101562 -0.082031 -0.031586 44 55 75
0.105469 -0.082031 -0.026430 47 58 79
0.109375 -0.082031 -0.021221 45 56 77
0.113281 -0.082031 -0.016553 42 54 74
0.117188 -0.082031 -0.012039 43 54 75
0.121094 -0.082031 -0.008306 38 49 69
0.125000 -0.082031 -0.004277 41 51 70
0.128906 -0.082031 -0.000701 41 47 66
0.132812 -0.082031 0.004057 34 37 53
0.136719 -0.082031 0.014729 41 51 70
-0.464844 -0.085938 -0.024871 180 123 114
-0.460938 -0.085938 -0.022007 201 157 147
-0.457031 -0.085938 -0.018112 218 180 170
-0.453125 -0.085938 -0.011695 213 176 163
-0.449219 -0.085938 0.010198 133 91 86
-0.421875 -0.085938 0.018979 208 165 162
-0.335938 -0.085938 0.037840 14 16 19
-0.332031 -0.085938 0.023922 16 18 20
-0.328125 -0.085938 0.009518 14 15 18
-0.324219 -0.085938 -0.001846 15 15 18
-0.320312 -0.085938 -0.012727 16 16 19
-0.316406 -0.085938 -0.020647 17 18 21
-0.312500 -0.085938 -0.027467 18 19 22
-0.308594 -0.085938 -0.033642 18 21 23
-0.304688 -0.085938 -0.039032 19 22 26
-0.300781 -0.085938 -0.044402 19 22 27
-0.296875 -0.085938 -0.049480 20 23 28
-0.292969 -0.085938 -0.054086 20 23 29
-0.289062 -0.085938 -0.058636 21 24 30
-0.285156 -0.085938 -0.063351 21 25 31
-0.281250 -0.085938 -0.068516 21 26 32
-0.277344 -0.085938 -0.074267 21 25 33
-0.273438 -0.085938 -0.080548 20 26 34
-0.269531 -0.085938 -0.087192 22 27 36
-0.265625 -0.085938 -0.093448 22 28 38
-0.261719 -0.085938 -0.099177 23 29 39
-0.257812 -0.085938 -0.104211 25 31 42
-0.253906 -0.085938 -0.108708 26 31 43
-0.250000 -0.085938 -0.112863 27 33 45
-0.246094 -0.085938 -0.116712 26 32 45
-0.242188 -0.085938 -0.120270 25 31 44
-0.238281 -0.085938 -0.123564 28 33 46
-0.234375 -0.085938 -0.126523 30 35 49
-0.230469 -0.085938 -0.129032 30 35 49
-0.226562 -0.085938 -0.131201 29 34 47
-0.222656 -0.085938 -0.133005 29 34 47
-0.218750 -0.085938 -0.134515 30 35 49
-0.214844 -0.085938 -0.135797 31 36 50
-0.210938 -0.085938 -0.136835 30 35 49
-0.207031 -0.085938 -0.137548 30 35 48
-0.203125 -0.085938 -0.137977 30 35 48
-0.199219 -0.085938 -0.137992 31 36 49
-0.195312 -0.085938 -0.137707 30 35 49
-0.191406 -0.085938 -0.137160 28 34 47
-0.187500 -0.085938 -0.136335 29 34 48
-0.183594 -0.085938 -0.135382 30 35 49
-0.179688 -0.085938 -0.134293 29 35 49
-0.175781 -0.085938 -0.133074 29 35 49
-0.171875 -0.085938 -0.131988 29 34 48
-0.167969 -0.085938 -0.131181 29 34 48
-0.164062 -0.085938 -0.130646 30 35 48
-0.160156 -0.085938 -0.130220 31 36 49
-0.156250 -0.085938 -0.129845 32 37 50
-0.152344 -0.085938 -0.129416 31 36 49
-0.148438 -0.085938 -0.128753 30 35 48
-0.144531 -0.085938 -0.128271 30 35 48
-0.140625 -0.085938 -0.127492 29 34 47
-0.136719 -0.085938 -0.126334 27 32 45
-0.132812 -0.085938 -0.124488 27 32 45
-0.128906 -0.085938 -0.122363 28 33 46
-0.125000 -0.085938 -0.120596 27 32 44
-0.121094 -0.085938 -0.118013 27 31 42
-0.117188 -0.085938 -0.115173 30 34 43
-0.113281 -0.085938 -0.112401 32 36 44
-0.109375 -0.085938 -0.108670 31 35 43
-0.105469 -0.085938 -0.103358 20 23 30
-0.101562 -0.085938 -0.098663 11 13 18
-0.097656 -0.085938 -0.093285 10 11 15
-0.093750 -0.085938 -0.087896 12 12 17
-0.089844 -0.085938 -0.082199 15 16 21
-0.085938 -0.085938 -0.075527 18 19 25
-0.082031 -0.085938 -0.067930 18 20 28
-0.078125 -0.085938 -0.059211 19 22 31
-0.074219 -0.085938 -0.051346 22 26 38
-0.070312 -0.085938 -0.046096 26 31 43
-0.066406 -0.085938 -0.043271 26 31 43
-0.062500 -0.085938 -0.042455 27 32 44
-0.058594 -0.085938 -0.042637 30 35 47
-0.054688 -0.085938 -0.043938 31 35 48
-0.050781 -0.085938 -0.046071 31 36 50
-0.046875 -0.085938 -0.048858 33 38 52
-0.042969 -0.085938 -0.052323 34 39 53
-0.039062 -0.085938 -0.056371 34 39 54
-0.035156 -0.085938 -0.061119 34 39 55
-0.031250 -0.085938 -0.065758 36 41 57
-0.027344 -0.085938 -0.070267 37 43 60
-0.023438 -0.085938 -0.074448 38 43 60
-0.019531 -0.085938 -0.078282 37 43 60
-0.015625 -0.085938 -0.081725 39 46 63
-0.011719 -0.085938 -0.084541 42 50 68
-0.007812 -0.085938 -0.086851 40 49 69
-0.003906 -0.085938 -0.088735 39 49 70
0.000000 -0.085938 -0.090362 41 52 73
0.003906 -0.085938 -0.091844 42 54 75
0.007812 -0.085938 -0.093218 41 52 73
0.011719 -0.085938 -0.094389 40 51 72
0.015625 -0.085938 -0.095262 42 53 74
0.019531 -0.085938 -0.095862 45 57 78
0.023438 -0.085938 -0.096170 45 56 77
0.027344 -0.085938 -0.096185 45 56 77
0.031250 -0.085938 -0.095964 47 59 80
0.035156 -0.085938 -0.095356 47 59 79
0.039062 -0.085938 -0.094431 47 58 78
0.042969 -0.085938 -0.093172 47 58 79
0.046875 -0.085938 -0.091539 48 59 80
0.050781 -0.085938 -0.089440 49 60 81
0.054688 -0.085938 -0.086924 48 59 80
0.058594 -0.085938 -0.083985 45 56 76
0.062500 -0.085938 -0.080504 44 55 76
0.066406 -0.085938 -0.076454 46 57 78
0.070312 -0.085938 -0.071847 47 58 79
0.074219 -0.085938 -0.067038 47 58 79
0.078125 -0.085938 -0.062042 48 59 80
0.082031 -0.085938 -0.056922 47 58 79
0.085938 -0.085938 -0.051556 45 56 77
0.089844 -0.085938 -0.046187 43 55 76
0.093750 -0.085938 -0.041108 41 52 73
0.097656 -0.085938 -0.035858 40 51 72
0.101562 -0.085938 -0.030987 43 54 74
0.105469 -0.085938 -0.025996 47 58 79
0.109375 -0.085938 -0.020921 46 57 78
0.113281 -0.085938 -0.016408 44 55 76
0.117188 -0.085938 -0.012077 43 55 76
0.121094 -0.085938 -0.008485 38 49 69
0.125000 -0.085938 -0.004305 40 50 69
0.128906 -0.085938 -0.000856 40 45 64
0.132812 -0.085938 0.004041 36 38 55
0.136719 -0.085938 0.012589 40 50 69
-0.460938 -0.089844 -0.011973 154 106 97
-0.457031 -0.089844 -0.013891 191 144 132
-0.453125 -0.089844 -0.011667 219 188 176
-0.449219 -0.089844 -0.003698 191 150 144
-0.425781 -0.089844 0.014986 212 155 152
-0.421875 -0.089844 0.010879 205 159 157
-0.417969 -0.089844 0.017553 224 188 178
-0.332031 -0.089844 0.028111 17 19 22
-0.328125 -0.089844 0.013441 14 15 18
-0.324219 -0.089844 0.000323 14 14 18
-0.320312 -0.089844 -0.011155 15 15 18
-0.316406 -0.089844 -0.019352 16 16 19
-0.312500 -0.089844 -0.026236 17 18 21
-0.308594 -0.089844 -0.032515 18 20 23
-0.304688 -0.089844 -0.038048 19 22 25
-0.300781 -0.089844 -0.043561 19 22 26
-0.296875 -0.089844 -0.048745 20 23 28
-0.292969 -0.089844 -0.053391 20 24 29
-0.289062 -0.089844 -0.057973 21 24 30
-0.285156 -0.089844 -0.062705 21 25 31
-0.281250 -0.089844 -0.067889 21 26 33
-0.277344 -0.089844 -0.073631 21 26 34
-0.273438 -0.089844 -0.079838 21 27 35
-0.269531 -0.089844 -0.086384 23 28 38
-0.265625 -0.089844 -0.092591 23 28 38
-0.261719 -0.089844 -0.098282 23 29 39
-0.257812 -0.089844 -0.103332 24 30 41
-0.253906 -0.089844 -0.107890 25 30 42
-0.250000 -0.089844 -0.112123 26 32 44
-0.246094 -0.089844 -0.116073 25 31 44
-0.242188 -0.089844 -0.119718 24 29 43
-0.238281 -0.089844 -0.123087 27 31 45
-0.234375 -0.089844 -0.126095 30 35 48
-0.230469 -0.089844 -0.128666 31 36 50
-0.226562 -0.089844 -0.130891 31 35 49
-0.222656 -0.089844 -0.132720 29 34 47
-0.218750 -0.089844 -0.134238 29 34 47
-0.214844 -0.089844 -0.135536 31 36 49
-0.210938 -0.089844 -0.136574 32 37 50
-0.207031 -0.089844 -0.137277 31 36 50
-0.203125 -0.089844 -0.137727 30 35 48
-0.199219 -0.089844 -0.137736 29 34 48
-0.195312 -0.089844 -0.137450 30 35 49
-0.191406 -0.089844 -0.136886 29 35 49
-0.187500 -0.089844 -0.136043 30 35 49
-0.183594 -0.089844 -0.135096 29 35 49
-0.179688 -0.089844 -0.134034 29 34 48
-0.175781 -0.089844 -0.132851 29 35 49
-0.171875 -0.089844 -0.131793 28 34 48
-0.167969 -0.089844 -0.131038 28 33 47
-0.164062 -0.089844 -0.130565 29 34 48
-0.160156 -0.089844 -0.130230 30 35 49
-0.156250 -0.089844 -0.129944 31 36 49
-0.152344 -0.089844 -0.129611 31 36 49
-0.148438 -0.089844 -0.129044 30 36 48
-0.144531 -0.089844 -0.128654 31 36 49
-0.140625 -0.089844 -0.127993 30 35 48
-0.136719 -0.089844 -0.126925 28 34 46
-0.132812 -0.089844 -0.125175 28 33 46
-0.128906 -0.089844 -0.123153 29 34 47
-0.125000 -0.089844 -0.121458 27 32 45
-0.121094 -0.089844 -0.118980 26 30 41
-0.117188 -0.089844 -0.116151 29 32 41
-0.113281 -0.089844 -0.113368 30 35 43
-0.109375 -0.089844 -0.109614 29 33 41
-0.105469 -0.089844 -0.104149 18 22 29
-0.101562 -0.089844 -0.099357 10 12 16
-0.097656 -0.089844 -0.093722 8 9 13
-0.093750 -0.089844 -0.087941 9 10 15
-0.089844 -0.089844 -0.081921 13 14 19
-0.085938 -0.089844 -0.074966 17 19 24
-0.082031 -0.089844 -0.066856 19 20 28
-0.078125 -0.089844 -0.057531 20 23 32
-0.074219 -0.089844 -0.048992 24 27 39
-0.070312 -0.089844 -0.043679 27 32 45
-0.066406 -0.089844 -0.040937 26 30 43
-0.062500 -0.089844 -0.040317 26 31 43
-0.058594 -0.089844 -0.040610 29 34 47
-0.054688 -0.089844 -0.042094 31 36 49
-0.050781 -0.089844 -0.044413 32 37 50
-0.046875 -0.089844 -0.047408 33 38 52
-0.042969 -0.089844 -0.051021 34 39 53
-0.039062 -0.089844 -0.055127 34 39 54
-0.035156 -0.089844 -0.059863 34 39 55
-0.031250 -0.089844 -0.064455 35 41 57
-0.027344 -0.089844 -0.068927 37 42 59
-0.023438 -0.089844 -0.073069 37 43 59
-0.019531 -0.089844 -0.076898 37 43 59
-0.015625 -0.089844 -0.080377 39 46 63
-0.011719 -0.089844 -0.083257 42 50 68
-0.007812 -0.089844 -0.085665 40 49 69
-0.003906 -0.089844 -0.087657 39 49 70
0.000000 -0.089844 -0.089388 42 53 74
0.003906 -0.089844 -0.090971 42 54 75
0.007812 -0.089844 -0.092435 41 52 73
0.011719 -0.089844 -0.093661 40 51 71
0.015625 -0.089844 -0.094587 41 52 73
0.019531 -0.089844 -0.095214 44 55 76
0.023438 -0.089844 -0.095517 44 55 76
0.027344 -0.089844 -0.095520 44 56 77
0.031250 -0.089844 -0.095265 47 59 80
0.035156 -0.089844 -0.094635 47 58 78
0.039062 -0.089844 -0.093697 46 57 77
0.042969 -0.089844 -0.092419 47 58 78
0.046875 -0.089844 -0.090757 47 58 79
0.050781 -0.089844 -0.088638 49 60 81
0.054688 -0.089844 -0.086123 48 59 80
0.058594 -0.089844 -0.083160 45 56 76
0.062500 -0.089844 -0.079644 44 55 75
0.066406 -0.089844 -0.075547 46 57 78
0.070312 -0.089844 -0.070871 48 59 80
0.074219 -0.089844 -0.066007 48 58 79
0.078125 -0.089844 -0.061000 48 59 80
0.082031 -0.089844 -0.055893 47 58 80
0.085938 -0.089844 -0.050552 45 56 77
0.089844 -0.089844 -0.045239 43 55 76
0.093750 -0.089844 -0.040246 41 53 74
0.097656 -0.089844 -0.035112 42 52 73
0.101562 -0.089844 -0.030376 44 55 76
0.105469 -0.089844 -0.025555 46 57 78
0.109375 -0.089844 -0.020642 45 56 77
0.113281 -0.089844 -0.016233 44 56 77
0.117188 -0.089844 -0.012065 45 57 78
0.121094 -0.089844 -0.008644 40 50 71
0.125000 -0.089844 -0.004356 40 49 69
0.128906 -0.089844 -0.000803 37 42 61
0.132812 -0.089844 0.003311 32 34 50
0.136719 -0.089844 0.007989 40 49 69
-0.457031 -0.093750 -0.006321 145 100 83
-0.453125 -0.093750 -0.010094 206 169 160
-0.449219 -0.093750 -0.007343 213 177 172
-0.445312 -0.093750 0.006137 166 122 118
-0.425781 -0.093750 0.006039 211 145 141
-0.421875 -0.093750 0.003978 212 157 154
-0.417969 -0.093750 0.009636 224 185 176
-0.414062 -0.093750 0.018633 224 185 173
-0.410156 -0.093750 0.018334 179 114 108
-0.332031 -0.093750 0.029735 17 19 22
-0.328125 -0.093750 0.015914 14 15 19
-0.324219 -0.093750 0.001473 15 15 19
-0.320312 -0.093750 -0.009711 15 15 18
-0.316406 -0.093750 -0.017985 16 16 19
-0.312500 -0.093750 -0.024921 17 18 20
-0.308594 -0.093750 -0.031270 18 20 23
-0.304688 -0.093750 -0.036979 19 21 25
-0.300781 -0.093750 -0.042565 19 22 26
-0.296875 -0.093750 -0.047849 20 23 28
-0.292969 -0.093750 -0.052548 20 23 29
-0.289062 -0.093750 -0.057152 20 24 30
-0.285156 -0.093750 -0.061895 21 25 31
-0.281250 -0.093750 -0.067084 21 25 32
-0.277344 -0.093750 -0.072798 21 26 33
-0.273438 -0.093750 -0.078947 21 26 35
-0.269531 -0.093750 -0.085430 23 28 38
-0.265625 -0.093750 -0.091599 23 29 39
-0.261719 -0.093750 -0.097295 23 29 39
-0.257812 -0.093750 -0.102412 24 29 40
-0.253906 -0.093750 -0.107059 24 29 41
-0.250000 -0.093750 -0.111383 25 30 43
-0.246094 -0.093750 -0.115451 26 31 44
-0.242188 -0.093750 -0.119196 25 31 44
-0.238281 -0.093750 -0.122641 26 31 44
-0.234375 -0.093750 -0.125709 28 33 46
-0.230469 -0.093750 -0.128337 31 36 50
-0.226562 -0.093750 -0.130591 32 37 51
-0.222656 -0.093750 -0.132428 30 35 48
-0.218750 -0.093750 -0.133932 30 35 48
-0.214844 -0.093750 -0.135210 32 37 51
-0.210938 -0.093750 -0.136225 33 38 52
-0.207031 -0.093750 -0.136894 33 38 52
-0.203125 -0.093750 -0.137314 30 35 48
-0.199219 -0.093750 -0.137290 28 32 46
-0.195312 -0.093750 -0.136993 28 32 46
-0.191406 -0.093750 -0.136417 28 33 47
-0.187500 -0.093750 -0.135591 27 32 46
-0.183594 -0.093750 -0.134664 26 31 44
-0.179688 -0.093750 -0.133630 27 32 46
-0.175781 -0.093750 -0.132506 29 35 49
-0.171875 -0.093750 -0.131499 28 34 48
-0.167969 -0.093750 -0.130808 27 32 45
-0.164062 -0.093750 -0.130402 28 33 47
-0.160156 -0.093750 -0.130143 30 35 49
-0.156250 -0.093750 -0.129937 31 37 50
-0.152344 -0.093750 -0.129694 31 37 50
-0.148438 -0.093750 -0.129207 32 37 50
-0.144531 -0.093750 -0.128884 32 37 50
-0.140625 -0.093750 -0.128308 31 36 48
-0.136719 -0.093750 -0.127304 29 34 47
-0.132812 -0.093750 -0.125632 29 34 47
-0.128906 -0.093750 -0.123702 30 35 48
-0.125000 -0.093750 -0.122053 28 33 46
-0.121094 -0.093750 -0.119674 25 29 40
-0.117188 -0.093750 -0.116904 27 30 40
-0.113281 -0.093750 -0.114199 29 33 41
-0.109375 -0.093750 -0.110368 27 31 39
-0.105469 -0.093750 -0.104842 17 20 27
-0.101562 -0.093750 -0.099883 10 12 16
-0.097656 -0.093750 -0.093997 9 10 15
-0.093750 -0.093750 -0.087800 12 13 18
-0.089844 -0.093750 -0.081432 17 18 24
-0.085938 -0.093750 -0.074124 20 22 28
-0.082031 -0.093750 -0.065474 21 23 31
-0.078125 -0.093750 -0.055555 22 25 35
-0.074219 -0.093750 -0.046600 25 29 41
-0.070312 -0.093750 -0.041521 27 32 45
-0.066406 -0.093750 -0.039007 26 31 44
-0.062500 -0.093750 -0.038541 27 32 44
-0.058594 -0.093750 -0.038994 31 36 49
-0.054688 -0.093750 -0.040608 32 38 51
-0.050781 -0.093750 -0.043092 33 39 52
-0.046875 -0.093750 -0.046224 34 39 53
-0.042969 -0.093750 -0.049962 33 39 53
-0.039062 -0.093750 -0.054097 34 39 54
-0.035156 -0.093750 -0.058810 35 40 56
-0.031250 -0.093750 -0.063356 36 41 58
-0.027344 -0.093750 -0.067773 37 42 58
-0.023438 -0.093750 -0.071854 37 42 58
-0.019531 -0.093750 -0.075646 37 42 58
-0.015625 -0.093750 -0.079127 39 45 62
-0.011719 -0.093750 -0.082058 41 49 67
-0.007812 -0.093750 -0.084563 39 48 67
-0.003906 -0.093750 -0.086651 38 48 68
0.000000 -0.093750 -0.088470 41 52 73
0.003906 -0.093750 -0.090146 42 54 75
0.007812 -0.093750 -0.091679 41 52 73
0.011719 -0.093750 -0.092946 39 51 71
0.015625 -0.093750 -0.093911 39 50 70
0.019531 -0.093750 -0.094538 41 52 72
0.023438 -0.093750 -0.094828 42 53 73
0.027344 -0.093750 -0.094813 44 55 76
0.031250 -0.093750 -0.094520 47 59 80
0.035156 -0.093750 -0.093873 46 57 77
0.039062 -0.093750 -0.092928 45 56 76
0.042969 -0.093750 -0.091632 47 58 78
0.046875 -0.093750 -0.089950 47 59 79
0.050781 -0.093750 -0.087826 49 61 81
0.054688 -0.093750 -0.085305 49 60 80
0.058594 -0.093750 -0.082304 45 56 76
0.062500 -0.093750 -0.078747 45 56 76
0.066406 -0.093750 -0.074602 47 58 79
0.070312 -0.093750 -0.069862 48 59 80
0.074219 -0.093750 -0.064949 47 57 78
0.078125 -0.093750 -0.059937 47 58 79
0.082031 -0.093750 -0.054848 47 59 80
0.085938 -0.093750 -0.049551 45 56 77
0.089844 -0.093750 -0.044321 43 54 75
0.093750 -0.093750 -0.039410 41 52 73
0.097656 -0.093750 -0.034399 42 53 73
0.101562 -0.093750 -0.029797 45 56 76
0.105469 -0.093750 -0.025110 47 57 78
0.109375 -0.093750 -0.020323 45 55 76
0.113281 -0.093750 -0.016019 43 54 75
0.117188 -0.093750 -0.011981 42 53 74
0.121094 -0.093750 -0.008646 38 47 68
0.125000 -0.093750 -0.004309 40 48 69
0.128906 -0.093750 -0.000788 38 43 62
0.132812 -0.093750 0.003940 33 35 51
-0.453125 -0.097656 -0.002319 141 95 93
-0.449219 -0.097656 -0.005701 183 139 137
-0.445312 -0.097656 -0.005154 206 175 164
-0.441406 -0.097656 0.000002 184 152 142
-0.437500 -0.097656 0.003648 159 115 110
-0.433594 -0.097656 0.003317 175 118 111
-0.429688 -0.097656 0.000017 192 126 121
-0.425781 -0.097656 -0.001942 211 141 135
-0.421875 -0.097656 0.001594 223 165 157
-0.417969 -0.097656 0.005767 229 185 175
-0.414062 -0.097656 0.010907 222 182 169
-0.410156 -0.097656 0.019040 209 153 139
-0.406250 -0.097656 0.022410 236 214 192
-0.328125 -0.097656 0.018669 13 14 18
-0.324219 -0.097656 0.002318 16 17 19
-0.320312 -0.097656 -0.008217 15 15 18
-0.316406 -0.097656 -0.016620 15 16 18
-0.312500 -0.097656 -0.023615 16 16 19
-0.308594 -0.097656 -0.029906 17 19 22
-0.304688 -0.097656 -0.035853 18 21 24
-0.300781 -0.097656 -0.041529 18 21 26
-0.296875 -0.097656 -0.046931 19 23 27
-0.292969 -0.097656 -0.051696 19 23 28
-0.289062 -0.097656 -0.056333 20 23 29
-0.285156 -0.097656 -0.061109 20 24 30
-0.281250 -0.097656 -0.066336 20 25 31
-0.277344 -0.097656 -0.072055 20 25 32
-0.273438 -0.097656 -0.078184 20 25 33
-0.269531 -0.097656 -0.084607 21 27 36
-0.265625 -0.097656 -0.090700 22 28 38
-0.261719 -0.097656 -0.096367 23 28 39
-0.257812 -0.097656 -0.101516 23 29 40
-0.253906 -0.097656 -0.106229 23 28 40
-0.250000 -0.097656 -0.110620 24 29 41
-0.246094 -0.097656 -0.114780 26 32 45
-0.242188 -0.097656 -0.118614 27 33 46
-0.238281 -0.097656 -0.122134 26 31 44
-0.234375 -0.097656 -0.125281 27 31 44
-0.230469 -0.097656 -0.127973 31 36 49
-0.226562 -0.097656 -0.130253 34 39 52
-0.222656 -0.097656 -0.132117 32 36 50
-0.218750 -0.097656 -0.133665 32 36 50
-0.214844 -0.097656 -0.134920 33 37 51
-0.210938 -0.097656 -0.135869 32 37 51
-0.207031 -0.097656 -0.136500 32 37 51
-0.203125 -0.097656 -0.136877 30 35 49
-0.199219 -0.097656 -0.136826 28 33 46
-0.195312 -0.097656 -0.136524 27 32 46
-0.191406 -0.097656 -0.135952 27 32 46
-0.187500 -0.097656 -0.135171 25 30 44
-0.183594 -0.097656 -0.134290 24 28 42
-0.179688 -0.097656 -0.133313 26 31 45
-0.175781 -0.097656 -0.132247 30 36 50
-0.171875 -0.097656 -0.131279 29 34 49
-0.167969 -0.097656 -0.130631 26 31 44
-0.164062 -0.097656 -0.130263 27 32 46
-0.160156 -0.097656 -0.130048 31 36 50
-0.156250 -0.097656 -0.129887 32 38 51
-0.152344 -0.097656 -0.129698 32 37 50
-0.148438 -0.097656 -0.129272 33 38 51
-0.144531 -0.097656 -0.129016 33 38 51
-0.140625 -0.097656 -0.128520 32 37 49
-0.136719 -0.097656 -0.127577 31 35 48
-0.132812 -0.097656 -0.125990 29 34 47
-0.128906 -0.097656 -0.124175 31 36 48
-0.125000 -0.097656 -0.122598 30 34 47
-0.121094 -0.097656 -0.120333 26 30 40
-0.117188 -0.097656 -0.117564 27 31 40
-0.113281 -0.097656 -0.114908 29 34 41
-0.109375 -0.097656 -0.110898 27 31 39
-0.105469 -0.097656 -0.105311 17 20 27
-0.101562 -0.097656 -0.100219 10 12 17
-0.097656 -0.097656 -0.094062 11 12 16
-0.093750 -0.097656 -0.087416 15 16 21
-0.089844 -0.097656 -0.080771 20 22 27
-0.085938 -0.097656 -0.073191 22 24 30
-0.082031 -0.097656 -0.064028 22 24 32
-0.078125 -0.097656 -0.053489 23 26 36
-0.074219 -0.097656 -0.044368 25 29 42
-0.070312 -0.097656 -0.039715 27 32 45
-0.066406 -0.097656 -0.037497 26 31 44
-0.062500 -0.097656 -0.037138 28 32 45
-0.058594 -0.097656 -0.037734 31 36 48
-0.054688 -0.097656 -0.039456 33 38 51
-0.050781 -0.097656 -0.042095 34 39 52
-0.046875 -0.097656 -0.045356 34 39 53
-0.042969 -0.097656 -0.049188 33 38 52
-0.039062 -0.097656 -0.053336 33 39 53
-0.035156 -0.097656 -0.057996 36 41 56
-0.031250 -0.097656 -0.062474 37 42 59
-0.027344 -0.097656 -0.066799 37 42 59
-0.023438 -0.097656 -0.070771 37 41 58
-0.019531 -0.097656 -0.074489 36 41 57
-0.015625 -0.097656 -0.077929 38 43 60
-0.011719 -0.097656 -0.080871 40 47 65
-0.007812 -0.097656 -0.083441 39 47 66
-0.003906 -0.097656 -0.085593 37 47 67
0.000000 -0.097656 -0.087477 39 51 71
0.003906 -0.097656 -0.089228 41 53 74
0.007812 -0.097656 -0.090806 41 53 73
0.011719 -0.097656 -0.092118 40 51 71
0.015625 -0.097656 -0.093135 39 50 70
0.019531 -0.097656 -0.093781 40 51 71
0.023438 -0.097656 -0.094069 41 52 72
0.027344 -0.097656 -0.094043 44 55 76
0.031250 -0.097656 -0.093717 48 59 80
0.035156 -0.097656 -0.093045 45 57 77
0.039062 -0.097656 -0.092084 44 55 75
0.042969 -0.097656 -0.090759 46 57 77
0.046875 -0.097656 -0.089036 47 58 78
0.050781 -0.097656 -0.086883 49 61 81
0.054688 -0.097656 -0.084335 49 60 81
0.058594 -0.097656 -0.081298 45 55 76
0.062500 -0.097656 -0.077716 45 56 76
0.066406 -0.097656 -0.073533 47 59 79
0.070312 -0.097656 -0.068742 48 59 80
0.074219 -0.097656 -0.063825 46 56 77
0.078125 -0.097656 -0.058842 47 58 78
0.082031 -0.097656 -0.053787 47 59 79
0.085938 -0.097656 -0.048562 44 56 76
0.089844 -0.097656 -0.043431 42 53 74
0.093750 -0.097656 -0.038586 41 52 72
0.097656 -0.097656 -0.033682 41 52 72
0.101562 -0.097656 -0.029200 45 55 75
0.105469 -0.097656 -0.024622 47 58 78
0.109375 -0.097656 -0.019955 45 56 76
0.113281 -0.097656 -0.015800 43 53 74
0.117188 -0.097656 -0.011910 40 51 72
0.121094 -0.097656 -0.008754 37 47 68
0.125000 -0.097656 -0.004500 42 51 72
0.128906 -0.097656 -0.001262 40 45 65
0.132812 -0.097656 0.004805 33 34 51
-0.453125 -0.101562 0.009160 75 54 57
-0.449219 -0.101562 0.005663 80 54 60
-0.445312 -0.101562 -0.003669 180 141 139
-0.441406 -0.101562 -0.004955 214 180 174
-0.437500 -0.101562 -0.000954 203 167 159
-0.433594 -0.101562 0.000537 191 145 135
-0.429688 -0.101562 -0.000882 197 139 131
-0.425781 -0.101562 -0.001359 209 147 139
-0.421875 -0.101562 0.001416 226 171 160
-0.417969 -0.101562 0.004030 234 188 179
-0.414062 -0.101562 0.007949 223 180 171
-0.410156 -0.101562 0.018071 197 142 133
-0.406250 -0.101562 0.027896 207 156 143
-0.328125 -0.101562 0.020696 14 15 18
-0.324219 -0.101562 0.003213 17 17 20
-0.320312 -0.101562 -0.007158 16 16 18
-0.316406 -0.101562 -0.015597 17 17 19
-0.312500 -0.101562 -0.022549 15 16 19
-0.308594 -0.101562 -0.028737 16 18 20
-0.304688 -0.101562 -0.034864 17 20 23
-0.300781 -0.101562 -0.040602 18 21 25
-0.296875 -0.101562 -0.046058 19 22 27
-0.292969 -0.101562 -0.050846 19 22 27
-0.289062 -0.101562 -0.055487 19 23 28
-0.285156 -0.101562 -0.060273 21 25 30
-0.281250 -0.101562 -0.065523 21 25 32
-0.277344 -0.101562 -0.071239 21 25 33
-0.273438 -0.101562 -0.077357 20 26 34
-0.269531 -0.101562 -0.083742 22 27 36
-0.265625 -0.101562 -0.089806 23 28 38
-0.261719 -0.101562 -0.095480 24 29 40
-0.257812 -0.101562 -0.100679 24 29 41
-0.253906 -0.101562 -0.105483 23 28 40
-0.250000 -0.101562 -0.109959 24 29 41
-0.246094 -0.101562 -0.114205 27 32 46
-0.242188 -0.101562 -0.118106 28 34 47
-0.238281 -0.101562 -0.121680 27 32 45
-0.234375 -0.101562 -0.124887 27 32 45
-0.230469 -0.101562 -0.127621 31 36 49
-0.226562 -0.101562 -0.129910 35 39 53
-0.222656 -0.101562 -0.131788 32 37 50
-0.218750 -0.101562 -0.133349 31 36 49
-0.214844 -0.101562 -0.134577 31 35 49
-0.210938 -0.101562 -0.135488 29 33 47
-0.207031 -0.101562 -0.136087 29 34 48
-0.203125 -0.101562 -0.136435 30 35 49
-0.199219 -0.101562 -0.136381 30 35 50
-0.195312 -0.101562 -0.136088 29 35 49
-0.191406 -0.101562 -0.135534 28 34 49
-0.187500 -0.101562 -0.134790 27 32 46
-0.183594 -0.101562 -0.133950 24 30 43
-0.179688 -0.101562 -0.133031 26 31 45
-0.175781 -0.101562 -0.132011 29 35 49
-0.171875 -0.101562 -0.131068 28 34 48
-0.167969 -0.101562 -0.130436 25 30 44
-0.164062 -0.101562 -0.130073 27 32 45
-0.160156 -0.101562 -0.129880 31 36 50
-0.156250 -0.101562 -0.129749 33 38 51
-0.152344 -0.101562 -0.129583 32 37 50
-0.148438 -0.101562 -0.129198 33 38 51
-0.144531 -0.101562 -0.128993 34 39 51
-0.140625 -0.101562 -0.128549 34 39 51
-0.136719 -0.101562 -0.127650 33 37 50
-0.132812 -0.101562 -0.126142 31 35 48
-0.128906 -0.101562 -0.124414 31 36 48
-0.125000 -0.101562 -0.122849 30 35 47
-0.121094 -0.101562 -0.120689 27 31 42
-0.117188 -0.101562 -0.117966 29 33 42
-0.113281 -0.101562 -0.115330 30 34 42
-0.109375 -0.101562 -0.111165 26 30 37
-0.105469 -0.101562 -0.105630 17 19 26
-0.101562 -0.101562 -0.100285 10 12 16
-0.097656 -0.101562 -0.093951 10 12 16
-0.093750 -0.101562 -0.086940 14 15 20
-0.089844 -0.101562 -0.079826 18 20 25
-0.085938 -0.101562 -0.071878 20 22 27
-0.082031 -0.101562 -0.062280 20 22 29
-0.078125 -0.101562 -0.051437 21 24 34
-0.074219 -0.101562 -0.042493 23 27 39
-0.070312 -0.101562 -0.038309 25 29 42
-0.066406 -0.101562 -0.036362 25 29 42
-0.062500 -0.101562 -0.036091 26 31 43
-0.058594 -0.101562 -0.036811 28 33 45
-0.054688 -0.101562 -0.038671 30 34 47
-0.050781 -0.101562 -0.041445 32 36 49
-0.046875 -0.101562 -0.044828 33 38 51
-0.042969 -0.101562 -0.048697 33 37 51
-0.039062 -0.101562 -0.052811 33 38 52
-0.035156 -0.101562 -0.057368 35 40 55
-0.031250 -0.101562 -0.061739 37 42 58
-0.027344 -0.101562 -0.065949 37 42 58
-0.023438 -0.101562 -0.069792 36 41 58
-0.019531 -0.101562 -0.073415 36 40 57
-0.015625 -0.101562 -0.076795 38 43 60
-0.011719 -0.101562 -0.079730 41 48 66
-0.007812 -0.101562 -0.082344 39 48 67
-0.003906 -0.101562 -0.084556 38 48 68
0.000000 -0.101562 -0.086510 40 52 72
0.003906 -0.101562 -0.088330 42 54 75
0.007812 -0.101562 -0.089958 41 53 74
0.011719 -0.101562 -0.091307 41 52 72
0.015625 -0.101562 -0.092341 41 52 73
0.019531 -0.101562 -0.092988 43 54 74
0.023438 -0.101562 -0.093263 42 54 74
0.027344 -0.101562 -0.093208 44 55 76
0.031250 -0.101562 -0.092842 47 59 79
0.035156 -0.101562 -0.092134 45 56 77
0.039062 -0.101562 -0.091153 44 54 74
0.042969 -0.101562 -0.089802 44 55 75
0.046875 -0.101562 -0.088050 44 54 74
0.050781 -0.101562 -0.085857 47 58 79
0.054688 -0.101562 -0.083259 48 59 80
0.058594 -0.101562 -0.080191 45 56 76
0.062500 -0.101562 -0.076586 45 56 76
0.066406 -0.101562 -0.072364 47 58 79
0.070312 -0.101562 -0.067547 47 59 80
0.074219 -0.101562 -0.062657 46 57 78
0.078125 -0.101562 -0.057732 48 59 80
0.082031 -0.101562 -0.052737 48 59 80
0.085938 -0.101562 -0.047588 44 55 76
0.089844 -0.101562 -0.042534 43 54 75
0.093750 -0.101562 -0.037771 43 54 74
0.097656 -0.101562 -0.032983 44 55 75
0.101562 -0.101562 -0.028601 46 57 77
0.105469 -0.101562 -0.024119 47 58 78
0.109375 -0.101562 -0.019573 44 55 75
0.113281 -0.101562 -0.015548 44 54 75
0.117188 -0.101562 -0.011799 43 54 76
0.121094 -0.101562 -0.008812 41 52 73
0.125000 -0.101562 -0.004674 44 54 75
0.128906 -0.101562 -0.001479 40 44 66
0.132812 -0.101562 0.005019 32 32 51
-0.441406 -0.105469 0.012381 171 124 126
-0.437500 -0.105469 0.005380 199 162 155
-0.433594 -0.105469 0.000808 199 160 148
-0.429688 -0.105469 0.001076 194 147 139
-0.425781 -0.105469 0.001203 196 143 134
-0.421875 -0.105469 0.001678 213 156 142
-0.417969 -0.105469 0.004754 228 176 168
-0.414062 -0.105469 0.012178 220 176 172
-0.410156 -0.105469 0.023685 202 154 145
-0.406250 -0.105469 0.020788 205 153 139
-0.328125 -0.105469 0.019891 15 15 18
-0.324219 -0.105469 0.003696 17 17 19
-0.320312 -0.105469 -0.006295 16 16 18
-0.316406 -0.105469 -0.014737 19 20 21
-0.312500 -0.105469 -0.021634 17 18 20
-0.308594 -0.105469 -0.027750 17 19 21
-0.304688 -0.105469 -0.033920 17 20 23
-0.300781 -0.105469 -0.039746 18 21 25
-0.296875 -0.105469 -0.045249 18 21 26
-0.292969 -0.105469 -0.050065 18 21 26
-0.289062 -0.105469 -0.054718 19 22 27
-0.285156 -0.105469 -0.059519 20 24 29
-0.281250 -0.105469 -0.064778 20 25 31
-0.277344 -0.105469 -0.070459 20 25 32
-0.273438 -0.105469 -0.076522 21 26 34
-0.269531 -0.105469 -0.082831 22 27 37
-0.265625 -0.105469 -0.088841 23 29 39
-0.261719 -0.105469 -0.094501 24 30 41
-0.257812 -0.105469 -0.099724 24 30 42
-0.253906 -0.105469 -0.104603 24 29 41
-0.250000 -0.105469 -0.109169 24 29 42
-0.246094 -0.105469 -0.113523 26 31 44
-0.242188 -0.105469 -0.117528 27 32 45
-0.238281 -0.105469 -0.121193 26 31 44
-0.234375 -0.105469 -0.124491 26 31 43
-0.230469 -0.105469 -0.127284 29 33 46
-0.226562 -0.105469 -0.129595 32 36 50
-0.222656 -0.105469 -0.131497 31 36 49
-0.218750 -0.105469 -0.133049 31 36 49
-0.214844 -0.105469 -0.134259 30 35 49
-0.210938 -0.105469 -0.135168 28 32 46
-0.207031 -0.105469 -0.135725 27 32 46
-0.203125 -0.105469 -0.136016 30 35 49
-0.199219 -0.105469 -0.135915 31 37 51
-0.195312 -0.105469 -0.135581 30 36 50
-0.191406 -0.105469 -0.135030 29 34 49
-0.187500 -0.105469 -0.134335 27 33 47
-0.183594 -0.105469 -0.133551 26 31 46
-0.179688 -0.105469 -0.132703 26 31 46
-0.175781 -0.105469 -0.131767 28 33 47
-0.171875 -0.105469 -0.130907 27 32 46
-0.167969 -0.105469 -0.130326 25 30 44
-0.164062 -0.105469 -0.129990 27 32 45
-0.160156 -0.105469 -0.129837 30 35 49
-0.156250 -0.105469 -0.129747 31 36 49
-0.152344 -0.105469 -0.129602 31 36 48
-0.148438 -0.105469 -0.129235 31 36 49
-0.144531 -0.105469 -0.129041 33 37 50
-0.140625 -0.105469 -0.128611 33 38 50
-0.136719 -0.105469 -0.127733 33 37 50
-0.132812 -0.105469 -0.126275 31 35 48
-0.128906 -0.105469 -0.124622 31 35 47
-0.125000 -0.105469 -0.123056 31 35 47
-0.121094 -0.105469 -0.120965 30 34 45
-0.117188 -0.105469 -0.118303 32 36 45
-0.113281 -0.105469 -0.115664 31 35 43
-0.109375 -0.105469 -0.111353 25 28 35
-0.105469 -0.105469 -0.105804 15 17 23
-0.101562 -0.105469 -0.100178 9 10 15
-0.097656 -0.105469 -0.093697 9 10 14
-0.093750 -0.105469 -0.086334 12 14 18
-0.089844 -0.105469 -0.078776 16 18 22
-0.085938 -0.105469 -0.070429 18 19 24
-0.082031 -0.105469 -0.060483 17 19 26
-0.078125 -0.105469 -0.049505 18 21 30
-0.074219 -0.105469 -0.040948 21 24 36
-0.070312 -0.105469 -0.037273 23 27 40
-0.066406 -0.105469 -0.035598 24 29 41
-0.062500 -0.105469 -0.035410 26 30 42
-0.058594 -0.105469 -0.036238 27 31 44
-0.054688 -0.105469 -0.038249 29 33 46
-0.050781 -0.105469 -0.041186 31 35 48
-0.046875 -0.105469 -0.044655 32 37 51
-0.042969 -0.105469 -0.048522 33 38 52
-0.039062 -0.105469 -0.052570 33 38 52
-0.035156 -0.105469 -0.057000 34 38 53
-0.031250 -0.105469 -0.061234 35 40 56
-0.027344 -0.105469 -0.065306 36 41 57
-0.023438 -0.105469 -0.068992 36 41 57
-0.019531 -0.105469 -0.072492 35 40 56
-0.015625 -0.105469 -0.075784 38 43 60
-0.011719 -0.105469 -0.078688 41 48 66
-0.007812 -0.105469 -0.081322 40 48 68
-0.003906 -0.105469 -0.083581 38 48 69
0.000000 -0.105469 -0.085595 39 51 71
0.003906 -0.105469 -0.087467 40 51 72
0.007812 -0.105469 -0.089122 39 50 70
0.011719 -0.105469 -0.090481 39 50 70
0.015625 -0.105469 -0.091502 41 52 72
0.019531 -0.105469 -0.092121 43 55 75
0.023438 -0.105469 -0.092365 43 54 74
0.027344 -0.105469 -0.092277 44 54 75
0.031250 -0.105469 -0.091874 47 58 78
0.035156 -0.105469 -0.091134 46 57 77
0.039062 -0.105469 -0.090133 44 55 75
0.042969 -0.105469 -0.088739 43 54 74
0.046875 -0.105469 -0.086943 42 53 73
0.050781 -0.105469 -0.084701 46 57 77
0.054688 -0.105469 -0.082035 48 59 80
0.058594 -0.105469 -0.078892 45 56 77
0.062500 -0.105469 -0.075230 44 55 76
0.066406 -0.105469 -0.070985 46 57 77
0.070312 -0.105469 -0.066166 47 58 79
0.074219 -0.105469 -0.061314 47 58 79
0.078125 -0.105469 -0.056449 49 60 81
0.082031 -0.105469 -0.051544 48 60 81
0.085938 -0.105469 -0.046514 45 57 78
0.089844 -0.105469 -0.041569 44 55 76
0.093750 -0.105469 -0.036935 44 55 75
0.097656 -0.105469 -0.032279 45 56 76
0.101562 -0.105469 -0.028001 47 58 78
0.105469 -0.105469 -0.023601 47 58 78
0.109375 -0.105469 -0.019152 44 54 75
0.113281 -0.105469 -0.015227 43 54 75
0.117188 -0.105469 -0.011639 44 55 77
0.121094 -0.105469 -0.008669 43 54 75
0.125000 -0.105469 -0.004288 46 54 76
0.128906 -0.105469 -0.000994 41 43 67
0.132812 -0.105469 0.005022 36 34 56
-0.429688 -0.109375 0.009826 176 131 123
-0.425781 -0.109375 0.001555 162 114 106
-0.421875 -0.109375 0.003178 165 107 97
-0.417969 -0.109375 0.009519 188 120 114
-0.414062 -0.109375 0.020766 188 134 130
-0.410156 -0.109375 0.021139 195 144 140
-0.328125 -0.109375 0.021944 15 14 17
-0.324219 -0.109375 0.004059 15 16 18
-0.320312 -0.109375 -0.005518 13 14 16
-0.316406 -0.109375 -0.013851 16 17 18
-0.312500 -0.109375 -0.020828 14 15 17
-0.308594 -0.109375 -0.026994 16 18 20
-0.304688 -0.109375 -0.033160 17 20 22
-0.300781 -0.109375 -0.039051 17 20 24
-0.296875 -0.109375 -0.044558 18 21 25
-0.292969 -0.109375 -0.049376 18 21 25
-0.289062 -0.109375 -0.054019 18 21 26
-0.285156 -0.109375 -0.058816 19 23 28
-0.281250 -0.109375 -0.064066 20 24 30
-0.277344 -0.109375 -0.069730 20 24 32
-0.273438 -0.109375 -0.075766 21 25 34
-0.269531 -0.109375 -0.082026 22 27 37
-0.265625 -0.109375 -0.088006 23 28 38
-0.261719 -0.109375 -0.093644 23 29 40
-0.257812 -0.109375 -0.098871 24 29 41
-0.253906 -0.109375 -0.103800 24 29 41
-0.250000 -0.109375 -0.108438 24 29 41
-0.246094 -0.109375 -0.112884 25 30 42
-0.242188 -0.109375 -0.116964 26 31 44
-0.238281 -0.109375 -0.120700 26 30 44
-0.234375 -0.109375 -0.124062 25 30 42
-0.230469 -0.109375 -0.126892 27 31 43
