ply
    format ascii 1.0
    element vertex 69250
    property float x
    property float y
    property float z
    property uchar red
    property uchar green
    property uchar blue
    end_header
-0.011719 0.144531 -0.113497 214 213 214
-0.007812 0.144531 -0.111893 215 214 215
-0.003906 0.144531 -0.110103 212 212 212
0.000000 0.144531 -0.108173 204 204 204
0.003906 0.144531 -0.105716 189 189 189
0.007812 0.144531 -0.102778 165 165 165
0.011719 0.144531 -0.099794 132 132 132
0.015625 0.144531 -0.096658 96 96 97
0.019531 0.144531 -0.093095 66 66 68
0.023438 0.144531 -0.089156 52 51 55
0.027344 0.144531 -0.085157 48 49 52
0.031250 0.144531 -0.080971 45 50 48
0.035156 0.144531 -0.076129 42 52 43
0.039062 0.144531 -0.071067 37 45 37
0.042969 0.144531 -0.065554 23 27 22
0.046875 0.144531 -0.059633 12 13 11
0.050781 0.144531 -0.053828 42 32 31
0.054688 0.144531 -0.047906 155 111 97
0.058594 0.144531 -0.042686 159 103 89
0.062500 0.144531 -0.037641 160 94 81
0.066406 0.144531 -0.032208 178 107 91
0.070312 0.144531 -0.026631 163 91 77
0.074219 0.144531 -0.020863 157 85 73
0.078125 0.144531 -0.014689 150 76 65
0.082031 0.144531 -0.008218 161 85 72
0.085938 0.144531 -0.001330 163 91 77
0.089844 0.144531 0.008745 136 75 69
0.093750 0.144531 0.006435 158 101 83
-0.222656 0.140625 -0.017051 213 210 212
-0.218750 0.140625 -0.039892 237 237 237
-0.214844 0.140625 -0.050807 231 231 231
-0.210938 0.140625 -0.060418 228 228 228
-0.207031 0.140625 -0.068559 230 230 230
-0.203125 0.140625 -0.075684 232 232 232
-0.199219 0.140625 -0.081885 234 234 234
-0.195312 0.140625 -0.087581 234 234 234
-0.191406 0.140625 -0.093054 234 234 234
-0.187500 0.140625 -0.098229 232 232 232
-0.183594 0.140625 -0.103007 230 230 230
-0.179688 0.140625 -0.107551 227 227 227
-0.175781 0.140625 -0.111878 224 224 224
-0.171875 0.140625 -0.115958 222 222 222
-0.167969 0.140625 -0.119232 218 218 218
-0.164062 0.140625 -0.121954 216 216 216
-0.160156 0.140625 -0.124574 215 215 215
-0.156250 0.140625 -0.127007 216 216 216
-0.152344 0.140625 -0.129288 218 218 218
-0.148438 0.140625 -0.131401 220 220 220
-0.144531 0.140625 -0.133261 222 222 222
-0.140625 0.140625 -0.134862 223 223 223
-0.136719 0.140625 -0.136000 224 224 224
-0.132812 0.140625 -0.136779 226 226 226
-0.128906 0.140625 -0.137433 227 227 227
-0.125000 0.140625 -0.137948 228 228 228
-0.121094 0.140625 -0.138351 229 229 229
-0.117188 0.140625 -0.138679 229 229 229
-0.113281 0.140625 -0.138849 229 229 229
-0.109375 0.140625 -0.138885 229 229 229
-0.105469 0.140625 -0.138826 228 228 228
-0.101562 0.140625 -0.138657 227 227 227
-0.097656 0.140625 -0.138396 226 226 226
-0.093750 0.140625 -0.138027 225 225 225
-0.089844 0.140625 -0.137570 225 225 225
-0.085938 0.140625 -0.137005 224 224 224
-0.082031 0.140625 -0.136410 223 223 223
-0.078125 0.140625 -0.135764 221 221 221
-0.074219 0.140625 -0.135077 220 220 220
-0.070312 0.140625 -0.134361 220 219 219
-0.066406 0.140625 -0.133533 219 219 219
-0.062500 0.140625 -0.132658 219 219 219
-0.058594 0.140625 -0.131588 219 219 219
-0.054688 0.140625 -0.130359 219 219 219
-0.050781 0.140625 -0.129065 218 218 218
-0.046875 0.140625 -0.127704 218 217 217
-0.042969 0.140625 -0.126381 217 217 217
-0.039062 0.140625 -0.125105 217 216 217
-0.035156 0.140625 -0.123750 217 216 216
-0.031250 0.140625 -0.122321 216 215 215
-0.027344 0.140625 -0.120850 214 213 213
-0.023438 0.140625 -0.119319 212 211 212
-0.019531 0.140625 -0.117619 212 211 212
-0.015625 0.140625 -0.115755 213 212 213
-0.011719 0.140625 -0.114086 215 214 215
-0.007812 0.140625 -0.112448 216 216 216
-0.003906 0.140625 -0.110634 214 214 214
0.000000 0.140625 -0.108687 208 208 208
0.003906 0.140625 -0.106241 197 197 197
0.007812 0.140625 -0.103342 177 176 177
0.011719 0.140625 -0.100411 147 146 147
0.015625 0.140625 -0.097330 109 109 109
0.019531 0.140625 -0.093831 72 72 73
0.023438 0.140625 -0.089964 52 51 53
0.027344 0.140625 -0.086039 46 45 47
0.031250 0.140625 -0.081991 45 48 46
0.035156 0.140625 -0.077262 46 54 46
0.039062 0.140625 -0.072249 44 52 42
0.042969 0.140625 -0.066834 34 39 31
0.046875 0.140625 -0.061070 19 20 16
0.050781 0.140625 -0.055430 37 29 25
0.054688 0.140625 -0.049456 107 70 58
0.058594 0.140625 -0.044073 131 80 68
0.062500 0.140625 -0.038905 150 90 75
0.066406 0.140625 -0.033316 164 96 80
0.070312 0.140625 -0.027479 152 83 70
0.074219 0.140625 -0.021041 152 81 69
0.078125 0.140625 -0.013671 151 80 68
0.082031 0.140625 -0.006179 159 88 74
0.085938 0.140625 0.002989 157 93 81
0.089844 0.140625 0.015834 134 83 83
-0.222656 0.136719 -0.027412 225 223 224
-0.218750 0.136719 -0.041394 233 233 233
-0.214844 0.136719 -0.051512 227 227 227
-0.210938 0.136719 -0.060782 227 227 227
-0.207031 0.136719 -0.068641 229 229 229
-0.203125 0.136719 -0.075564 232 232 232
-0.199219 0.136719 -0.081825 234 234 234
-0.195312 0.136719 -0.087602 234 234 234
-0.191406 0.136719 -0.093105 234 234 234
-0.187500 0.136719 -0.098300 232 232 232
-0.183594 0.136719 -0.103110 230 230 230
-0.179688 0.136719 -0.107656 227 227 227
-0.175781 0.136719 -0.111991 224 224 224
-0.171875 0.136719 -0.116092 222 222 222
-0.167969 0.136719 -0.119393 219 219 219
-0.164062 0.136719 -0.122146 216 216 216
-0.160156 0.136719 -0.124794 215 215 215
-0.156250 0.136719 -0.127256 216 216 216
-0.152344 0.136719 -0.129561 218 218 218
-0.148438 0.136719 -0.131690 220 220 220
-0.144531 0.136719 -0.133569 222 222 222
-0.140625 0.136719 -0.135189 223 223 223
-0.136719 0.136719 -0.136368 225 225 225
-0.132812 0.136719 -0.137199 226 225 226
-0.128906 0.136719 -0.137904 227 227 227
-0.125000 0.136719 -0.138465 228 228 228
-0.121094 0.136719 -0.138915 229 229 229
-0.117188 0.136719 -0.139292 229 229 229
-0.113281 0.136719 -0.139510 229 229 229
-0.109375 0.136719 -0.139594 228 228 228
-0.105469 0.136719 -0.139581 227 227 227
-0.101562 0.136719 -0.139456 227 226 226
-0.097656 0.136719 -0.139236 226 226 226
-0.093750 0.136719 -0.138904 226 225 225
-0.089844 0.136719 -0.138480 225 225 225
-0.085938 0.136719 -0.137942 224 224 224
-0.082031 0.136719 -0.137369 224 223 223
-0.078125 0.136719 -0.136735 223 222 222
-0.074219 0.136719 -0.136050 222 221 221
-0.070312 0.136719 -0.135325 221 221 221
-0.066406 0.136719 -0.134484 220 220 220
-0.062500 0.136719 -0.133594 221 220 220
-0.058594 0.136719 -0.132506 221 220 221
-0.054688 0.136719 -0.131263 221 221 221
-0.050781 0.136719 -0.129947 221 220 221
-0.046875 0.136719 -0.128561 221 220 220
-0.042969 0.136719 -0.127210 220 220 220
-0.039062 0.136719 -0.125904 221 220 220
-0.035156 0.136719 -0.124517 221 220 220
-0.031250 0.136719 -0.123055 220 219 219
-0.027344 0.136719 -0.121545 218 217 217
-0.023438 0.136719 -0.119972 215 214 215
-0.019531 0.136719 -0.118236 214 213 213
-0.015625 0.136719 -0.116341 213 213 213
-0.011719 0.136719 -0.114631 215 214 214
-0.007812 0.136719 -0.112946 215 215 215
-0.003906 0.136719 -0.111099 214 214 214
0.000000 0.136719 -0.109128 210 210 210
0.003906 0.136719 -0.106690 201 201 201
0.007812 0.136719 -0.103836 185 185 185
0.011719 0.136719 -0.100947 159 158 159
0.015625 0.136719 -0.097923 122 121 122
0.019531 0.136719 -0.094511 80 80 80
0.023438 0.136719 -0.090729 53 53 54
0.027344 0.136719 -0.086872 45 44 45
0.031250 0.136719 -0.082896 48 48 48
0.035156 0.136719 -0.078277 56 60 54
0.039062 0.136719 -0.073375 60 65 56
0.042969 0.136719 -0.068041 60 63 54
0.046875 0.136719 -0.062425 39 39 32
0.050781 0.136719 -0.057018 25 20 18
0.054688 0.136719 -0.051093 44 29 24
0.058594 0.136719 -0.045629 104 65 52
0.062500 0.136719 -0.040342 156 98 81
0.066406 0.136719 -0.034534 159 93 77
0.070312 0.136719 -0.028337 148 81 68
0.074219 0.136719 -0.021449 151 81 69
0.078125 0.136719 -0.013588 156 86 72
0.082031 0.136719 -0.003489 162 93 78
0.085938 0.136719 0.009137 159 97 87
0.089844 0.136719 0.005505 144 77 66
-0.222656 0.132812 -0.029398 225 224 224
-0.218750 0.132812 -0.042260 230 229 229
-0.214844 0.132812 -0.052133 225 225 225
-0.210938 0.132812 -0.061024 226 226 226
-0.207031 0.132812 -0.068643 230 229 229
-0.203125 0.132812 -0.075470 232 232 232
-0.199219 0.132812 -0.081719 234 234 234
-0.195312 0.132812 -0.087545 234 234 234
-0.191406 0.132812 -0.093058 234 234 234
-0.187500 0.132812 -0.098260 232 232 232
-0.183594 0.132812 -0.103091 230 230 230
-0.179688 0.132812 -0.107626 227 227 227
-0.175781 0.132812 -0.111963 225 225 225
-0.171875 0.132812 -0.116080 222 222 222
-0.167969 0.132812 -0.119404 219 219 219
-0.164062 0.132812 -0.122188 217 217 217
-0.160156 0.132812 -0.124863 215 215 215
-0.156250 0.132812 -0.127354 216 216 216
-0.152344 0.132812 -0.129687 218 218 218
-0.148438 0.132812 -0.131837 220 220 220
-0.144531 0.132812 -0.133743 222 222 222
-0.140625 0.132812 -0.135388 223 223 223
-0.136719 0.132812 -0.136615 224 224 224
-0.132812 0.132812 -0.137504 225 225 225
-0.128906 0.132812 -0.138264 226 226 226
-0.125000 0.132812 -0.138879 227 227 227
-0.121094 0.132812 -0.139382 228 228 228
-0.117188 0.132812 -0.139815 229 229 229
-0.113281 0.132812 -0.140089 229 229 229
-0.109375 0.132812 -0.140227 228 228 228
-0.105469 0.132812 -0.140269 227 227 227
-0.101562 0.132812 -0.140194 227 226 226
-0.097656 0.132812 -0.140019 226 226 226
-0.093750 0.132812 -0.139726 226 226 226
-0.089844 0.132812 -0.139340 226 225 225
-0.085938 0.132812 -0.138832 225 225 225
-0.082031 0.132812 -0.138281 225 224 224
-0.078125 0.132812 -0.137661 224 224 224
-0.074219 0.132812 -0.136976 223 223 223
-0.070312 0.132812 -0.136241 222 222 222
-0.066406 0.132812 -0.135383 222 222 222
-0.062500 0.132812 -0.134473 222 222 222
-0.058594 0.132812 -0.133363 223 222 222
-0.054688 0.132812 -0.132101 223 223 223
-0.050781 0.132812 -0.130763 223 223 223
-0.046875 0.132812 -0.129350 223 223 223
-0.042969 0.132812 -0.127971 223 223 223
-0.039062 0.132812 -0.126631 224 223 223
-0.035156 0.132812 -0.125210 224 223 223
-0.031250 0.132812 -0.123713 223 223 223
-0.027344 0.132812 -0.122161 221 221 221
-0.023438 0.132812 -0.120540 218 218 218
-0.019531 0.132812 -0.118758 216 215 215
-0.015625 0.132812 -0.116826 214 214 214
-0.011719 0.132812 -0.115062 214 214 214
-0.007812 0.132812 -0.113316 215 215 215
-0.003906 0.132812 -0.111418 213 213 213
0.000000 0.132812 -0.109407 210 210 210
0.003906 0.132812 -0.106970 204 204 204
0.007812 0.132812 -0.104159 190 190 190
0.011719 0.132812 -0.101310 168 168 168
0.015625 0.132812 -0.098347 135 135 135
0.019531 0.132812 -0.095032 92 92 92
0.023438 0.132812 -0.091342 61 61 61
0.027344 0.132812 -0.087558 49 49 49
0.031250 0.132812 -0.083671 54 53 53
0.035156 0.132812 -0.079192 69 71 67
0.039062 0.132812 -0.074472 85 87 80
0.042969 0.132812 -0.069321 106 107 98
0.046875 0.132812 -0.063792 91 88 78
0.050781 0.132812 -0.058574 31 26 22
0.054688 0.132812 -0.052833 33 25 20
0.058594 0.132812 -0.047351 102 70 56
0.062500 0.132812 -0.041846 149 92 76
0.066406 0.132812 -0.035995 147 81 66
0.070312 0.132812 -0.029588 144 78 64
0.074219 0.132812 -0.022053 149 81 68
0.078125 0.132812 -0.012639 162 92 78
0.082031 0.132812 -0.000826 166 97 83
0.085938 0.132812 0.015540 150 88 83
-0.222656 0.128906 -0.032124 224 224 224
-0.218750 0.128906 -0.043083 226 225 225
-0.214844 0.128906 -0.052691 224 224 224
-0.210938 0.128906 -0.061406 227 227 227
-0.207031 0.128906 -0.068667 230 230 230
-0.203125 0.128906 -0.075409 232 232 232
-0.199219 0.128906 -0.081617 233 233 233
-0.195312 0.128906 -0.087461 234 234 234
-0.191406 0.128906 -0.092967 233 233 233
-0.187500 0.128906 -0.098160 232 232 232
-0.183594 0.128906 -0.102996 229 229 229
-0.179688 0.128906 -0.107507 227 227 227
-0.175781 0.128906 -0.111838 225 225 225
-0.171875 0.128906 -0.115964 223 223 223
-0.167969 0.128906 -0.119309 220 220 220
-0.164062 0.128906 -0.122123 217 217 217
-0.160156 0.128906 -0.124824 216 216 216
-0.156250 0.128906 -0.127344 217 216 216
-0.152344 0.128906 -0.129704 218 218 218
-0.148438 0.128906 -0.131876 220 220 220
-0.144531 0.128906 -0.133810 222 222 222
-0.140625 0.128906 -0.135484 223 223 223
-0.136719 0.128906 -0.136760 224 224 224
-0.132812 0.128906 -0.137713 225 224 224
-0.128906 0.128906 -0.138531 226 225 225
-0.125000 0.128906 -0.139205 227 227 227
-0.121094 0.128906 -0.139767 228 228 228
-0.117188 0.128906 -0.140263 228 228 228
-0.113281 0.128906 -0.140601 228 228 228
-0.109375 0.128906 -0.140801 228 228 228
-0.105469 0.128906 -0.140904 227 227 227
-0.101562 0.128906 -0.140885 227 226 226
-0.097656 0.128906 -0.140764 226 226 226
-0.093750 0.128906 -0.140519 226 226 226
-0.089844 0.128906 -0.140175 226 226 226
-0.085938 0.128906 -0.139703 226 226 226
-0.082031 0.128906 -0.139175 226 225 225
-0.078125 0.128906 -0.138568 225 225 225
-0.074219 0.128906 -0.137885 224 224 224
-0.070312 0.128906 -0.137141 224 224 224
-0.066406 0.128906 -0.136266 224 224 224
-0.062500 0.128906 -0.135335 224 224 224
-0.058594 0.128906 -0.134205 225 224 224
-0.054688 0.128906 -0.132926 225 225 225
-0.050781 0.128906 -0.131565 226 225 225
-0.046875 0.128906 -0.130127 226 225 226
-0.042969 0.128906 -0.128717 226 226 226
-0.039062 0.128906 -0.127340 226 226 226
-0.035156 0.128906 -0.125882 227 226 226
-0.031250 0.128906 -0.124349 226 226 226
-0.027344 0.128906 -0.122749 224 224 224
-0.023438 0.128906 -0.121076 221 220 221
-0.019531 0.128906 -0.119248 218 218 218
-0.015625 0.128906 -0.117279 216 215 216
-0.011719 0.128906 -0.115455 215 215 215
-0.007812 0.128906 -0.113641 214 214 214
-0.003906 0.128906 -0.111686 213 213 213
0.000000 0.128906 -0.109627 210 210 210
0.003906 0.128906 -0.107192 205 205 205
0.007812 0.128906 -0.104423 195 195 195
0.011719 0.128906 -0.101617 177 177 177
0.015625 0.128906 -0.098710 149 149 149
0.019531 0.128906 -0.095481 109 109 109
0.023438 0.128906 -0.091896 76 76 76
0.027344 0.128906 -0.088196 61 60 60
0.031250 0.128906 -0.084367 65 64 64
0.035156 0.128906 -0.080021 86 86 84
0.039062 0.128906 -0.075466 113 114 109
0.042969 0.128906 -0.070499 152 153 146
0.046875 0.128906 -0.065124 145 144 133
0.050781 0.128906 -0.060028 42 39 33
0.054688 0.128906 -0.054403 37 31 24
0.058594 0.128906 -0.048908 112 82 68
0.062500 0.128906 -0.043228 126 74 63
0.066406 0.128906 -0.037403 127 65 53
0.070312 0.128906 -0.030603 146 79 64
0.074219 0.128906 -0.022635 153 86 71
0.078125 0.128906 -0.012272 164 98 82
0.082031 0.128906 0.000065 154 91 82
0.085938 0.128906 0.011436 157 93 81
-0.222656 0.125000 -0.034366 230 229 229
-0.218750 0.125000 -0.044422 222 222 222
-0.214844 0.125000 -0.053397 222 222 222
-0.210938 0.125000 -0.061670 227 226 226
-0.207031 0.125000 -0.068753 230 230 230
-0.203125 0.125000 -0.075356 232 232 232
-0.199219 0.125000 -0.081489 233 233 233
-0.195312 0.125000 -0.087338 233 233 233
-0.191406 0.125000 -0.092829 233 233 233
-0.187500 0.125000 -0.098011 231 231 231
-0.183594 0.125000 -0.102843 229 229 229
-0.179688 0.125000 -0.107330 226 226 226
-0.175781 0.125000 -0.111649 225 225 225
-0.171875 0.125000 -0.115776 223 223 223
-0.167969 0.125000 -0.119137 220 220 220
-0.164062 0.125000 -0.121973 217 217 217
-0.160156 0.125000 -0.124697 216 216 216
-0.156250 0.125000 -0.127243 217 216 216
-0.152344 0.125000 -0.129630 218 218 218
-0.148438 0.125000 -0.131823 220 220 220
-0.144531 0.125000 -0.133787 221 221 221
-0.140625 0.125000 -0.135492 222 222 222
-0.136719 0.125000 -0.136818 223 223 223
-0.132812 0.125000 -0.137833 224 224 224
-0.128906 0.125000 -0.138708 225 225 225
-0.125000 0.125000 -0.139441 226 226 226
-0.121094 0.125000 -0.140063 227 227 227
-0.117188 0.125000 -0.140626 228 228 228
-0.113281 0.125000 -0.141029 228 228 228
-0.109375 0.125000 -0.141292 228 228 228
-0.105469 0.125000 -0.141456 227 227 227
-0.101562 0.125000 -0.141496 226 226 226
-0.097656 0.125000 -0.141430 226 226 226
-0.093750 0.125000 -0.141232 226 226 226
-0.089844 0.125000 -0.140931 226 226 226
-0.085938 0.125000 -0.140494 226 226 226
-0.082031 0.125000 -0.139990 226 226 226
-0.078125 0.125000 -0.139398 226 226 226
-0.074219 0.125000 -0.138718 226 225 225
-0.070312 0.125000 -0.137969 226 225 225
-0.066406 0.125000 -0.137081 226 225 225
-0.062500 0.125000 -0.136131 226 226 226
-0.058594 0.125000 -0.134981 226 226 226
-0.054688 0.125000 -0.133685 227 227 227
-0.050781 0.125000 -0.132302 227 227 227
-0.046875 0.125000 -0.130836 228 228 228
-0.042969 0.125000 -0.129394 228 228 228
-0.039062 0.125000 -0.127976 229 228 228
-0.035156 0.125000 -0.126476 229 228 229
-0.031250 0.125000 -0.124902 228 228 228
-0.027344 0.125000 -0.123249 226 226 226
-0.023438 0.125000 -0.121518 224 223 223
-0.019531 0.125000 -0.119635 221 220 221
-0.015625 0.125000 -0.117622 218 218 218
-0.011719 0.125000 -0.115732 216 216 216
-0.007812 0.125000 -0.113847 215 215 215
-0.003906 0.125000 -0.111826 213 213 213
0.000000 0.125000 -0.109710 211 210 210
0.003906 0.125000 -0.107266 207 207 207
0.007812 0.125000 -0.104534 199 199 199
0.011719 0.125000 -0.101769 186 186 186
0.015625 0.125000 -0.098916 162 162 162
0.019531 0.125000 -0.095765 126 126 126
0.023438 0.125000 -0.092276 93 92 93
0.027344 0.125000 -0.088668 73 73 73
0.031250 0.125000 -0.084911 75 75 75
0.035156 0.125000 -0.080677 99 99 98
0.039062 0.125000 -0.076242 136 136 133
0.042969 0.125000 -0.071438 187 188 183
0.046875 0.125000 -0.066337 188 188 179
0.050781 0.125000 -0.061434 59 57 48
0.054688 0.125000 -0.055807 51 45 32
0.058594 0.125000 -0.050337 140 108 91
0.062500 0.125000 -0.044637 116 66 58
0.066406 0.125000 -0.038716 118 59 48
0.070312 0.125000 -0.031838 154 87 70
0.074219 0.125000 -0.023381 161 95 77
0.078125 0.125000 -0.011602 164 102 84
0.082031 0.125000 0.009163 122 74 70
-0.226562 0.121094 -0.019139 232 232 232
-0.222656 0.121094 -0.036282 232 232 232
-0.218750 0.121094 -0.045639 222 222 222
-0.214844 0.121094 -0.054022 223 223 223
-0.210938 0.121094 -0.061966 228 228 228
-0.207031 0.121094 -0.068905 231 231 231
-0.203125 0.121094 -0.075337 232 232 232
-0.199219 0.121094 -0.081367 233 233 233
-0.195312 0.121094 -0.087191 233 233 233
-0.191406 0.121094 -0.092662 232 232 232
-0.187500 0.121094 -0.097829 230 230 230
-0.183594 0.121094 -0.102653 228 228 228
-0.179688 0.121094 -0.107119 226 226 226
-0.175781 0.121094 -0.111430 224 224 224
-0.171875 0.121094 -0.115559 222 222 222
-0.167969 0.121094 -0.118937 219 219 219
-0.164062 0.121094 -0.121795 217 217 217
-0.160156 0.121094 -0.124545 216 216 216
-0.156250 0.121094 -0.127117 216 216 216
-0.152344 0.121094 -0.129529 218 218 218
-0.148438 0.121094 -0.131743 219 219 219
-0.144531 0.121094 -0.133739 221 220 220
-0.140625 0.121094 -0.135476 221 221 221
-0.136719 0.121094 -0.136850 222 222 222
-0.132812 0.121094 -0.137926 223 223 223
-0.128906 0.121094 -0.138855 224 224 224
-0.125000 0.121094 -0.139646 225 225 225
-0.121094 0.121094 -0.140327 227 226 226
-0.117188 0.121094 -0.140955 227 227 227
-0.113281 0.121094 -0.141423 228 228 228
-0.109375 0.121094 -0.141748 227 227 227
-0.105469 0.121094 -0.141972 227 227 227
-0.101562 0.121094 -0.142065 226 226 226
-0.097656 0.121094 -0.142049 226 226 226
-0.093750 0.121094 -0.141893 226 226 226
-0.089844 0.121094 -0.141630 227 226 226
-0.085938 0.121094 -0.141222 227 227 227
-0.082031 0.121094 -0.140737 227 227 227
-0.078125 0.121094 -0.140155 227 227 227
-0.074219 0.121094 -0.139475 227 227 227
-0.070312 0.121094 -0.138718 227 227 227
-0.066406 0.121094 -0.137813 227 227 227
-0.062500 0.121094 -0.136840 228 227 227
-0.058594 0.121094 -0.135669 228 228 228
-0.054688 0.121094 -0.134355 229 229 229
-0.050781 0.121094 -0.132950 229 229 229
-0.046875 0.121094 -0.131461 230 229 230
-0.042969 0.121094 -0.129985 230 230 230
-0.039062 0.121094 -0.128524 231 230 230
-0.035156 0.121094 -0.126983 231 231 231
-0.031250 0.121094 -0.125367 230 230 230
-0.027344 0.121094 -0.123659 229 228 229
-0.023438 0.121094 -0.121866 226 226 226
-0.019531 0.121094 -0.119930 224 223 224
-0.015625 0.121094 -0.117870 221 221 221
-0.011719 0.121094 -0.115914 219 218 219
-0.007812 0.121094 -0.113958 216 216 216
-0.003906 0.121094 -0.111873 214 214 214
0.000000 0.121094 -0.109699 212 211 212
0.003906 0.121094 -0.107251 209 209 209
0.007812 0.121094 -0.104553 204 204 204
0.011719 0.121094 -0.101818 194 194 194
0.015625 0.121094 -0.099005 175 175 175
0.019531 0.121094 -0.095917 146 146 146
0.023438 0.121094 -0.092513 115 115 115
0.027344 0.121094 -0.088989 93 92 93
0.031250 0.121094 -0.085312 91 90 91
0.035156 0.121094 -0.081182 111 110 110
0.039062 0.121094 -0.076838 150 151 149
0.042969 0.121094 -0.072161 204 205 202
0.046875 0.121094 -0.067289 211 210 205
0.050781 0.121094 -0.062638 86 84 77
0.054688 0.121094 -0.057224 64 57 42
0.058594 0.121094 -0.051716 164 131 114
0.062500 0.121094 -0.045590 110 63 57
0.066406 0.121094 -0.039669 109 57 47
0.070312 0.121094 -0.033594 158 94 77
0.074219 0.121094 -0.023653 164 98 81
0.078125 0.121094 -0.009822 169 108 92
0.082031 0.121094 0.010346 166 97 83
-0.226562 0.117188 -0.024274 232 232 232
-0.222656 0.117188 -0.037638 229 229 229
-0.218750 0.117188 -0.046631 220 220 220
-0.214844 0.117188 -0.054637 224 224 224
-0.210938 0.117188 -0.062282 229 229 229
-0.207031 0.117188 -0.069022 232 232 232
-0.203125 0.117188 -0.075294 233 233 233
-0.199219 0.117188 -0.081223 233 233 233
-0.195312 0.117188 -0.087014 232 232 232
-0.191406 0.117188 -0.092463 231 231 231
-0.187500 0.117188 -0.097611 230 230 230
-0.183594 0.117188 -0.102430 227 227 227
-0.179688 0.117188 -0.106881 225 225 225
-0.175781 0.117188 -0.111188 224 224 224
-0.171875 0.117188 -0.115317 222 222 222
-0.167969 0.117188 -0.118712 219 219 219
-0.164062 0.117188 -0.121590 216 216 216
-0.160156 0.117188 -0.124363 215 215 215
-0.156250 0.117188 -0.126960 216 216 216
-0.152344 0.117188 -0.129393 217 217 217
-0.148438 0.117188 -0.131623 219 218 218
-0.144531 0.117188 -0.133646 220 220 220
-0.140625 0.117188 -0.135411 221 220 220
-0.136719 0.117188 -0.136827 221 221 221
-0.132812 0.117188 -0.137955 222 222 222
-0.128906 0.117188 -0.138932 223 223 223
-0.125000 0.117188 -0.139774 224 224 224
-0.121094 0.117188 -0.140508 226 226 226
-0.117188 0.117188 -0.141196 227 227 227
-0.113281 0.117188 -0.141723 227 227 227
-0.109375 0.117188 -0.142107 227 227 227
-0.105469 0.117188 -0.142388 227 226 226
-0.101562 0.117188 -0.142532 226 226 226
-0.097656 0.117188 -0.142566 226 226 226
-0.093750 0.117188 -0.142453 226 226 226
-0.089844 0.117188 -0.142227 227 227 227
-0.085938 0.117188 -0.141848 227 227 227
-0.082031 0.117188 -0.141380 227 227 227
-0.078125 0.117188 -0.140808 227 227 227
-0.074219 0.117188 -0.140130 228 228 228
-0.070312 0.117188 -0.139364 228 228 228
-0.066406 0.117188 -0.138446 229 228 229
-0.062500 0.117188 -0.137454 229 229 229
-0.058594 0.117188 -0.136264 230 230 230
-0.054688 0.117188 -0.134935 231 230 230
-0.050781 0.117188 -0.133512 231 231 231
-0.046875 0.117188 -0.132002 232 231 231
-0.042969 0.117188 -0.130495 232 232 232
-0.039062 0.117188 -0.128992 232 232 232
-0.035156 0.117188 -0.127409 233 232 233
-0.031250 0.117188 -0.125753 232 232 232
-0.027344 0.117188 -0.123996 231 231 231
-0.023438 0.117188 -0.122146 229 229 229
-0.019531 0.117188 -0.120163 227 226 227
-0.015625 0.117188 -0.118065 224 224 224
-0.011719 0.117188 -0.116054 222 222 222
-0.007812 0.117188 -0.114039 219 219 219
-0.003906 0.117188 -0.111894 216 216 216
0.000000 0.117188 -0.109667 214 214 214
0.003906 0.117188 -0.107206 212 212 212
0.007812 0.117188 -0.104533 209 209 209
0.011719 0.117188 -0.101819 202 202 202
0.015625 0.117188 -0.099034 189 189 189
0.019531 0.117188 -0.095992 168 168 168
0.023438 0.117188 -0.092654 141 141 141
0.027344 0.117188 -0.089202 118 118 118
0.031250 0.117188 -0.085610 111 110 111
0.035156 0.117188 -0.081573 123 122 122
0.039062 0.117188 -0.077330 162 162 161
0.042969 0.117188 -0.072819 215 215 214
0.046875 0.117188 -0.068102 226 226 224
0.050781 0.117188 -0.063591 148 148 144
0.054688 0.117188 -0.058299 77 71 49
0.058594 0.117188 -0.052836 177 144 125
0.062500 0.117188 -0.046530 114 69 65
0.066406 0.117188 -0.040320 107 61 52
0.070312 0.117188 -0.034079 153 94 78
0.074219 0.117188 -0.023815 147 87 73
0.078125 0.117188 -0.007901 140 85 74
-0.226562 0.113281 -0.025793 235 235 235
-0.222656 0.113281 -0.038809 229 229 229
-0.218750 0.113281 -0.047672 220 220 220
-0.214844 0.113281 -0.055152 225 225 225
-0.210938 0.113281 -0.062521 231 231 231
-0.207031 0.113281 -0.069128 233 233 233
-0.203125 0.113281 -0.075269 234 234 234
-0.199219 0.113281 -0.081088 233 233 233
-0.195312 0.113281 -0.086830 232 232 232
-0.191406 0.113281 -0.092257 230 230 230
-0.187500 0.113281 -0.097383 229 229 229
-0.183594 0.113281 -0.102202 227 226 226
-0.179688 0.113281 -0.106650 225 225 225
-0.175781 0.113281 -0.110964 223 223 223
-0.171875 0.113281 -0.115102 221 221 221
-0.167969 0.113281 -0.118518 218 218 218
-0.164062 0.113281 -0.121414 215 215 215
-0.160156 0.113281 -0.124210 214 214 214
-0.156250 0.113281 -0.126827 215 215 215
-0.152344 0.113281 -0.129276 216 216 216
-0.148438 0.113281 -0.131517 218 218 218
-0.144531 0.113281 -0.133558 219 219 219
-0.140625 0.113281 -0.135346 220 220 220
-0.136719 0.113281 -0.136796 220 220 220
-0.132812 0.113281 -0.137968 221 221 221
-0.128906 0.113281 -0.138983 222 222 222
-0.125000 0.113281 -0.139867 224 224 224
-0.121094 0.113281 -0.140646 225 225 225
-0.117188 0.113281 -0.141387 226 226 226
-0.113281 0.113281 -0.141966 227 227 227
-0.109375 0.113281 -0.142403 227 227 227
-0.105469 0.113281 -0.142735 226 226 226
-0.101562 0.113281 -0.142927 226 226 226
-0.097656 0.113281 -0.143005 226 226 226
-0.093750 0.113281 -0.142928 227 227 227
-0.089844 0.113281 -0.142733 227 227 227
-0.085938 0.113281 -0.142377 228 227 227
-0.082031 0.113281 -0.141923 228 228 228
-0.078125 0.113281 -0.141358 228 228 228
-0.074219 0.113281 -0.140677 229 229 229
-0.070312 0.113281 -0.139900 229 229 229
-0.066406 0.113281 -0.138968 230 230 230
-0.062500 0.113281 -0.137955 231 231 231
-0.058594 0.113281 -0.136748 232 231 231
-0.054688 0.113281 -0.135407 232 232 232
-0.050781 0.113281 -0.133969 233 233 233
-0.046875 0.113281 -0.132442 233 233 233
-0.042969 0.113281 -0.130907 234 234 234
-0.039062 0.113281 -0.129367 234 234 234
-0.035156 0.113281 -0.127748 234 234 234
-0.031250 0.113281 -0.126059 234 234 234
-0.027344 0.113281 -0.124256 233 233 233
-0.023438 0.113281 -0.122353 231 231 231
-0.019531 0.113281 -0.120326 229 229 229
-0.015625 0.113281 -0.118191 227 227 227
-0.011719 0.113281 -0.116130 225 225 225
-0.007812 0.113281 -0.114062 223 222 223
-0.003906 0.113281 -0.111862 220 220 220
0.000000 0.113281 -0.109583 218 218 218
0.003906 0.113281 -0.107108 216 216 216
0.007812 0.113281 -0.104449 214 214 214
0.011719 0.113281 -0.101744 210 210 210
0.015625 0.113281 -0.098974 201 201 201
0.019531 0.113281 -0.095965 187 187 187
0.023438 0.113281 -0.092678 167 166 166
0.027344 0.113281 -0.089288 145 145 145
0.031250 0.113281 -0.085776 130 130 130
0.035156 0.113281 -0.081819 130 129 129
0.039062 0.113281 -0.077652 162 162 162
0.042969 0.113281 -0.073305 214 213 213
0.046875 0.113281 -0.068735 230 229 228
0.050781 0.113281 -0.064313 191 191 188
0.054688 0.113281 -0.058918 69 61 42
0.058594 0.113281 -0.053531 132 92 77
0.062500 0.113281 -0.047262 104 61 59
0.066406 0.113281 -0.040654 119 71 64
0.070312 0.113281 -0.033281 153 98 82
0.074219 0.113281 -0.023895 137 85 72
0.078125 0.113281 -0.001117 86 47 45
-0.226562 0.109375 -0.027944 233 233 233
-0.222656 0.109375 -0.040125 226 226 226
-0.218750 0.109375 -0.048555 219 219 219
-0.214844 0.109375 -0.055642 226 226 226
-0.210938 0.109375 -0.062787 232 232 232
-0.207031 0.109375 -0.069238 234 234 234
-0.203125 0.109375 -0.075253 234 234 234
-0.199219 0.109375 -0.080975 233 233 233
-0.195312 0.109375 -0.086666 231 231 231
-0.191406 0.109375 -0.092067 230 230 230
-0.187500 0.109375 -0.097177 228 228 228
-0.183594 0.109375 -0.101999 225 225 225
-0.179688 0.109375 -0.106450 224 224 224
-0.175781 0.109375 -0.110775 222 222 222
-0.171875 0.109375 -0.114918 219 219 219
-0.167969 0.109375 -0.118351 216 216 216
-0.164062 0.109375 -0.121262 214 214 214
-0.160156 0.109375 -0.124076 213 213 213
-0.156250 0.109375 -0.126711 213 213 213
-0.152344 0.109375 -0.129168 215 215 215
-0.148438 0.109375 -0.131415 217 216 216
-0.144531 0.109375 -0.133466 218 218 218
-0.140625 0.109375 -0.135267 219 219 219
-0.136719 0.109375 -0.136743 219 219 219
-0.132812 0.109375 -0.137948 220 220 220
-0.128906 0.109375 -0.138992 222 221 221
-0.125000 0.109375 -0.139909 223 223 223
-0.121094 0.109375 -0.140724 225 224 224
-0.117188 0.109375 -0.141509 226 226 226
-0.113281 0.109375 -0.142133 226 226 226
-0.109375 0.109375 -0.142617 226 226 226
-0.105469 0.109375 -0.142996 226 226 226
-0.101562 0.109375 -0.143233 226 226 226
-0.097656 0.109375 -0.143352 227 226 226
-0.093750 0.109375 -0.143308 227 227 227
-0.089844 0.109375 -0.143142 227 227 227
-0.085938 0.109375 -0.142810 228 228 228
-0.082031 0.109375 -0.142370 229 228 228
-0.078125 0.109375 -0.141812 229 229 229
-0.074219 0.109375 -0.141131 230 230 230
-0.070312 0.109375 -0.140346 230 230 230
-0.066406 0.109375 -0.139402 231 231 231
-0.062500 0.109375 -0.138372 232 232 232
-0.058594 0.109375 -0.137152 233 233 233
-0.054688 0.109375 -0.135801 234 233 233
-0.050781 0.109375 -0.134352 234 234 234
-0.046875 0.109375 -0.132812 235 235 235
-0.042969 0.109375 -0.131252 235 235 235
-0.039062 0.109375 -0.129676 236 236 236
-0.035156 0.109375 -0.128023 236 236 236
-0.031250 0.109375 -0.126300 235 235 235
-0.027344 0.109375 -0.124453 234 234 234
-0.023438 0.109375 -0.122499 233 233 233
-0.019531 0.109375 -0.120432 232 232 232
-0.015625 0.109375 -0.118264 230 230 230
-0.011719 0.109375 -0.116161 229 228 228
-0.007812 0.109375 -0.114051 226 226 226
-0.003906 0.109375 -0.111809 224 224 224
0.000000 0.109375 -0.109490 222 222 222
0.003906 0.109375 -0.107003 221 221 221
0.007812 0.109375 -0.104356 219 219 219
0.011719 0.109375 -0.101652 216 216 216
0.015625 0.109375 -0.098891 211 210 210
0.019531 0.109375 -0.095903 202 202 202
0.023438 0.109375 -0.092656 188 188 188
0.027344 0.109375 -0.089316 170 169 169
0.031250 0.109375 -0.085855 151 150 150
0.035156 0.109375 -0.081973 137 136 136
0.039062 0.109375 -0.077890 150 149 149
0.042969 0.109375 -0.073676 187 187 186
0.046875 0.109375 -0.069222 202 202 201
0.050781 0.109375 -0.064931 156 156 154
0.054688 0.109375 -0.059677 32 28 23
0.058594 0.109375 -0.054450 44 26 22
0.062500 0.109375 -0.048019 81 46 44
0.066406 0.109375 -0.041104 131 80 72
0.070312 0.109375 -0.033005 155 101 86
0.074219 0.109375 -0.020964 131 85 76
-0.226562 0.105469 -0.029954 234 233 233
-0.222656 0.105469 -0.041164 227 226 226
-0.218750 0.105469 -0.049324 221 220 220
-0.214844 0.105469 -0.056111 228 228 228
-0.210938 0.105469 -0.063060 233 233 233
-0.207031 0.105469 -0.069399 235 235 235
-0.203125 0.105469 -0.075307 234 234 234
-0.199219 0.105469 -0.080937 233 233 233
-0.195312 0.105469 -0.086577 231 231 231
-0.191406 0.105469 -0.091951 229 229 229
-0.187500 0.105469 -0.097047 227 227 227
-0.183594 0.105469 -0.101878 224 224 224
-0.179688 0.105469 -0.106339 223 223 223
-0.175781 0.105469 -0.110680 221 220 220
-0.171875 0.105469 -0.114827 218 218 218
-0.167969 0.105469 -0.118274 214 214 214
-0.164062 0.105469 -0.121193 212 212 212
-0.160156 0.105469 -0.124016 211 211 211
-0.156250 0.105469 -0.126656 212 212 212
-0.152344 0.105469 -0.129112 213 213 213
-0.148438 0.105469 -0.131353 215 215 215
-0.144531 0.105469 -0.133401 217 217 217
-0.140625 0.105469 -0.135205 218 218 218
-0.136719 0.105469 -0.136696 218 218 218
-0.132812 0.105469 -0.137922 219 219 219
-0.128906 0.105469 -0.138987 221 221 221
-0.125000 0.105469 -0.139929 222 222 222
-0.121094 0.105469 -0.140772 224 224 224
-0.117188 0.105469 -0.141594 225 225 225
-0.113281 0.105469 -0.142256 226 226 226
-0.109375 0.105469 -0.142781 226 226 226
-0.105469 0.105469 -0.143200 226 226 226
-0.101562 0.105469 -0.143477 226 226 226
-0.097656 0.105469 -0.143633 227 227 227
-0.093750 0.105469 -0.143620 227 227 227
-0.089844 0.105469 -0.143480 228 228 228
-0.085938 0.105469 -0.143167 229 228 228
-0.082031 0.105469 -0.142737 229 229 229
-0.078125 0.105469 -0.142184 230 230 230
-0.074219 0.105469 -0.141500 231 230 230
-0.070312 0.105469 -0.140701 231 231 231
-0.066406 0.105469 -0.139742 232 232 232
-0.062500 0.105469 -0.138691 233 233 233
-0.058594 0.105469 -0.137457 234 234 234
-0.054688 0.105469 -0.136096 235 234 234
-0.050781 0.105469 -0.134634 235 235 235
-0.046875 0.105469 -0.133082 236 236 236
-0.042969 0.105469 -0.131500 237 237 237
-0.039062 0.105469 -0.129891 237 237 237
-0.035156 0.105469 -0.128207 237 237 237
-0.031250 0.105469 -0.126455 237 237 237
-0.027344 0.105469 -0.124567 236 236 236
-0.023438 0.105469 -0.122567 235 235 235
-0.019531 0.105469 -0.120458 234 234 234
-0.015625 0.105469 -0.118255 233 233 233
-0.011719 0.105469 -0.116108 232 232 232
-0.007812 0.105469 -0.113956 230 230 230
-0.003906 0.105469 -0.111668 229 228 229
0.000000 0.105469 -0.109302 227 227 227
0.003906 0.105469 -0.106797 226 226 226
0.007812 0.105469 -0.104151 224 224 224
0.011719 0.105469 -0.101441 222 222 222
0.015625 0.105469 -0.098681 218 218 218
0.019531 0.105469 -0.095706 212 212 212
0.023438 0.105469 -0.092486 202 202 202
0.027344 0.105469 -0.089186 188 187 187
0.031250 0.105469 -0.085773 168 167 167
0.035156 0.105469 -0.081961 145 144 144
0.039062 0.105469 -0.077944 138 137 137
0.042969 0.105469 -0.073877 148 147 147
0.046875 0.105469 -0.069571 147 147 147
0.050781 0.105469 -0.065373 102 101 100
0.054688 0.105469 -0.060264 22 19 17
0.058594 0.105469 -0.055175 29 18 14
0.062500 0.105469 -0.048591 86 54 47
0.066406 0.105469 -0.041681 121 72 68
0.070312 0.105469 -0.034028 134 83 81
0.074219 0.105469 -0.016496 108 73 75
-0.226562 0.101562 -0.032028 232 231 231
-0.222656 0.101562 -0.041983 226 225 225
-0.218750 0.101562 -0.049955 222 222 222
-0.214844 0.101562 -0.056597 229 229 229
-0.210938 0.101562 -0.063360 234 234 234
-0.207031 0.101562 -0.069596 235 235 235
-0.203125 0.101562 -0.075406 235 234 234
-0.199219 0.101562 -0.080959 233 233 233
-0.195312 0.101562 -0.086544 230 230 230
-0.191406 0.101562 -0.091888 228 228 228
-0.187500 0.101562 -0.096963 226 226 226
-0.183594 0.101562 -0.101807 224 224 224
-0.179688 0.101562 -0.106289 222 222 222
-0.175781 0.101562 -0.110648 219 219 219
-0.171875 0.101562 -0.114801 216 216 216
-0.167969 0.101562 -0.118260 212 212 212
-0.164062 0.101562 -0.121185 210 209 209
-0.160156 0.101562 -0.124010 209 209 209
-0.156250 0.101562 -0.126651 210 209 209
-0.152344 0.101562 -0.129095 211 211 211
-0.148438 0.101562 -0.131323 214 214 214
-0.144531 0.101562 -0.133358 215 215 215
-0.140625 0.101562 -0.135155 216 216 216
-0.136719 0.101562 -0.136652 217 217 217
-0.132812 0.101562 -0.137891 218 218 218
-0.128906 0.101562 -0.138968 220 220 220
-0.125000 0.101562 -0.139925 221 221 221
-0.121094 0.101562 -0.140788 223 223 223
-0.117188 0.101562 -0.141636 224 224 224
-0.113281 0.101562 -0.142326 225 225 225
-0.109375 0.101562 -0.142885 226 226 226
-0.105469 0.101562 -0.143337 226 226 226
-0.101562 0.101562 -0.143650 226 226 226
-0.097656 0.101562 -0.143840 227 227 227
-0.093750 0.101562 -0.143856 227 227 227
-0.089844 0.101562 -0.143742 228 228 228
-0.085938 0.101562 -0.143449 229 229 229
-0.082031 0.101562 -0.143032 230 230 230
-0.078125 0.101562 -0.142486 230 230 230
-0.074219 0.101562 -0.141801 231 231 231
-0.070312 0.101562 -0.140991 232 232 232
-0.066406 0.101562 -0.140021 233 233 233
-0.062500 0.101562 -0.138954 234 233 233
-0.058594 0.101562 -0.137708 234 234 234
-0.054688 0.101562 -0.136338 235 235 235
-0.050781 0.101562 -0.134866 236 236 236
-0.046875 0.101562 -0.133304 237 237 237
-0.042969 0.101562 -0.131700 238 238 238
-0.039062 0.101562 -0.130061 238 238 238
-0.035156 0.101562 -0.128346 238 238 238
-0.031250 0.101562 -0.126565 238 238 238
-0.027344 0.101562 -0.124638 238 237 237
-0.023438 0.101562 -0.122592 237 237 237
-0.019531 0.101562 -0.120442 236 236 236
-0.015625 0.101562 -0.118203 236 236 236
-0.011719 0.101562 -0.116016 235 235 235
-0.007812 0.101562 -0.113827 234 234 234
-0.003906 0.101562 -0.111504 233 233 233
0.000000 0.101562 -0.109102 232 231 232
0.003906 0.101562 -0.106578 231 231 231
0.007812 0.101562 -0.103927 229 229 229
0.011719 0.101562 -0.101201 227 227 227
0.015625 0.101562 -0.098429 224 224 224
0.019531 0.101562 -0.095451 221 221 221
0.023438 0.101562 -0.092243 214 214 214
0.027344 0.101562 -0.088972 204 204 204
0.031250 0.101562 -0.085608 186 185 185
0.035156 0.101562 -0.081859 159 158 158
0.039062 0.101562 -0.077894 136 135 136
0.042969 0.101562 -0.073921 126 125 125
0.046875 0.101562 -0.069708 115 114 114
0.050781 0.101562 -0.065582 87 86 85
0.054688 0.101562 -0.060541 30 27 24
0.058594 0.101562 -0.055392 46 32 21
0.062500 0.101562 -0.048640 107 80 61
0.066406 0.101562 -0.041607 104 68 67
0.070312 0.101562 -0.033737 145 110 111
0.074219 0.101562 -0.011169 161 144 138
-0.226562 0.097656 -0.033671 230 230 230
-0.222656 0.097656 -0.042850 224 223 223
-0.218750 0.097656 -0.050438 224 224 224
-0.214844 0.097656 -0.057097 231 231 231
-0.210938 0.097656 -0.063704 236 236 236
-0.207031 0.097656 -0.069856 236 236 236
-0.203125 0.097656 -0.075595 235 235 235
-0.199219 0.097656 -0.081076 233 233 233
-0.195312 0.097656 -0.086592 230 230 230
-0.191406 0.097656 -0.091895 228 228 228
-0.187500 0.097656 -0.096950 225 225 225
-0.183594 0.097656 -0.101808 223 223 223
-0.179688 0.097656 -0.106318 221 221 221
-0.175781 0.097656 -0.110705 218 218 218
-0.171875 0.097656 -0.114862 215 214 214
-0.167969 0.097656 -0.118334 210 210 210
-0.164062 0.097656 -0.121256 207 207 207
-0.160156 0.097656 -0.124080 207 207 207
-0.156250 0.097656 -0.126709 207 207 207
-0.152344 0.097656 -0.129130 210 209 209
-0.148438 0.097656 -0.131336 212 212 212
-0.144531 0.097656 -0.133345 214 214 214
-0.140625 0.097656 -0.135122 215 215 215
-0.136719 0.097656 -0.136612 216 216 216
-0.132812 0.097656 -0.137850 217 217 217
-0.128906 0.097656 -0.138931 219 219 219
-0.125000 0.097656 -0.139894 220 220 220
-0.121094 0.097656 -0.140768 222 222 222
-0.117188 0.097656 -0.141634 224 223 223
-0.113281 0.097656 -0.142345 225 224 224
-0.109375 0.097656 -0.142932 225 225 225
-0.105469 0.097656 -0.143412 226 226 226
-0.101562 0.097656 -0.143760 226 226 226
-0.097656 0.097656 -0.143979 227 227 227
-0.093750 0.097656 -0.144023 227 227 227
-0.089844 0.097656 -0.143934 228 228 228
-0.085938 0.097656 -0.143661 229 229 229
-0.082031 0.097656 -0.143255 230 230 230
-0.078125 0.097656 -0.142716 231 231 231
-0.074219 0.097656 -0.142030 232 232 232
-0.070312 0.097656 -0.141207 232 232 232
-0.066406 0.097656 -0.140226 233 233 233
-0.062500 0.097656 -0.139142 234 234 234
-0.058594 0.097656 -0.137883 235 235 235
-0.054688 0.097656 -0.136503 236 236 236
-0.050781 0.097656 -0.135021 237 237 237
-0.046875 0.097656 -0.133449 238 238 238
-0.042969 0.097656 -0.131826 239 239 239
-0.039062 0.097656 -0.130158 240 240 240
-0.035156 0.097656 -0.128417 240 240 240
-0.031250 0.097656 -0.126610 239 239 239
-0.027344 0.097656 -0.124645 239 239 239
-0.023438 0.097656 -0.122556 239 239 239
-0.019531 0.097656 -0.120366 238 238 238
-0.015625 0.097656 -0.118088 238 238 238
-0.011719 0.097656 -0.115858 238 238 238
-0.007812 0.097656 -0.113630 237 237 237
-0.003906 0.097656 -0.111268 236 236 236
0.000000 0.097656 -0.108826 236 236 236
0.003906 0.097656 -0.106271 235 235 235
0.007812 0.097656 -0.103598 234 234 234
0.011719 0.097656 -0.100842 232 232 232
0.015625 0.097656 -0.098043 230 230 230
0.019531 0.097656 -0.095052 228 228 228
0.023438 0.097656 -0.091845 224 224 224
0.027344 0.097656 -0.088594 217 217 217
0.031250 0.097656 -0.085262 202 202 202
0.035156 0.097656 -0.081562 175 174 175
0.039062 0.097656 -0.077650 148 147 147
0.042969 0.097656 -0.073740 132 131 131
0.046875 0.097656 -0.069587 119 118 118
0.050781 0.097656 -0.065536 99 97 97
0.054688 0.097656 -0.060587 51 45 43
0.058594 0.097656 -0.055548 58 45 29
0.062500 0.097656 -0.049111 100 85 57
0.066406 0.097656 -0.042093 82 65 58
0.070312 0.097656 -0.032764 129 115 113
0.074219 0.097656 -0.005694 165 161 154
-0.230469 0.093750 -0.017225 218 216 218
-0.226562 0.093750 -0.034748 236 235 235
-0.222656 0.093750 -0.043596 225 225 225
-0.218750 0.093750 -0.051015 227 227 227
-0.214844 0.093750 -0.057708 234 233 233
-0.210938 0.093750 -0.064168 237 237 237
-0.207031 0.093750 -0.070228 237 237 237
-0.203125 0.093750 -0.075899 235 235 235
-0.199219 0.093750 -0.081305 232 232 232
-0.195312 0.093750 -0.086743 230 230 230
-0.191406 0.093750 -0.091995 227 227 227
-0.187500 0.093750 -0.097018 224 224 224
-0.183594 0.093750 -0.101887 222 222 222
-0.179688 0.093750 -0.106422 220 220 220
-0.175781 0.093750 -0.110840 217 217 217
-0.171875 0.093750 -0.115004 213 213 213
-0.167969 0.093750 -0.118484 208 208 208
-0.164062 0.093750 -0.121396 205 205 205
-0.160156 0.093750 -0.124211 205 205 205
-0.156250 0.093750 -0.126823 205 205 205
-0.152344 0.093750 -0.129212 208 208 208
-0.148438 0.093750 -0.131388 211 211 211
-0.144531 0.093750 -0.133362 213 213 213
-0.140625 0.093750 -0.135111 214 214 214
-0.136719 0.093750 -0.136588 215 215 215
-0.132812 0.093750 -0.137820 216 216 216
-0.128906 0.093750 -0.138897 218 218 218
-0.125000 0.093750 -0.139861 220 219 219
-0.121094 0.093750 -0.140740 221 221 221
-0.117188 0.093750 -0.141615 223 223 223
-0.113281 0.093750 -0.142342 224 224 224
-0.109375 0.093750 -0.142950 225 225 225
-0.105469 0.093750 -0.143454 225 225 225
-0.101562 0.093750 -0.143832 226 226 226
-0.097656 0.093750 -0.144081 227 227 227
-0.093750 0.093750 -0.144153 227 227 227
-0.089844 0.093750 -0.144088 228 228 228
-0.085938 0.093750 -0.143837 229 229 229
-0.082031 0.093750 -0.143445 230 230 230
-0.078125 0.093750 -0.142912 231 231 231
-0.074219 0.093750 -0.142224 232 232 232
-0.070312 0.093750 -0.141388 233 233 233
-0.066406 0.093750 -0.140394 234 234 234
-0.062500 0.093750 -0.139292 235 235 235
-0.058594 0.093750 -0.138020 236 236 236
-0.054688 0.093750 -0.136627 237 237 237
-0.050781 0.093750 -0.135135 238 238 238
-0.046875 0.093750 -0.133554 239 239 239
-0.042969 0.093750 -0.131913 240 240 240
-0.039062 0.093750 -0.130217 241 241 241
-0.035156 0.093750 -0.128448 241 241 241
-0.031250 0.093750 -0.126613 241 241 241
-0.027344 0.093750 -0.124613 241 240 241
-0.023438 0.093750 -0.122486 240 240 240
-0.019531 0.093750 -0.120257 240 240 240
-0.015625 0.093750 -0.117939 240 240 240
-0.011719 0.093750 -0.115667 240 240 240
-0.007812 0.093750 -0.113404 240 239 240
-0.003906 0.093750 -0.111009 239 239 239
0.000000 0.093750 -0.108532 239 239 239
0.003906 0.093750 -0.105947 239 239 239
0.007812 0.093750 -0.103248 238 238 238
0.011719 0.093750 -0.100461 237 237 237
0.015625 0.093750 -0.097626 236 236 236
0.019531 0.093750 -0.094615 234 234 234
0.023438 0.093750 -0.091402 232 232 232
0.027344 0.093750 -0.088159 228 228 228
0.031250 0.093750 -0.084860 217 217 217
0.035156 0.093750 -0.081218 197 197 197
0.039062 0.093750 -0.077370 174 173 174
0.042969 0.093750 -0.073545 159 158 158
0.046875 0.093750 -0.069446 147 145 146
0.050781 0.093750 -0.065408 127 124 124
0.054688 0.093750 -0.060464 79 73 71
0.058594 0.093750 -0.055509 51 40 32
0.062500 0.093750 -0.049334 60 49 34
0.066406 0.093750 -0.042494 48 39 34
0.070312 0.093750 -0.032290 51 46 48
0.074219 0.093750 -0.003168 52 46 49
-0.230469 0.089844 -0.020859 237 236 237
-0.226562 0.089844 -0.035685 235 235 235
-0.222656 0.089844 -0.044428 224 224 224
-0.218750 0.089844 -0.051757 228 228 228
-0.214844 0.089844 -0.058363 234 234 234
-0.210938 0.089844 -0.064771 237 237 237
-0.207031 0.089844 -0.070749 237 237 237
-0.203125 0.089844 -0.076370 235 235 235
-0.199219 0.089844 -0.081705 232 232 232
-0.195312 0.089844 -0.087043 229 229 229
-0.191406 0.089844 -0.092233 226 226 226
-0.187500 0.089844 -0.097216 223 223 223
-0.183594 0.089844 -0.102091 221 221 221
-0.179688 0.089844 -0.106655 219 219 219
-0.175781 0.089844 -0.111097 215 215 215
-0.171875 0.089844 -0.115259 211 211 211
-0.167969 0.089844 -0.118734 206 206 206
-0.164062 0.089844 -0.121624 203 203 203
-0.160156 0.089844 -0.124415 203 203 203
-0.156250 0.089844 -0.127002 204 203 203
-0.152344 0.089844 -0.129349 206 206 206
-0.148438 0.089844 -0.131485 209 209 209
-0.144531 0.089844 -0.133414 211 211 211
-0.140625 0.089844 -0.135124 213 213 213
-0.136719 0.089844 -0.136577 214 214 214
-0.132812 0.089844 -0.137793 215 215 215
-0.128906 0.089844 -0.138859 217 217 217
-0.125000 0.089844 -0.139814 219 219 219
-0.121094 0.089844 -0.140691 221 220 220
-0.117188 0.089844 -0.141569 222 222 222
-0.113281 0.089844 -0.142308 223 223 223
-0.109375 0.089844 -0.142936 224 224 224
-0.105469 0.089844 -0.143462 225 225 225
-0.101562 0.089844 -0.143874 226 226 226
-0.097656 0.089844 -0.144154 226 226 226
-0.093750 0.089844 -0.144256 227 227 227
-0.089844 0.089844 -0.144219 228 228 228
-0.085938 0.089844 -0.143993 229 229 229
-0.082031 0.089844 -0.143618 230 230 230
-0.078125 0.089844 -0.143093 231 231 231
-0.074219 0.089844 -0.142404 232 232 232
-0.070312 0.089844 -0.141554 233 233 233
-0.066406 0.089844 -0.140547 234 234 234
-0.062500 0.089844 -0.139427 235 235 235
-0.058594 0.089844 -0.138137 236 236 236
-0.054688 0.089844 -0.136726 238 238 238
-0.050781 0.089844 -0.135219 239 239 239
-0.046875 0.089844 -0.133623 240 240 240
-0.042969 0.089844 -0.131958 241 241 241
-0.039062 0.089844 -0.130232 242 242 242
-0.035156 0.089844 -0.128431 242 242 242
-0.031250 0.089844 -0.126566 242 242 242
-0.027344 0.089844 -0.124530 242 242 242
-0.023438 0.089844 -0.122368 242 242 242
-0.019531 0.089844 -0.120101 242 242 242
-0.015625 0.089844 -0.117744 242 241 242
-0.011719 0.089844 -0.115432 242 242 242
-0.007812 0.089844 -0.113133 242 242 242
-0.003906 0.089844 -0.110704 242 241 241
0.000000 0.089844 -0.108192 242 241 241
0.003906 0.089844 -0.105567 241 241 241
0.007812 0.089844 -0.102823 241 241 241
0.011719 0.089844 -0.099989 240 240 240
0.015625 0.089844 -0.097108 240 240 240
0.019531 0.089844 -0.094068 239 239 239
0.023438 0.089844 -0.090841 238 238 238
0.027344 0.089844 -0.087596 236 236 236
0.031250 0.089844 -0.084320 230 230 230
0.035156 0.089844 -0.080717 219 218 218
0.039062 0.089844 -0.076933 203 203 203
0.042969 0.089844 -0.073205 190 189 189
0.046875 0.089844 -0.069168 176 174 174
0.050781 0.089844 -0.065181 154 150 151
0.054688 0.089844 -0.060315 109 102 102
0.058594 0.089844 -0.055425 64 54 51
0.062500 0.089844 -0.049116 56 45 36
0.066406 0.089844 -0.042406 55 45 38
0.070312 0.089844 -0.032350 49 43 38
0.074219 0.089844 -0.003885 34 28 23
-0.230469 0.085938 -0.023390 235 233 234
-0.226562 0.085938 -0.036732 230 230 230
-0.222656 0.085938 -0.045358 223 223 223
-0.218750 0.085938 -0.052584 229 228 228
-0.214844 0.085938 -0.059111 234 234 234
-0.210938 0.085938 -0.065520 237 237 237
-0.207031 0.085938 -0.071418 237 237 237
-0.203125 0.085938 -0.076993 234 234 234
-0.199219 0.085938 -0.082250 231 231 231
-0.195312 0.085938 -0.087479 228 228 228
-0.191406 0.085938 -0.092584 225 225 225
-0.187500 0.085938 -0.097509 222 222 222
-0.183594 0.085938 -0.102375 220 220 220
-0.179688 0.085938 -0.106964 217 217 217
-0.175781 0.085938 -0.111436 214 214 214
-0.171875 0.085938 -0.115599 209 209 209
-0.167969 0.085938 -0.119068 204 204 204
-0.164062 0.085938 -0.121938 201 201 201
-0.160156 0.085938 -0.124697 201 201 201
-0.156250 0.085938 -0.127250 202 202 202
-0.152344 0.085938 -0.129549 205 204 204
-0.148438 0.085938 -0.131638 208 208 208
-0.144531 0.085938 -0.133516 210 210 210
-0.140625 0.085938 -0.135181 212 212 212
-0.136719 0.085938 -0.136604 213 213 213
-0.132812 0.085938 -0.137802 215 214 214
-0.128906 0.085938 -0.138855 216 216 216
-0.125000 0.085938 -0.139800 218 218 218
-0.121094 0.085938 -0.140674 220 220 220
-0.117188 0.085938 -0.141551 221 221 221
-0.113281 0.085938 -0.142299 223 223 223
-0.109375 0.085938 -0.142942 224 224 224
-0.105469 0.085938 -0.143487 225 224 224
-0.101562 0.085938 -0.143930 225 225 225
-0.097656 0.085938 -0.144236 226 226 226
-0.093750 0.085938 -0.144367 227 227 227
-0.089844 0.085938 -0.144356 228 228 228
-0.085938 0.085938 -0.144153 229 229 229
-0.082031 0.085938 -0.143793 230 230 230
-0.078125 0.085938 -0.143273 231 231 231
-0.074219 0.085938 -0.142580 232 232 232
-0.070312 0.085938 -0.141709 233 233 233
-0.066406 0.085938 -0.140684 234 234 234
-0.062500 0.085938 -0.139542 235 235 235
-0.058594 0.085938 -0.138230 237 237 237
-0.054688 0.085938 -0.136794 238 238 238
