ply
    format ascii 1.0
    element vertex 95498
    property float x
    property float y
    property float z
    property uchar red
    property uchar green
    property uchar blue
    end_header
0.078125 0.207031 0.109307 105 113 132
0.082031 0.207031 0.107007 141 149 168
0.085938 0.207031 0.104352 166 173 191
0.089844 0.207031 0.101282 152 159 177
0.093750 0.207031 0.097750 158 163 182
0.097656 0.207031 0.092108 162 165 182
0.101562 0.207031 0.085970 146 147 165
0.105469 0.207031 0.081316 135 134 152
0.109375 0.207031 0.077186 159 158 176
0.113281 0.207031 0.073936 166 163 182
0.117188 0.207031 0.071727 186 184 204
0.121094 0.207031 0.069717 195 200 221
0.125000 0.207031 0.067725 180 185 205
0.128906 0.207031 0.065464 171 173 188
0.132812 0.207031 0.062615 135 131 142
0.136719 0.207031 0.059779 136 128 136
0.140625 0.207031 0.056975 98 87 95
0.144531 0.207031 0.053753 101 91 98
0.148438 0.207031 0.049818 149 136 143
0.152344 0.207031 0.045614 160 142 156
0.156250 0.207031 0.041629 162 146 162
0.160156 0.207031 0.038106 151 133 152
0.164062 0.207031 0.033097 159 139 159
0.167969 0.207031 0.026847 160 141 157
0.171875 0.207031 0.012411 153 134 138
-0.187500 0.203125 -0.005466 77 75 78
-0.183594 0.203125 0.007255 79 79 79
-0.179688 0.203125 0.014979 88 88 88
-0.175781 0.203125 0.021383 107 107 107
-0.171875 0.203125 0.027631 111 111 111
-0.167969 0.203125 0.033149 104 105 104
-0.164062 0.203125 0.038442 97 98 97
-0.160156 0.203125 0.043789 93 94 93
-0.156250 0.203125 0.049195 94 94 94
-0.152344 0.203125 0.055420 96 96 96
-0.148438 0.203125 0.062824 98 99 98
-0.144531 0.203125 0.068958 100 101 100
-0.140625 0.203125 0.073499 101 103 102
-0.136719 0.203125 0.076716 104 106 105
-0.132812 0.203125 0.078781 111 114 111
-0.128906 0.203125 0.080721 120 124 120
-0.125000 0.203125 0.082641 131 136 131
-0.121094 0.203125 0.084590 136 142 138
-0.117188 0.203125 0.086423 142 148 143
-0.113281 0.203125 0.088212 139 145 142
-0.109375 0.203125 0.089863 133 142 139
-0.105469 0.203125 0.091010 153 163 157
-0.101562 0.203125 0.091566 183 193 197
-0.097656 0.203125 0.091826 150 158 171
-0.093750 0.203125 0.091970 199 208 224
-0.089844 0.203125 0.092284 185 196 215
-0.085938 0.203125 0.092875 185 196 220
-0.082031 0.203125 0.093631 169 181 207
-0.078125 0.203125 0.094414 174 185 213
-0.074219 0.203125 0.095241 166 180 209
-0.070312 0.203125 0.096169 177 187 214
-0.066406 0.203125 0.097057 146 151 171
-0.062500 0.203125 0.097869 171 170 184
-0.058594 0.203125 0.098479 120 116 121
-0.054688 0.203125 0.098777 89 81 77
-0.050781 0.203125 0.098953 118 106 96
-0.046875 0.203125 0.099163 144 132 120
-0.042969 0.203125 0.099389 157 144 136
-0.039062 0.203125 0.099492 96 86 85
-0.035156 0.203125 0.099569 207 201 211
-0.031250 0.203125 0.099729 153 150 169
-0.027344 0.203125 0.099972 179 179 203
-0.023438 0.203125 0.100245 175 175 199
-0.019531 0.203125 0.100531 135 136 156
-0.015625 0.203125 0.101165 196 195 209
-0.011719 0.203125 0.102578 162 159 166
-0.007812 0.203125 0.105011 135 133 136
-0.003906 0.203125 0.107974 98 97 102
0.000000 0.203125 0.111010 114 115 120
0.003906 0.203125 0.113596 182 182 190
0.007812 0.203125 0.115410 168 171 180
0.011719 0.203125 0.116836 178 182 194
0.015625 0.203125 0.117976 179 185 199
0.019531 0.203125 0.118811 171 177 195
0.023438 0.203125 0.119298 182 190 209
0.027344 0.203125 0.119475 177 184 205
0.031250 0.203125 0.119492 173 181 203
0.035156 0.203125 0.119593 186 195 220
0.039062 0.203125 0.119797 168 174 200
0.042969 0.203125 0.119948 185 192 218
0.046875 0.203125 0.119935 138 144 170
0.050781 0.203125 0.119577 154 160 185
0.054688 0.203125 0.118856 181 187 213
0.058594 0.203125 0.117835 134 138 165
0.062500 0.203125 0.116525 165 171 197
0.066406 0.203125 0.115033 91 97 121
0.070312 0.203125 0.113371 92 100 123
0.074219 0.203125 0.111551 122 130 151
0.078125 0.203125 0.109353 92 100 121
0.082031 0.203125 0.106952 149 157 176
0.085938 0.203125 0.104205 160 168 186
0.089844 0.203125 0.101088 156 165 181
0.093750 0.203125 0.097596 158 165 181
0.097656 0.203125 0.092135 146 152 168
0.101562 0.203125 0.086143 134 137 152
0.105469 0.203125 0.081453 114 116 131
0.109375 0.203125 0.077269 163 162 176
0.113281 0.203125 0.073951 167 166 180
0.117188 0.203125 0.071628 180 181 199
0.121094 0.203125 0.069496 179 185 207
0.125000 0.203125 0.067435 183 189 211
0.128906 0.203125 0.065102 174 175 193
0.132812 0.203125 0.062217 140 138 151
0.136719 0.203125 0.059396 135 127 138
0.140625 0.203125 0.056595 124 116 124
0.144531 0.203125 0.053554 104 95 103
0.148438 0.203125 0.049843 119 109 120
0.152344 0.203125 0.045956 149 140 153
0.156250 0.203125 0.042243 161 157 173
0.160156 0.203125 0.038854 159 156 174
0.164062 0.203125 0.034228 171 167 185
0.167969 0.203125 0.028181 165 154 173
0.171875 0.203125 0.015943 131 104 119
-0.191406 0.199219 -0.014916 81 78 85
-0.187500 0.199219 -0.001398 93 92 94
-0.183594 0.199219 0.008406 99 99 99
-0.179688 0.199219 0.015437 114 114 114
-0.175781 0.199219 0.021829 126 126 126
-0.171875 0.199219 0.028034 120 120 120
-0.167969 0.199219 0.034010 106 106 106
-0.164062 0.199219 0.039747 96 96 96
-0.160156 0.199219 0.045465 91 92 92
-0.156250 0.199219 0.051920 93 93 93
-0.152344 0.199219 0.059929 96 96 96
-0.148438 0.199219 0.066508 100 100 100
-0.144531 0.199219 0.071340 103 104 104
-0.140625 0.199219 0.075070 106 107 106
-0.136719 0.199219 0.077948 110 112 110
-0.132812 0.199219 0.079997 117 120 117
-0.128906 0.199219 0.082004 125 128 125
-0.125000 0.199219 0.083984 136 140 135
-0.121094 0.199219 0.085705 141 145 142
-0.117188 0.199219 0.087368 144 149 145
-0.113281 0.199219 0.088912 141 146 144
-0.109375 0.199219 0.090269 149 157 153
-0.105469 0.199219 0.091218 179 187 182
-0.101562 0.199219 0.091715 184 193 201
-0.097656 0.199219 0.091961 177 185 202
-0.093750 0.199219 0.092091 182 191 209
-0.089844 0.199219 0.092393 175 186 207
-0.085938 0.199219 0.092985 169 181 205
-0.082031 0.199219 0.093762 150 161 189
-0.078125 0.199219 0.094559 173 184 214
-0.074219 0.199219 0.095363 161 175 204
-0.070312 0.199219 0.096262 178 187 216
-0.066406 0.199219 0.097149 159 164 186
-0.062500 0.199219 0.097971 169 168 182
-0.058594 0.199219 0.098647 164 159 165
-0.054688 0.199219 0.099111 99 91 87
-0.050781 0.199219 0.099509 144 134 124
-0.046875 0.199219 0.099955 134 122 110
-0.042969 0.199219 0.100396 165 155 146
-0.039062 0.199219 0.100616 120 111 112
-0.035156 0.199219 0.100714 194 190 204
-0.031250 0.199219 0.100745 158 156 178
-0.027344 0.199219 0.100788 181 182 210
-0.023438 0.199219 0.100903 186 190 217
-0.019531 0.199219 0.101046 134 136 159
-0.015625 0.199219 0.101684 182 184 199
-0.011719 0.199219 0.103248 198 197 203
-0.007812 0.199219 0.106021 96 95 100
-0.003906 0.199219 0.109278 122 123 128
0.000000 0.199219 0.112301 136 139 146
0.003906 0.199219 0.114713 199 202 211
0.007812 0.199219 0.116330 160 164 175
0.011719 0.199219 0.117609 157 165 178
0.015625 0.199219 0.118633 168 177 192
0.019531 0.199219 0.119334 162 170 188
0.023438 0.199219 0.119717 177 187 207
0.027344 0.199219 0.119825 165 176 197
0.031250 0.199219 0.119784 170 180 204
0.035156 0.199219 0.119828 182 188 214
0.039062 0.199219 0.119996 153 160 185
0.042969 0.199219 0.120110 185 191 215
0.046875 0.199219 0.120086 162 166 191
0.050781 0.199219 0.119735 173 177 201
0.054688 0.199219 0.119001 174 178 203
0.058594 0.199219 0.117968 147 148 175
0.062500 0.199219 0.116651 166 170 196
0.066406 0.199219 0.115151 137 143 167
0.070312 0.199219 0.113458 118 126 149
0.074219 0.199219 0.111558 162 170 191
0.078125 0.199219 0.109284 121 132 152
0.082031 0.199219 0.106779 159 170 187
0.085938 0.199219 0.103933 172 183 200
0.089844 0.199219 0.100731 168 180 196
0.093750 0.199219 0.097237 162 171 185
0.097656 0.199219 0.092076 134 142 155
0.101562 0.199219 0.086389 133 139 151
0.105469 0.199219 0.081685 109 113 125
0.109375 0.199219 0.077446 177 179 191
0.113281 0.199219 0.074060 174 174 186
0.117188 0.199219 0.071633 176 178 193
0.121094 0.199219 0.069399 168 174 196
0.125000 0.199219 0.067260 184 192 213
0.128906 0.199219 0.064880 187 190 208
0.132812 0.199219 0.061998 172 171 185
0.136719 0.199219 0.059207 177 171 183
0.140625 0.199219 0.056425 182 173 184
0.144531 0.199219 0.053485 142 132 142
0.148438 0.199219 0.049949 126 117 130
0.152344 0.199219 0.046276 163 157 172
0.156250 0.199219 0.042769 164 163 179
0.160156 0.199219 0.039496 152 154 172
0.164062 0.199219 0.035130 165 169 186
0.167969 0.199219 0.028907 170 167 185
0.171875 0.199219 0.017923 130 102 119
0.175781 0.199219 -0.010125 59 30 39
-0.191406 0.195312 -0.009756 126 124 128
-0.187500 0.195312 0.000953 117 117 117
-0.183594 0.195312 0.009181 129 129 129
-0.179688 0.195312 0.015877 144 144 144
-0.175781 0.195312 0.022150 147 147 147
-0.171875 0.195312 0.028441 133 133 133
-0.167969 0.195312 0.034864 112 113 112
-0.164062 0.195312 0.040986 99 99 99
-0.160156 0.195312 0.047237 94 94 94
-0.156250 0.195312 0.055406 94 95 94
-0.152344 0.195312 0.063275 97 98 97
-0.148438 0.195312 0.068713 101 102 102
-0.144531 0.195312 0.072674 106 107 106
-0.140625 0.195312 0.075767 109 110 109
-0.136719 0.195312 0.078516 114 116 115
-0.132812 0.195312 0.080699 122 125 122
-0.128906 0.195312 0.082799 130 133 129
-0.125000 0.195312 0.084757 140 144 139
-0.121094 0.195312 0.086422 144 149 145
-0.117188 0.195312 0.087918 141 146 144
-0.113281 0.195312 0.089212 144 151 149
-0.109375 0.195312 0.090320 168 175 172
-0.105469 0.195312 0.091116 198 207 212
-0.101562 0.195312 0.091610 182 191 202
-0.097656 0.195312 0.091926 193 203 219
-0.093750 0.195312 0.092139 181 193 212
-0.089844 0.195312 0.092495 159 171 195
-0.085938 0.195312 0.093113 120 132 158
-0.082031 0.195312 0.093904 162 173 201
-0.078125 0.195312 0.094702 152 163 193
-0.074219 0.195312 0.095493 139 152 184
-0.070312 0.195312 0.096379 177 186 215
-0.066406 0.195312 0.097266 164 169 191
-0.062500 0.195312 0.098099 137 136 150
-0.058594 0.195312 0.098855 174 169 175
-0.054688 0.195312 0.099489 100 93 86
-0.050781 0.195312 0.100139 158 148 136
-0.046875 0.195312 0.100868 112 102 87
-0.042969 0.195312 0.101543 152 143 134
-0.039062 0.195312 0.101834 150 144 146
-0.035156 0.195312 0.101837 167 165 179
-0.031250 0.195312 0.101663 160 160 184
-0.027344 0.195312 0.101499 156 159 190
-0.023438 0.195312 0.101559 161 166 196
-0.019531 0.195312 0.101796 145 149 174
-0.015625 0.195312 0.102685 142 145 162
-0.011719 0.195312 0.104581 161 161 169
-0.007812 0.195312 0.107592 93 94 98
-0.003906 0.195312 0.110866 134 137 142
0.000000 0.195312 0.113736 132 136 145
0.003906 0.195312 0.115919 175 178 189
0.007812 0.195312 0.117296 155 160 172
0.011719 0.195312 0.118359 153 162 176
0.015625 0.195312 0.119227 161 172 188
0.019531 0.195312 0.119808 149 160 179
0.023438 0.195312 0.120104 171 181 203
0.027344 0.195312 0.120152 162 172 197
0.031250 0.195312 0.120044 142 152 177
0.035156 0.195312 0.120019 162 168 194
0.039062 0.195312 0.120151 174 180 206
0.042969 0.195312 0.120228 183 187 212
0.046875 0.195312 0.120182 130 132 155
0.050781 0.195312 0.119825 140 142 164
0.054688 0.195312 0.119063 174 176 199
0.058594 0.195312 0.118009 167 169 193
0.062500 0.195312 0.116669 187 188 216
0.066406 0.195312 0.115137 168 172 196
0.070312 0.195312 0.113402 167 173 196
0.074219 0.195312 0.111413 170 178 199
0.078125 0.195312 0.109071 157 168 188
0.082031 0.195312 0.106493 152 165 181
0.085938 0.195312 0.103602 175 187 203
0.089844 0.195312 0.100380 180 192 207
0.093750 0.195312 0.096904 165 177 188
0.097656 0.195312 0.092032 131 140 150
0.101562 0.195312 0.086667 145 154 163
0.105469 0.195312 0.081957 110 117 127
0.109375 0.195312 0.077683 189 193 202
0.113281 0.195312 0.074249 176 179 188
0.117188 0.195312 0.071734 175 179 191
0.121094 0.195312 0.069438 178 186 207
0.125000 0.195312 0.067239 173 181 204
0.128906 0.195312 0.064833 179 182 201
0.132812 0.195312 0.061974 183 182 198
0.136719 0.195312 0.059175 198 192 203
0.140625 0.195312 0.056401 203 195 206
0.144531 0.195312 0.053465 177 170 181
0.148438 0.195312 0.050021 175 167 180
0.152344 0.195312 0.046450 192 188 203
0.156250 0.195312 0.043083 174 175 194
0.160156 0.195312 0.039945 142 146 165
0.164062 0.195312 0.035863 155 160 178
0.167969 0.195312 0.029924 171 172 190
0.171875 0.195312 0.019794 142 123 139
0.175781 0.195312 -0.001281 81 37 52
-0.195312 0.191406 -0.021508 135 133 135
-0.191406 0.191406 -0.006951 152 150 152
-0.187500 0.191406 0.002341 142 142 142
-0.183594 0.191406 0.009470 157 157 157
-0.179688 0.191406 0.016196 167 167 167
-0.175781 0.191406 0.022532 162 162 162
-0.171875 0.191406 0.028985 142 143 142
-0.167969 0.191406 0.035628 119 119 119
-0.164062 0.191406 0.041977 103 103 103
-0.160156 0.191406 0.049331 97 98 97
-0.156250 0.191406 0.058303 97 98 97
-0.152344 0.191406 0.065155 100 100 100
-0.148438 0.191406 0.069753 103 104 103
-0.144531 0.191406 0.073199 108 109 108
-0.140625 0.191406 0.076087 112 113 112
-0.136719 0.191406 0.078836 118 120 119
-0.132812 0.191406 0.081181 127 130 127
-0.128906 0.191406 0.083300 136 139 134
-0.125000 0.191406 0.085260 143 147 142
-0.121094 0.191406 0.086833 146 150 146
-0.117188 0.191406 0.088108 141 147 143
-0.113281 0.191406 0.089180 154 161 157
-0.109375 0.191406 0.090062 186 193 194
-0.105469 0.191406 0.090733 191 198 208
-0.101562 0.191406 0.091302 184 192 206
-0.097656 0.191406 0.091803 182 190 209
-0.093750 0.191406 0.092213 191 202 221
-0.089844 0.191406 0.092713 140 152 176
-0.085938 0.191406 0.093376 116 128 154
-0.082031 0.191406 0.094136 177 191 218
-0.078125 0.191406 0.094900 147 161 190
-0.074219 0.191406 0.095682 135 148 180
-0.070312 0.191406 0.096565 164 173 202
-0.066406 0.191406 0.097438 162 164 189
-0.062500 0.191406 0.098312 115 112 128
-0.058594 0.191406 0.099163 165 160 164
-0.054688 0.191406 0.099999 81 74 68
-0.050781 0.191406 0.100952 144 136 123
-0.046875 0.191406 0.102010 121 112 97
-0.042969 0.191406 0.102933 152 143 134
-0.039062 0.191406 0.103194 173 167 169
-0.035156 0.191406 0.102917 170 169 185
-0.031250 0.191406 0.102372 168 170 195
-0.027344 0.191406 0.101930 182 187 219
-0.023438 0.191406 0.102050 156 161 193
-0.019531 0.191406 0.102590 157 163 189
-0.015625 0.191406 0.103973 130 136 152
-0.011719 0.191406 0.106333 111 114 121
-0.007812 0.191406 0.109437 108 112 115
-0.003906 0.191406 0.112541 136 139 146
0.000000 0.191406 0.115182 145 149 158
0.003906 0.191406 0.117120 164 170 180
0.007812 0.191406 0.118274 150 157 170
0.011719 0.191406 0.119108 138 146 163
0.015625 0.191406 0.119777 160 170 188
0.019531 0.191406 0.120199 157 167 187
0.023438 0.191406 0.120408 176 187 209
0.027344 0.191406 0.120425 147 159 183
0.031250 0.191406 0.120275 116 126 153
0.035156 0.191406 0.120205 151 158 184
0.039062 0.191406 0.120319 200 206 232
0.042969 0.191406 0.120359 180 184 209
0.046875 0.191406 0.120262 110 112 135
0.050781 0.191406 0.119867 121 121 144
0.054688 0.191406 0.119055 178 178 202
0.058594 0.191406 0.117959 163 163 188
0.062500 0.191406 0.116571 182 184 209
0.066406 0.191406 0.114974 153 157 181
0.070312 0.191406 0.113175 181 187 210
0.074219 0.191406 0.111095 161 168 189
0.078125 0.191406 0.108657 174 184 203
0.082031 0.191406 0.106037 164 176 193
0.085938 0.191406 0.103143 185 197 212
0.089844 0.191406 0.099940 177 189 205
0.093750 0.191406 0.096536 164 176 188
0.097656 0.191406 0.092004 132 145 154
0.101562 0.191406 0.086979 159 169 178
0.105469 0.191406 0.082312 108 115 123
0.109375 0.191406 0.078000 186 191 197
0.113281 0.191406 0.074513 170 175 181
0.117188 0.191406 0.071929 174 181 190
0.121094 0.191406 0.069609 180 188 207
0.125000 0.191406 0.067373 165 173 196
0.128906 0.191406 0.064949 178 181 200
0.132812 0.191406 0.062098 176 175 191
0.136719 0.191406 0.059274 188 182 196
0.140625 0.191406 0.056508 190 182 194
0.144531 0.191406 0.053576 189 182 195
0.148438 0.191406 0.050186 205 199 213
0.152344 0.191406 0.046739 198 196 214
0.156250 0.191406 0.043489 184 187 205
0.160156 0.191406 0.040365 154 160 179
0.164062 0.191406 0.036321 162 169 188
0.167969 0.191406 0.030466 173 177 194
0.171875 0.191406 0.020573 147 140 153
0.175781 0.191406 0.004201 108 60 76
-0.195312 0.187500 -0.019263 101 98 102
-0.191406 0.187500 -0.005267 137 137 137
-0.187500 0.187500 0.003060 146 146 146
-0.183594 0.187500 0.009612 168 169 168
-0.179688 0.187500 0.016511 177 177 177
-0.175781 0.187500 0.022955 168 169 168
-0.171875 0.187500 0.029584 148 148 148
-0.167969 0.187500 0.036422 123 124 123
-0.164062 0.187500 0.043021 108 108 108
-0.160156 0.187500 0.051520 102 102 102
-0.156250 0.187500 0.060195 102 102 102
-0.152344 0.187500 0.066335 103 104 103
-0.148438 0.187500 0.070224 106 107 106
-0.144531 0.187500 0.073407 111 112 111
-0.140625 0.187500 0.076232 115 117 116
-0.136719 0.187500 0.078988 122 124 123
-0.132812 0.187500 0.081448 130 132 129
-0.128906 0.187500 0.083574 136 140 135
-0.125000 0.187500 0.085541 139 143 138
-0.121094 0.187500 0.086993 145 149 146
-0.117188 0.187500 0.088079 144 150 148
-0.113281 0.187500 0.088969 168 175 172
-0.109375 0.187500 0.089688 198 207 211
-0.105469 0.187500 0.090307 176 185 196
-0.101562 0.187500 0.090984 187 197 213
-0.097656 0.187500 0.091708 171 183 202
-0.093750 0.187500 0.092354 172 184 205
-0.089844 0.187500 0.093002 129 141 167
-0.085938 0.187500 0.093695 173 184 212
-0.082031 0.187500 0.094389 162 176 203
-0.078125 0.187500 0.095089 158 172 201
-0.074219 0.187500 0.095833 171 185 214
-0.070312 0.187500 0.096700 136 146 173
-0.066406 0.187500 0.097605 159 164 186
-0.062500 0.187500 0.098540 131 129 145
-0.058594 0.187500 0.099513 185 184 190
-0.054688 0.187500 0.100604 73 69 66
-0.050781 0.187500 0.101903 120 115 106
-0.046875 0.187500 0.103270 135 131 120
-0.042969 0.187500 0.104340 163 158 152
-0.039062 0.187500 0.104506 194 190 191
-0.035156 0.187500 0.103901 137 137 149
-0.031250 0.187500 0.102934 161 164 183
-0.027344 0.187500 0.102244 193 195 220
-0.023438 0.187500 0.102574 180 184 209
-0.019531 0.187500 0.103646 187 190 209
-0.015625 0.187500 0.105625 156 158 171
-0.011719 0.187500 0.108360 163 164 169
-0.007812 0.187500 0.111426 158 159 163
-0.003906 0.187500 0.114270 154 159 165
0.000000 0.187500 0.116628 184 191 199
0.003906 0.187500 0.118296 178 185 195
0.007812 0.187500 0.119225 136 143 156
0.011719 0.187500 0.119851 101 110 125
0.015625 0.187500 0.120331 152 160 178
0.019531 0.187500 0.120593 173 183 203
0.023438 0.187500 0.120697 192 203 225
0.027344 0.187500 0.120657 122 132 156
0.031250 0.187500 0.120471 120 126 152
0.035156 0.187500 0.120372 153 159 185
0.039062 0.187500 0.120457 192 195 220
0.042969 0.187500 0.120433 179 181 203
0.046875 0.187500 0.120277 162 162 183
0.050781 0.187500 0.119833 164 162 183
0.054688 0.187500 0.118952 168 166 188
0.058594 0.187500 0.117796 173 173 196
0.062500 0.187500 0.116367 186 186 211
0.066406 0.187500 0.114725 146 148 172
0.070312 0.187500 0.112886 175 179 202
0.074219 0.187500 0.110760 153 159 180
0.078125 0.187500 0.108253 161 169 189
0.082031 0.187500 0.105605 168 178 195
0.085938 0.187500 0.102741 174 185 202
0.089844 0.187500 0.099593 170 181 196
0.093750 0.187500 0.096282 161 172 186
0.097656 0.187500 0.092054 136 146 156
0.101562 0.187500 0.087288 168 177 186
0.105469 0.187500 0.082719 102 109 117
0.109375 0.187500 0.078394 177 182 188
0.113281 0.187500 0.074870 163 166 171
0.117188 0.187500 0.072241 175 181 189
0.121094 0.187500 0.069904 163 175 191
0.125000 0.187500 0.067632 166 179 198
0.128906 0.187500 0.065185 198 205 223
0.132812 0.187500 0.062338 184 187 203
0.136719 0.187500 0.059506 187 184 201
0.140625 0.187500 0.056750 179 175 191
0.144531 0.187500 0.053833 184 178 197
0.148438 0.187500 0.050458 193 190 210
0.152344 0.187500 0.047072 181 181 201
0.156250 0.187500 0.043877 189 190 213
0.160156 0.187500 0.040688 178 182 204
0.164062 0.187500 0.036504 184 190 209
0.167969 0.187500 0.030616 177 181 196
0.171875 0.187500 0.021139 144 142 154
0.175781 0.187500 0.007776 126 88 101
-0.195312 0.183594 -0.016286 111 108 111
-0.191406 0.183594 -0.004331 141 140 140
-0.187500 0.183594 0.003074 156 156 156
-0.183594 0.183594 0.009589 178 179 178
-0.179688 0.183594 0.016695 183 183 183
-0.175781 0.183594 0.023385 171 171 171
-0.171875 0.183594 0.030244 150 150 150
-0.167969 0.183594 0.037221 127 127 127
-0.164062 0.183594 0.044226 113 113 113
-0.160156 0.183594 0.053335 107 107 107
-0.156250 0.183594 0.061343 107 107 107
-0.152344 0.183594 0.066929 108 108 108
-0.148438 0.183594 0.070424 110 111 110
-0.144531 0.183594 0.073482 115 115 115
-0.140625 0.183594 0.076298 120 121 120
-0.136719 0.183594 0.079080 125 128 126
-0.132812 0.183594 0.081552 131 134 131
-0.128906 0.183594 0.083637 131 135 130
-0.125000 0.183594 0.085538 137 142 138
-0.121094 0.183594 0.086911 137 144 140
-0.117188 0.183594 0.087857 152 160 157
-0.113281 0.183594 0.088604 185 195 194
-0.109375 0.183594 0.089236 186 197 205
-0.105469 0.183594 0.089888 169 182 197
-0.101562 0.183594 0.090721 165 179 197
-0.097656 0.183594 0.091694 175 187 208
-0.093750 0.183594 0.092583 163 177 203
-0.089844 0.183594 0.093386 179 193 219
-0.085938 0.183594 0.094075 162 176 203
-0.082031 0.183594 0.094654 176 187 215
-0.078125 0.183594 0.095255 171 183 209
-0.074219 0.183594 0.095945 160 172 198
-0.070312 0.183594 0.096826 152 163 185
-0.066406 0.183594 0.097811 169 176 194
-0.062500 0.183594 0.098847 107 112 126
-0.058594 0.183594 0.099967 179 183 194
-0.054688 0.183594 0.101300 162 165 172
-0.050781 0.183594 0.102898 115 116 120
-0.046875 0.183594 0.104465 177 178 180
-0.042969 0.183594 0.105552 151 151 153
-0.039062 0.183594 0.105582 170 170 172
-0.035156 0.183594 0.104623 124 123 128
-0.031250 0.183594 0.103208 118 117 123
-0.027344 0.183594 0.102269 178 177 185
-0.023438 0.183594 0.103005 138 137 145
-0.019531 0.183594 0.104899 160 157 164
-0.015625 0.183594 0.107579 128 126 131
-0.011719 0.183594 0.110615 159 155 156
-0.007812 0.183594 0.113485 154 154 156
-0.003906 0.183594 0.115964 143 146 151
0.000000 0.183594 0.118006 160 166 174
0.003906 0.183594 0.119388 176 183 193
0.007812 0.183594 0.120086 152 157 169
0.011719 0.183594 0.120501 158 163 177
0.015625 0.183594 0.120791 144 150 166
0.019531 0.183594 0.120920 154 159 177
0.023438 0.183594 0.120936 163 168 188
0.027344 0.183594 0.120838 122 126 148
0.031250 0.183594 0.120625 120 122 147
0.035156 0.183594 0.120500 156 158 183
0.039062 0.183594 0.120545 205 207 229
0.042969 0.183594 0.120458 166 166 189
0.046875 0.183594 0.120245 185 186 206
0.050781 0.183594 0.119746 183 180 202
0.054688 0.183594 0.118804 115 113 134
0.058594 0.183594 0.117615 161 162 182
0.062500 0.183594 0.116181 154 154 177
0.066406 0.183594 0.114524 149 151 173
0.070312 0.183594 0.112639 156 160 181
0.074219 0.183594 0.110469 164 169 190
0.078125 0.183594 0.107927 173 179 200
0.082031 0.183594 0.105252 148 155 175
0.085938 0.183594 0.102454 175 183 201
0.089844 0.183594 0.099384 180 188 204
0.093750 0.183594 0.096197 139 145 161
0.097656 0.183594 0.092255 77 82 96
0.101562 0.183594 0.087683 125 129 141
0.105469 0.183594 0.083195 119 122 131
0.109375 0.183594 0.078845 178 181 188
0.113281 0.183594 0.075277 162 163 168
0.117188 0.183594 0.072632 165 170 176
0.121094 0.183594 0.070267 153 167 176
0.125000 0.183594 0.067959 169 186 198
0.128906 0.183594 0.065486 193 206 222
0.132812 0.183594 0.062654 174 181 200
0.136719 0.183594 0.059833 180 186 209
0.140625 0.183594 0.057072 166 167 194
0.144531 0.183594 0.054165 162 163 192
0.148438 0.183594 0.050760 185 184 214
0.152344 0.183594 0.047376 192 191 221
0.156250 0.183594 0.044215 204 204 232
0.160156 0.183594 0.040935 200 200 225
0.164062 0.183594 0.036673 176 176 196
0.167969 0.183594 0.030804 178 180 195
0.171875 0.183594 0.021840 136 136 144
0.175781 0.183594 0.010542 116 99 105
0.179688 0.183594 -0.010723 69 40 48
-0.199219 0.179688 -0.022775 106 97 102
-0.195312 0.179688 -0.014059 143 141 142
-0.191406 0.179688 -0.003724 147 147 147
-0.187500 0.179688 0.003095 162 162 162
-0.183594 0.179688 0.009566 180 180 180
-0.179688 0.179688 0.016834 182 182 182
-0.175781 0.179688 0.023887 168 168 168
-0.171875 0.179688 0.030996 148 149 148
-0.167969 0.179688 0.038050 128 128 128
-0.164062 0.179688 0.045630 116 116 116
-0.160156 0.179688 0.054560 112 112 112
-0.156250 0.179688 0.061875 111 111 111
-0.152344 0.179688 0.067056 112 113 112
-0.148438 0.179688 0.070365 114 115 114
-0.144531 0.179688 0.073376 119 120 119
-0.140625 0.179688 0.076262 125 126 125
-0.136719 0.179688 0.079065 130 132 131
-0.132812 0.179688 0.081523 133 137 134
-0.128906 0.179688 0.083561 133 138 133
-0.125000 0.179688 0.085376 135 141 137
-0.121094 0.179688 0.086697 142 148 145
-0.117188 0.179688 0.087584 162 171 170
-0.113281 0.179688 0.088286 200 210 215
-0.109375 0.179688 0.088895 174 187 197
-0.105469 0.179688 0.089602 176 188 205
-0.101562 0.179688 0.090579 177 190 211
-0.097656 0.179688 0.091720 170 185 208
-0.093750 0.179688 0.092794 159 173 199
-0.089844 0.179688 0.093700 178 192 218
-0.085938 0.179688 0.094361 167 181 208
-0.082031 0.179688 0.094845 180 192 218
-0.078125 0.179688 0.095364 172 184 210
-0.074219 0.179688 0.096027 168 178 205
-0.070312 0.179688 0.096941 168 179 201
-0.066406 0.179688 0.098038 162 174 190
-0.062500 0.179688 0.099242 113 122 134
-0.058594 0.179688 0.100559 143 153 165
-0.054688 0.179688 0.102072 197 205 216
-0.050781 0.179688 0.103789 159 166 176
-0.046875 0.179688 0.105468 166 170 179
-0.042969 0.179688 0.106590 142 145 150
-0.039062 0.179688 0.106533 161 162 166
-0.035156 0.179688 0.105341 152 152 154
-0.031250 0.179688 0.103661 125 123 124
-0.027344 0.179688 0.102657 116 114 115
-0.023438 0.179688 0.103869 106 102 103
-0.019531 0.179688 0.106546 138 134 135
-0.015625 0.179688 0.109773 139 135 134
-0.011719 0.179688 0.112879 152 146 148
-0.007812 0.179688 0.115445 152 150 153
-0.003906 0.179688 0.117538 53 56 61
0.000000 0.179688 0.119253 164 171 177
0.003906 0.179688 0.120370 179 186 194
0.007812 0.179688 0.120872 163 169 179
0.011719 0.179688 0.121116 179 182 194
0.015625 0.179688 0.121245 101 104 119
0.019531 0.179688 0.121243 170 173 190
0.023438 0.179688 0.121167 146 148 167
0.027344 0.179688 0.121008 127 128 149
0.031250 0.179688 0.120758 164 165 186
0.035156 0.179688 0.120592 159 159 180
0.039062 0.179688 0.120600 176 176 197
0.042969 0.179688 0.120455 168 166 187
0.046875 0.179688 0.120173 177 174 195
0.050781 0.179688 0.119623 158 157 174
0.054688 0.179688 0.118656 106 105 123
0.058594 0.179688 0.117473 178 176 197
0.062500 0.179688 0.116068 156 157 177
0.066406 0.179688 0.114399 179 180 200
0.070312 0.179688 0.112437 155 157 179
0.074219 0.179688 0.110194 156 161 182
0.078125 0.179688 0.107632 166 171 192
0.082031 0.179688 0.104976 150 155 176
0.085938 0.179688 0.102247 183 190 208
0.089844 0.179688 0.099286 172 179 197
0.093750 0.179688 0.096227 152 159 176
0.097656 0.179688 0.092492 119 125 141
0.101562 0.179688 0.088083 157 160 175
0.105469 0.179688 0.083651 146 148 160
0.109375 0.179688 0.079310 190 190 200
0.113281 0.179688 0.075704 180 180 188
0.117188 0.179688 0.073043 183 188 194
0.121094 0.179688 0.070636 161 176 183
0.125000 0.179688 0.068296 169 187 196
0.128906 0.179688 0.065811 186 201 216
0.132812 0.179688 0.062995 172 184 203
0.136719 0.179688 0.060180 178 184 209
0.140625 0.179688 0.057411 175 180 208
0.144531 0.179688 0.054493 167 170 199
0.148438 0.179688 0.051047 177 178 208
0.152344 0.179688 0.047617 179 178 210
0.156250 0.179688 0.044465 190 189 220
0.160156 0.179688 0.041108 194 192 216
0.164062 0.179688 0.036753 181 178 199
0.167969 0.179688 0.030863 189 191 203
0.171875 0.179688 0.022213 148 149 156
0.175781 0.179688 0.011696 131 126 130
0.179688 0.179688 -0.005808 120 98 105
-0.199219 0.175781 -0.025044 171 168 170
-0.195312 0.175781 -0.012125 155 155 155
-0.191406 0.175781 -0.003234 153 153 153
-0.187500 0.175781 0.003177 166 166 166
-0.183594 0.175781 0.009725 179 179 179
-0.179688 0.175781 0.017181 177 177 177
-0.175781 0.175781 0.024517 163 163 163
-0.171875 0.175781 0.031880 145 145 145
-0.167969 0.175781 0.039128 128 128 128
-0.164062 0.175781 0.047208 118 119 118
-0.160156 0.175781 0.055347 116 116 116
-0.156250 0.175781 0.061992 116 116 116
-0.152344 0.175781 0.066826 117 117 117
-0.148438 0.175781 0.070089 119 119 119
-0.144531 0.175781 0.073121 123 124 123
-0.140625 0.175781 0.076063 129 130 129
-0.136719 0.175781 0.078868 133 135 134
-0.132812 0.175781 0.081308 134 138 134
-0.128906 0.175781 0.083318 133 138 132
-0.125000 0.175781 0.085081 132 137 133
-0.121094 0.175781 0.086407 142 149 145
-0.117188 0.175781 0.087324 180 187 185
-0.113281 0.175781 0.088063 190 200 207
-0.109375 0.175781 0.088713 168 180 191
-0.105469 0.175781 0.089492 180 191 209
-0.101562 0.175781 0.090559 188 201 222
-0.097656 0.175781 0.091803 159 173 199
-0.093750 0.175781 0.092980 153 167 194
-0.089844 0.175781 0.093910 177 191 217
-0.085938 0.175781 0.094519 166 180 207
-0.082031 0.175781 0.094946 173 187 214
-0.078125 0.175781 0.095413 162 176 202
-0.074219 0.175781 0.096067 162 174 200
-0.070312 0.175781 0.097036 168 180 202
-0.066406 0.175781 0.098248 159 172 189
-0.062500 0.175781 0.099623 174 186 200
-0.058594 0.175781 0.101125 140 152 166
-0.054688 0.175781 0.102750 182 192 204
-0.050781 0.175781 0.104466 161 169 180
-0.046875 0.175781 0.106165 166 173 183
-0.042969 0.175781 0.107324 155 159 168
-0.039062 0.175781 0.107256 112 114 121
-0.035156 0.175781 0.105954 174 175 180
-0.031250 0.175781 0.104284 153 152 157
-0.027344 0.175781 0.103497 87 86 91
-0.023438 0.175781 0.105336 88 86 89
-0.019531 0.175781 0.108785 100 98 101
-0.015625 0.175781 0.112281 118 116 117
-0.011719 0.175781 0.115184 137 132 136
-0.007812 0.175781 0.117334 180 180 182
-0.003906 0.175781 0.119022 60 65 69
0.000000 0.175781 0.120421 185 192 198
0.003906 0.175781 0.121246 178 185 193
0.007812 0.175781 0.121532 144 150 160
0.011719 0.175781 0.121621 199 202 214
0.015625 0.175781 0.121630 111 114 129
0.019531 0.175781 0.121529 193 194 212
0.023438 0.175781 0.121363 160 161 179
0.027344 0.175781 0.121132 132 130 151
0.031250 0.175781 0.120831 172 170 191
0.035156 0.175781 0.120616 156 154 174
0.039062 0.175781 0.120574 178 177 194
0.042969 0.175781 0.120352 174 171 188
0.046875 0.175781 0.119979 160 157 174
0.050781 0.175781 0.119389 150 148 162
0.054688 0.175781 0.118421 110 107 123
0.058594 0.175781 0.117247 179 178 195
0.062500 0.175781 0.115868 151 152 172
0.066406 0.175781 0.114188 198 199 218
0.070312 0.175781 0.112187 158 160 180
0.074219 0.175781 0.109961 152 156 176
0.078125 0.175781 0.107468 164 169 188
0.082031 0.175781 0.104896 154 161 178
0.085938 0.175781 0.102241 182 189 206
0.089844 0.175781 0.099373 184 190 208
0.093750 0.175781 0.096408 182 189 206
0.097656 0.175781 0.092777 175 181 196
0.101562 0.175781 0.088471 186 189 204
0.105469 0.175781 0.084088 163 167 179
0.109375 0.175781 0.079771 174 176 188
0.113281 0.175781 0.076160 166 169 178
0.117188 0.175781 0.073491 164 168 177
0.121094 0.175781 0.071052 173 186 195
0.125000 0.175781 0.068684 175 189 200
0.128906 0.175781 0.066174 185 196 212
0.132812 0.175781 0.063352 178 185 203
0.136719 0.175781 0.060519 178 184 205
0.140625 0.175781 0.057724 191 195 219
0.144531 0.175781 0.054763 175 176 203
0.148438 0.175781 0.051277 168 168 196
0.152344 0.175781 0.047792 171 171 199
0.156250 0.175781 0.044649 182 180 204
0.160156 0.175781 0.041234 186 184 206
0.164062 0.175781 0.036744 177 176 194
0.167969 0.175781 0.030849 193 195 208
0.171875 0.175781 0.022542 164 166 175
0.175781 0.175781 0.012356 150 148 156
0.179688 0.175781 -0.003884 145 134 143
-0.199219 0.171875 -0.022444 202 200 200
-0.195312 0.171875 -0.010794 173 172 173
-0.191406 0.171875 -0.002946 169 169 169
-0.187500 0.171875 0.003315 176 176 176
-0.183594 0.171875 0.009920 181 181 181
-0.179688 0.171875 0.017621 176 176 176
-0.175781 0.171875 0.025271 160 161 160
-0.171875 0.171875 0.032923 144 144 144
-0.167969 0.171875 0.040604 129 129 129
-0.164062 0.171875 0.048510 121 121 121
-0.160156 0.171875 0.055826 120 120 120
-0.156250 0.171875 0.061840 120 120 120
-0.152344 0.171875 0.066396 121 122 121
-0.148438 0.171875 0.069698 123 123 123
-0.144531 0.171875 0.072792 126 127 126
-0.140625 0.171875 0.075807 131 132 131
-0.136719 0.171875 0.078608 133 135 134
-0.132812 0.171875 0.081026 133 136 133
-0.128906 0.171875 0.083008 131 135 130
-0.125000 0.171875 0.084739 131 137 132
-0.121094 0.171875 0.086116 147 154 150
-0.117188 0.171875 0.087136 198 206 203
-0.113281 0.171875 0.087983 172 182 189
-0.109375 0.171875 0.088742 178 188 200
-0.105469 0.171875 0.089633 182 193 211
-0.101562 0.171875 0.090751 183 196 217
-0.097656 0.171875 0.092026 167 181 207
-0.093750 0.171875 0.093229 171 185 212
-0.089844 0.171875 0.094141 193 207 233
-0.085938 0.171875 0.094684 167 181 208
-0.082031 0.171875 0.095070 168 182 209
-0.078125 0.171875 0.095518 164 178 205
-0.074219 0.171875 0.096187 167 179 205
-0.070312 0.171875 0.097221 167 179 203
-0.066406 0.171875 0.098542 172 187 206
-0.062500 0.171875 0.100043 172 188 203
-0.058594 0.171875 0.101628 113 125 141
-0.054688 0.171875 0.103315 149 161 175
-0.050781 0.171875 0.105021 170 180 192
-0.046875 0.171875 0.106663 153 163 175
-0.042969 0.171875 0.107826 166 172 184
-0.039062 0.171875 0.107872 143 149 159
-0.035156 0.171875 0.106731 103 105 114
-0.031250 0.171875 0.105289 139 142 149
-0.027344 0.171875 0.104855 115 115 120
-0.023438 0.171875 0.107309 137 138 143
-0.019531 0.171875 0.111341 125 124 129
-0.015625 0.171875 0.114888 101 100 105
-0.011719 0.171875 0.117417 100 99 104
-0.007812 0.171875 0.119080 168 169 173
-0.003906 0.171875 0.120361 113 118 122
0.000000 0.171875 0.121432 169 176 182
0.003906 0.171875 0.121994 162 169 177
0.007812 0.171875 0.122084 103 110 118
0.011719 0.171875 0.122029 173 176 187
0.015625 0.171875 0.121949 126 130 142
0.019531 0.171875 0.121776 150 152 167
0.023438 0.171875 0.121531 168 169 184
0.027344 0.171875 0.121229 125 124 140
0.031250 0.171875 0.120877 166 163 180
0.035156 0.171875 0.120598 175 172 189
0.039062 0.171875 0.120480 192 188 202
0.042969 0.171875 0.120172 160 156 169
0.046875 0.171875 0.119720 152 149 160
0.050781 0.171875 0.119103 170 164 176
0.054688 0.171875 0.118143 96 92 106
0.058594 0.171875 0.116979 176 174 188
0.062500 0.171875 0.115622 150 149 165
0.066406 0.171875 0.113944 164 163 181
0.070312 0.171875 0.111934 144 145 164
0.074219 0.171875 0.109760 130 133 151
0.078125 0.171875 0.107364 154 159 178
0.082031 0.171875 0.104885 166 172 189
0.085938 0.171875 0.102305 180 186 204
0.089844 0.171875 0.099502 173 180 197
0.093750 0.171875 0.096596 178 185 203
0.097656 0.171875 0.093030 186 192 210
0.101562 0.171875 0.088811 182 188 204
0.105469 0.171875 0.084484 167 173 187
0.109375 0.171875 0.080206 171 175 187
0.113281 0.171875 0.076627 175 179 189
0.117188 0.171875 0.073962 165 172 182
0.121094 0.171875 0.071515 184 193 205
0.125000 0.171875 0.069119 183 192 207
0.128906 0.171875 0.066576 189 195 210
0.132812 0.171875 0.063740 181 187 204
0.136719 0.171875 0.060883 179 184 202
0.140625 0.171875 0.058054 199 201 221
0.144531 0.171875 0.055042 179 180 200
0.148438 0.171875 0.051518 167 165 186
0.152344 0.171875 0.047990 173 171 192
0.156250 0.171875 0.044845 185 184 202
0.160156 0.171875 0.041350 185 184 202
0.164062 0.171875 0.036750 164 163 179
0.167969 0.171875 0.030771 182 184 197
0.171875 0.171875 0.022444 174 176 187
0.175781 0.171875 0.012478 163 163 175
0.179688 0.171875 -0.003110 137 132 144
-0.199219 0.167969 -0.020471 204 203 203
-0.195312 0.167969 -0.009808 175 175 175
-0.191406 0.167969 -0.002695 174 174 174
-0.187500 0.167969 0.003569 179 179 179
-0.183594 0.167969 0.010261 180 181 180
-0.179688 0.167969 0.018197 173 173 173
-0.175781 0.167969 0.026122 158 158 158
-0.171875 0.167969 0.034191 143 143 143
-0.167969 0.167969 0.042246 129 129 129
-0.164062 0.167969 0.049530 123 123 123
-0.160156 0.167969 0.056036 122 122 122
-0.156250 0.167969 0.061490 123 123 123
-0.152344 0.167969 0.065851 125 125 125
-0.148438 0.167969 0.069236 125 126 125
-0.144531 0.167969 0.072431 128 128 128
-0.140625 0.167969 0.075503 131 132 131
-0.136719 0.167969 0.078263 131 133 132
-0.132812 0.167969 0.080684 130 133 130
-0.128906 0.167969 0.082699 131 135 130
-0.125000 0.167969 0.084437 139 145 141
-0.121094 0.167969 0.085868 170 177 173
-0.117188 0.167969 0.087032 199 205 206
-0.113281 0.167969 0.088056 176 184 193
-0.109375 0.167969 0.088983 180 190 201
-0.105469 0.167969 0.089982 191 202 220
-0.101562 0.167969 0.091113 167 179 202
-0.097656 0.167969 0.092352 170 184 210
-0.093750 0.167969 0.093525 176 192 218
-0.089844 0.167969 0.094397 186 201 230
-0.085938 0.167969 0.094887 137 152 181
-0.082031 0.167969 0.095264 136 152 178
-0.078125 0.167969 0.095724 150 166 192
-0.074219 0.167969 0.096416 161 175 201
-0.070312 0.167969 0.097493 157 172 195
-0.066406 0.167969 0.098892 159 176 196
-0.062500 0.167969 0.100478 156 173 191
-0.058594 0.167969 0.102113 113 128 147
-0.054688 0.167969 0.103814 94 109 125
-0.050781 0.167969 0.105457 137 150 166
-0.046875 0.167969 0.107003 134 146 162
-0.042969 0.167969 0.108146 141 149 164
-0.039062 0.167969 0.108391 128 137 149
-0.035156 0.167969 0.107640 82 87 99
-0.031250 0.167969 0.106695 119 125 135
-0.027344 0.167969 0.106870 118 121 130
-0.023438 0.167969 0.109837 145 149 158
-0.019531 0.167969 0.114164 159 162 169
-0.015625 0.167969 0.117486 120 120 128
-0.011719 0.167969 0.119530 99 100 105
-0.007812 0.167969 0.120754 157 160 165
-0.003906 0.167969 0.121650 141 148 154
0.000000 0.167969 0.122380 168 177 182
0.003906 0.167969 0.122681 171 178 184
0.007812 0.167969 0.122572 138 144 152
0.011719 0.167969 0.122400 165 169 180
0.015625 0.167969 0.122263 134 138 149
0.019531 0.167969 0.122041 115 117 130
0.023438 0.167969 0.121728 181 180 194
0.027344 0.167969 0.121345 121 118 132
0.031250 0.167969 0.120928 188 185 198
0.035156 0.167969 0.120564 200 195 209
0.039062 0.167969 0.120353 173 166 178
0.042969 0.167969 0.119968 139 133 143
0.046875 0.167969 0.119450 142 137 144
0.050781 0.167969 0.118812 161 154 162
0.054688 0.167969 0.117852 91 84 92
0.058594 0.167969 0.116691 182 178 192
0.062500 0.167969 0.115366 161 159 172
0.066406 0.167969 0.113731 104 101 118
0.070312 0.167969 0.111754 126 125 141
0.074219 0.167969 0.109647 106 109 125
0.078125 0.167969 0.107333 145 150 168
0.082031 0.167969 0.104916 173 179 197
0.085938 0.167969 0.102389 174 180 197
0.089844 0.167969 0.099637 172 179 197
0.093750 0.167969 0.096769 170 177 195
0.097656 0.167969 0.093246 174 181 200
0.101562 0.167969 0.089114 167 174 192
0.105469 0.167969 0.084875 166 173 189
0.109375 0.167969 0.080656 172 178 192
0.113281 0.167969 0.077123 182 188 202
0.117188 0.167969 0.074450 173 179 193
0.121094 0.167969 0.071989 187 193 208
0.125000 0.167969 0.069564 188 194 209
0.128906 0.167969 0.067005 194 197 213
0.132812 0.167969 0.064163 179 182 196
0.136719 0.167969 0.061291 183 185 200
0.140625 0.167969 0.058450 193 192 206
0.144531 0.167969 0.055395 176 174 188
0.148438 0.167969 0.051810 169 167 180
0.152344 0.167969 0.048206 176 174 187
0.156250 0.167969 0.045021 191 189 202
0.160156 0.167969 0.041442 192 190 203
0.164062 0.167969 0.036701 158 158 170
0.167969 0.167969 0.030614 171 173 186
0.171875 0.167969 0.022201 175 177 190
0.175781 0.167969 0.012327 164 166 181
0.179688 0.167969 -0.002860 122 120 134
-0.203125 0.164062 -0.019818 190 187 187
-0.199219 0.164062 -0.018839 181 181 181
-0.195312 0.164062 -0.009092 162 162 162
-0.191406 0.164062 -0.002456 171 171 171
-0.187500 0.164062 0.003872 180 180 180
-0.183594 0.164062 0.010742 180 180 180
-0.179688 0.164062 0.018888 172 172 172
-0.175781 0.164062 0.027231 157 157 157
-0.171875 0.164062 0.035774 142 142 142
-0.167969 0.164062 0.043762 129 129 129
-0.164062 0.164062 0.050361 124 124 124
-0.160156 0.164062 0.056140 124 124 124
-0.156250 0.164062 0.061116 125 125 125
-0.152344 0.164062 0.065312 127 127 127
-0.148438 0.164062 0.068794 127 127 127
-0.144531 0.164062 0.072095 128 128 128
-0.140625 0.164062 0.075199 129 130 129
-0.136719 0.164062 0.077918 126 128 127
-0.132812 0.164062 0.080363 124 126 125
-0.128906 0.164062 0.082416 129 132 129
-0.125000 0.164062 0.084188 148 153 149
-0.121094 0.164062 0.085709 191 198 196
-0.117188 0.164062 0.087030 180 186 188
-0.113281 0.164062 0.088234 197 205 214
-0.109375 0.164062 0.089332 174 184 198
-0.105469 0.164062 0.090422 198 209 229
-0.101562 0.164062 0.091580 154 169 192
-0.097656 0.164062 0.092793 172 186 212
-0.093750 0.164062 0.093934 169 185 211
-0.089844 0.164062 0.094797 166 181 210
-0.085938 0.164062 0.095276 111 126 155
-0.082031 0.164062 0.095661 114 130 156
-0.078125 0.164062 0.096122 139 155 181
-0.074219 0.164062 0.096811 160 174 200
-0.070312 0.164062 0.097888 157 173 198
-0.066406 0.164062 0.099305 148 166 188
-0.062500 0.164062 0.100944 170 188 208
-0.058594 0.164062 0.102617 160 178 198
-0.054688 0.164062 0.104339 93 109 129
-0.050781 0.164062 0.105977 118 135 153
-0.046875 0.164062 0.107516 145 160 179
-0.042969 0.164062 0.108737 120 132 149
-0.039062 0.164062 0.109186 102 114 130
-0.035156 0.164062 0.108793 123 131 148
-0.031250 0.164062 0.108358 96 105 117
-0.027344 0.164062 0.109144 69 76 87
-0.023438 0.164062 0.112401 79 86 96
-0.019531 0.164062 0.116679 135 139 150
-0.015625 0.164062 0.119707 120 123 132
-0.011719 0.164062 0.121373 79 82 91
-0.007812 0.164062 0.122263 117 120 127
-0.003906 0.164062 0.122874 139 145 151
0.000000 0.164062 0.123312 156 165 170
0.003906 0.164062 0.123368 125 131 137
0.007812 0.164062 0.123083 143 150 156
0.011719 0.164062 0.122805 142 146 155
0.015625 0.164062 0.122623 124 128 139
0.019531 0.164062 0.122367 116 116 128
0.023438 0.164062 0.121994 154 154 166
0.027344 0.164062 0.121530 138 135 148
0.031250 0.164062 0.121051 190 186 197
0.035156 0.164062 0.120607 179 173 183
0.039062 0.164062 0.120320 144 139 146
0.042969 0.164062 0.119886 150 143 150
0.046875 0.164062 0.119308 114 108 112
0.050781 0.164062 0.118636 115 106 111
0.054688 0.164062 0.117663 140 134 138
0.058594 0.164062 0.116491 182 176 186
0.062500 0.164062 0.115167 171 167 181
0.066406 0.164062 0.113551 86 84 97
0.070312 0.164062 0.111617 145 144 157
0.074219 0.164062 0.109574 133 135 149
0.078125 0.164062 0.107332 158 161 176
0.082031 0.164062 0.104952 171 175 192
0.085938 0.164062 0.102436 157 163 180
0.089844 0.164062 0.099705 176 183 200
0.093750 0.164062 0.096892 165 172 190
0.097656 0.164062 0.093455 159 167 185
0.101562 0.164062 0.089410 157 165 183
0.105469 0.164062 0.085268 160 169 186
0.109375 0.164062 0.081123 170 177 193
0.113281 0.164062 0.077620 180 186 202
0.117188 0.164062 0.074966 174 179 195
0.121094 0.164062 0.072502 186 188 207
0.125000 0.164062 0.070045 189 190 209
0.128906 0.164062 0.067465 196 195 211
0.132812 0.164062 0.064634 167 166 179
0.136719 0.164062 0.061781 188 186 198
0.140625 0.164062 0.058953 173 172 180
0.144531 0.164062 0.055866 161 158 165
0.148438 0.164062 0.052199 171 169 174
0.152344 0.164062 0.048483 177 175 180
0.156250 0.164062 0.045203 190 187 194
0.160156 0.164062 0.041494 198 195 204
0.164062 0.164062 0.036587 169 167 178
0.167969 0.164062 0.030373 178 178 190
0.171875 0.164062 0.021922 176 178 193
0.175781 0.164062 0.012337 164 167 184
0.179688 0.164062 -0.001972 116 115 132
-0.203125 0.160156 -0.023795 183 180 180
-0.199219 0.160156 -0.017622 168 168 167
-0.195312 0.160156 -0.008605 157 157 157
-0.191406 0.160156 -0.002310 171 172 171
-0.187500 0.160156 0.004080 180 180 180
-0.183594 0.160156 0.011275 180 180 180
-0.179688 0.160156 0.019671 171 171 171
-0.175781 0.160156 0.028672 156 156 156
-0.171875 0.160156 0.037507 141 141 141
-0.167969 0.160156 0.045201 129 129 129
-0.164062 0.160156 0.051085 124 124 124
-0.160156 0.160156 0.056181 125 125 125
-0.156250 0.160156 0.060780 127 127 127
-0.152344 0.160156 0.064871 128 128 128
-0.148438 0.160156 0.068418 127 127 127
-0.144531 0.160156 0.071768 126 127 126
-0.140625 0.160156 0.074882 125 125 125
-0.136719 0.160156 0.077615 121 122 121
-0.132812 0.160156 0.080095 119 121 119
-0.128906 0.160156 0.082185 131 134 131
-0.125000 0.160156 0.084018 164 168 165
-0.121094 0.160156 0.085663 190 195 196
-0.117188 0.160156 0.087151 181 186 192
-0.113281 0.160156 0.088526 200 207 217
-0.109375 0.160156 0.089775 180 189 203
-0.105469 0.160156 0.090946 187 198 218
-0.101562 0.160156 0.092135 163 178 201
-0.097656 0.160156 0.093324 185 199 225
-0.093750 0.160156 0.094433 169 185 211
-0.089844 0.160156 0.095297 167 182 211
-0.085938 0.160156 0.095797 129 144 173
-0.082031 0.160156 0.096208 139 153 180
-0.078125 0.160156 0.096670 155 169 196
-0.074219 0.160156 0.097349 169 183 209
-0.070312 0.160156 0.098407 171 187 212
-0.066406 0.160156 0.099809 160 178 202
-0.062500 0.160156 0.101428 156 177 198
-0.058594 0.160156 0.103082 165 186 207
-0.054688 0.160156 0.104851 164 182 204
-0.050781 0.160156 0.106558 159 177 199
-0.046875 0.160156 0.108175 168 186 208
-0.042969 0.160156 0.109533 127 144 164
-0.039062 0.160156 0.110202 179 196 214
-0.035156 0.160156 0.110185 174 187 206
-0.031250 0.160156 0.110280 138 150 166
-0.027344 0.160156 0.111602 131 140 155
-0.023438 0.160156 0.114868 134 142 155
-0.019531 0.160156 0.118783 173 179 191
-0.015625 0.160156 0.121491 170 174 185
-0.011719 0.160156 0.122898 103 106 115
-0.007812 0.160156 0.123593 137 141 150
-0.003906 0.160156 0.123988 171 178 184
0.000000 0.160156 0.124192 165 174 179
0.003906 0.160156 0.124071 106 113 119
0.007812 0.160156 0.123651 134 140 146
0.011719 0.160156 0.123288 137 141 150
0.015625 0.160156 0.123048 166 170 179
0.019531 0.160156 0.122729 174 174 184
0.023438 0.160156 0.122291 152 152 162
0.027344 0.160156 0.121755 160 157 168
0.031250 0.160156 0.121229 167 163 172
0.035156 0.160156 0.120736 159 154 161
0.039062 0.160156 0.120407 130 122 130
0.042969 0.160156 0.119963 150 141 144
0.046875 0.160156 0.119344 102 93 94
0.050781 0.160156 0.118630 99 89 90
0.054688 0.160156 0.117635 180 172 175
0.058594 0.160156 0.116433 181 174 182
0.062500 0.160156 0.115077 171 168 176
0.066406 0.160156 0.113455 105 103 114
0.070312 0.160156 0.111548 165 165 177
0.074219 0.160156 0.109520 170 172 186
0.078125 0.160156 0.107299 172 174 189
0.082031 0.160156 0.104944 160 165 181
0.085938 0.160156 0.102439 150 156 173
0.089844 0.160156 0.099746 159 166 183
0.093750 0.160156 0.097008 147 157 176
0.097656 0.160156 0.093672 143 153 173
0.101562 0.160156 0.089700 158 169 189
0.105469 0.160156 0.085618 160 171 189
0.109375 0.160156 0.081539 177 185 203
0.113281 0.160156 0.078079 186 194 212
0.117188 0.160156 0.075456 190 197 214
0.121094 0.160156 0.072998 181 182 202
0.125000 0.160156 0.070510 185 183 203
0.128906 0.160156 0.067921 189 186 203
0.132812 0.160156 0.065141 144 142 154
0.136719 0.160156 0.062353 188 185 194
0.140625 0.160156 0.059567 152 147 151
0.144531 0.160156 0.056439 143 139 140
0.148438 0.160156 0.052672 167 163 162
0.152344 0.160156 0.048820 172 168 167
0.156250 0.160156 0.045398 167 165 166
0.160156 0.160156 0.041539 182 180 183
0.164062 0.160156 0.036504 174 173 179
0.167969 0.160156 0.030215 182 182 194
0.171875 0.160156 0.021803 171 172 190
0.175781 0.160156 0.012361 170 173 191
0.179688 0.160156 -0.000689 134 133 151
-0.203125 0.156250 -0.030169 178 177 176
-0.199219 0.156250 -0.016155 155 155 155
-0.195312 0.156250 -0.008081 153 153 153
-0.191406 0.156250 -0.002301 171 171 171
-0.187500 0.156250 0.004307 179 179 179
-0.183594 0.156250 0.011805 178 178 178
-0.179688 0.156250 0.020625 169 169 169
-0.175781 0.156250 0.030386 155 155 155
-0.171875 0.156250 0.039283 141 141 141
-0.167969 0.156250 0.046501 130 130 130
-0.164062 0.156250 0.051662 126 126 126
-0.160156 0.156250 0.056199 128 128 128
-0.156250 0.156250 0.060500 129 129 129
-0.152344 0.156250 0.064495 128 129 128
-0.148438 0.156250 0.068096 126 126 126
-0.144531 0.156250 0.071503 121 121 121
-0.140625 0.156250 0.074641 115 116 115
-0.136719 0.156250 0.077408 111 112 112
-0.132812 0.156250 0.079926 116 118 117
-0.128906 0.156250 0.082080 144 147 145
-0.125000 0.156250 0.083990 193 198 197
-0.121094 0.156250 0.085748 173 179 182
-0.117188 0.156250 0.087385 198 206 213
-0.113281 0.156250 0.088923 186 194 206
-0.109375 0.156250 0.090314 195 204 220
