ply
    format ascii 1.0
    element vertex 81122
    property float x
    property float y
    property float z
    property uchar red
    property uchar green
    property uchar blue
    end_header
0.070312 -0.214844 0.169120 141 143 145
0.074219 -0.214844 0.166525 137 138 140
0.078125 -0.214844 0.163794 124 128 130
0.082031 -0.214844 0.161172 129 133 135
0.085938 -0.214844 0.158666 138 141 143
0.089844 -0.214844 0.156036 131 137 139
0.093750 -0.214844 0.153078 118 125 127
0.097656 -0.214844 0.149980 97 106 109
0.101562 -0.214844 0.146930 111 121 123
0.105469 -0.214844 0.143859 138 145 145
0.109375 -0.214844 0.140857 120 127 129
0.113281 -0.214844 0.137004 113 120 123
0.117188 -0.214844 0.131445 144 150 152
0.121094 -0.214844 0.123594 141 149 150
0.125000 -0.214844 0.113920 104 113 117
0.128906 -0.214844 0.105475 109 115 121
0.132812 -0.214844 0.096495 145 150 145
0.136719 -0.214844 0.079178 154 157 150
-0.175781 -0.218750 -0.018158 170 162 149
-0.171875 -0.218750 -0.030840 202 201 198
-0.167969 -0.218750 -0.020610 183 179 178
-0.164062 -0.218750 -0.013951 169 167 167
-0.160156 -0.218750 -0.009463 166 164 163
-0.156250 -0.218750 -0.005467 164 162 161
-0.152344 -0.218750 -0.002107 164 163 163
-0.148438 -0.218750 0.000895 163 162 163
-0.144531 -0.218750 0.003846 158 157 159
-0.140625 -0.218750 0.006612 159 158 159
-0.136719 -0.218750 0.008755 160 160 161
-0.132812 -0.218750 0.009990 155 157 158
-0.128906 -0.218750 0.010955 149 152 152
-0.125000 -0.218750 0.011946 144 148 148
-0.121094 -0.218750 0.012646 146 149 149
-0.117188 -0.218750 0.012845 148 151 151
-0.113281 -0.218750 0.012753 145 148 149
-0.109375 -0.218750 0.012419 135 140 142
-0.105469 -0.218750 0.011814 130 135 136
-0.101562 -0.218750 0.011079 135 137 138
-0.097656 -0.218750 0.010202 126 129 129
-0.093750 -0.218750 0.009244 114 119 118
-0.089844 -0.218750 0.008341 122 127 124
-0.085938 -0.218750 0.007559 123 129 126
-0.082031 -0.218750 0.006590 111 120 117
-0.078125 -0.218750 0.005433 94 103 102
-0.074219 -0.218750 0.003910 90 99 98
-0.070312 -0.218750 0.001877 111 118 116
-0.066406 -0.218750 -0.000509 110 115 114
-0.062500 -0.218750 -0.003145 96 100 101
-0.058594 -0.218750 -0.005674 101 102 101
-0.054688 -0.218750 -0.008893 78 78 80
-0.050781 -0.218750 -0.011817 74 72 75
-0.046875 -0.218750 -0.014764 116 109 109
-0.042969 -0.218750 -0.018461 89 86 87
-0.039062 -0.218750 -0.023344 51 52 56
-0.035156 -0.218750 -0.026994 72 75 78
-0.031250 -0.218750 0.097145 93 96 97
-0.027344 -0.218750 0.112910 94 100 98
-0.023438 -0.218750 0.126552 115 121 115
-0.019531 -0.218750 0.138249 147 149 142
-0.015625 -0.218750 0.147447 170 168 160
-0.011719 -0.218750 0.155092 182 177 169
-0.007812 -0.218750 0.157379 187 182 175
-0.003906 -0.218750 0.162105 187 182 177
0.000000 -0.218750 0.164110 187 182 178
0.003906 -0.218750 0.165960 184 179 176
0.007812 -0.218750 0.168727 179 176 174
0.011719 -0.218750 0.169716 178 175 174
0.015625 -0.218750 0.171213 173 171 169
0.019531 -0.218750 0.172065 165 164 162
0.023438 -0.218750 0.172503 161 162 161
0.027344 -0.218750 0.173366 159 162 161
0.031250 -0.218750 0.174288 156 158 158
0.035156 -0.218750 0.175190 152 155 154
0.039062 -0.218750 0.176049 153 155 154
0.042969 -0.218750 0.176726 154 156 155
0.046875 -0.218750 0.177027 151 153 153
0.050781 -0.218750 0.176834 150 152 152
0.054688 -0.218750 0.176109 149 152 153
0.058594 -0.218750 0.174982 144 147 149
0.062500 -0.218750 0.173587 146 148 149
0.066406 -0.218750 0.171777 148 149 150
0.070312 -0.218750 0.169596 146 146 147
0.074219 -0.218750 0.167136 136 137 139
0.078125 -0.218750 0.164558 127 131 134
0.082031 -0.218750 0.162023 141 144 146
0.085938 -0.218750 0.159484 143 146 147
0.089844 -0.218750 0.156822 124 130 132
0.093750 -0.218750 0.153923 111 119 121
0.097656 -0.218750 0.150970 107 117 120
0.101562 -0.218750 0.148055 128 136 138
0.105469 -0.218750 0.145009 136 142 143
0.109375 -0.218750 0.142043 109 117 120
0.113281 -0.218750 0.138351 117 124 127
0.117188 -0.218750 0.132753 159 163 163
0.121094 -0.218750 0.124576 145 152 152
0.125000 -0.218750 0.114475 95 105 110
0.128906 -0.218750 0.105805 90 99 107
0.132812 -0.218750 0.096404 123 131 131
0.136719 -0.218750 0.074782 130 133 132
-0.171875 -0.222656 -0.035222 196 194 195
-0.167969 -0.222656 -0.021887 188 183 182
-0.164062 -0.222656 -0.015371 168 166 166
-0.160156 -0.222656 -0.011016 167 164 163
-0.156250 -0.222656 -0.006996 166 163 162
-0.152344 -0.222656 -0.003333 166 164 164
-0.148438 -0.222656 -0.000230 165 164 165
-0.144531 -0.222656 0.002796 160 159 161
-0.140625 -0.222656 0.005639 162 161 162
-0.136719 -0.222656 0.007885 160 161 162
-0.132812 -0.222656 0.009250 154 156 157
-0.128906 -0.222656 0.010347 148 151 151
-0.125000 -0.222656 0.011482 144 149 149
-0.121094 -0.222656 0.012266 148 152 151
-0.117188 -0.222656 0.012363 145 148 148
-0.113281 -0.222656 0.012123 141 145 145
-0.109375 -0.222656 0.011755 145 149 149
-0.105469 -0.222656 0.011190 146 150 150
-0.101562 -0.222656 0.010515 143 146 145
-0.097656 -0.222656 0.009723 129 132 132
-0.093750 -0.222656 0.008864 119 124 123
-0.089844 -0.222656 0.007940 124 129 127
-0.085938 -0.222656 0.006893 117 124 121
-0.082031 -0.222656 0.005611 103 112 110
-0.078125 -0.222656 0.004296 92 100 100
-0.074219 -0.222656 0.002764 88 95 95
-0.070312 -0.222656 0.000914 101 108 106
-0.066406 -0.222656 -0.001190 99 104 105
-0.062500 -0.222656 -0.003551 86 90 92
-0.058594 -0.222656 -0.005870 93 96 96
-0.054688 -0.222656 -0.008997 76 78 80
-0.050781 -0.222656 -0.011919 72 72 75
-0.046875 -0.222656 -0.014957 117 112 110
-0.042969 -0.222656 -0.018979 95 92 92
-0.039062 -0.222656 -0.024473 56 58 61
-0.035156 -0.222656 -0.028359 80 82 84
-0.031250 -0.222656 0.098090 99 103 103
-0.027344 -0.222656 0.112449 97 103 101
-0.023438 -0.222656 0.125774 114 120 115
-0.019531 -0.222656 0.137184 144 146 140
-0.015625 -0.222656 0.146331 170 168 160
-0.011719 -0.222656 0.154200 181 176 168
-0.007812 -0.222656 0.156470 185 180 173
-0.003906 -0.222656 0.161518 187 182 176
0.000000 -0.222656 0.163608 187 182 177
0.003906 -0.222656 0.165834 183 179 176
0.007812 -0.222656 0.168804 178 175 173
0.011719 -0.222656 0.169966 179 177 175
0.015625 -0.222656 0.171587 177 175 173
0.019531 -0.222656 0.172478 167 167 165
0.023438 -0.222656 0.172860 163 165 163
0.027344 -0.222656 0.173637 163 165 164
0.031250 -0.222656 0.174492 160 162 160
0.035156 -0.222656 0.175360 154 156 155
0.039062 -0.222656 0.176227 151 153 152
0.042969 -0.222656 0.176916 151 153 152
0.046875 -0.222656 0.177241 150 152 152
0.050781 -0.222656 0.177081 151 153 153
0.054688 -0.222656 0.176380 151 154 155
0.058594 -0.222656 0.175251 144 147 149
0.062500 -0.222656 0.173867 142 144 145
0.066406 -0.222656 0.172170 145 146 146
0.070312 -0.222656 0.170120 141 142 142
0.074219 -0.222656 0.167784 132 134 135
0.078125 -0.222656 0.165415 135 137 140
0.082031 -0.222656 0.163000 149 150 152
0.085938 -0.222656 0.160361 135 137 140
0.089844 -0.222656 0.157642 112 117 121
0.093750 -0.222656 0.154908 114 122 125
0.097656 -0.222656 0.152132 129 136 138
0.101562 -0.222656 0.149168 140 146 147
0.105469 -0.222656 0.145990 127 133 134
0.109375 -0.222656 0.143062 100 109 111
0.113281 -0.222656 0.139550 120 128 130
0.117188 -0.222656 0.133898 165 168 168
0.121094 -0.222656 0.125404 143 149 149
0.125000 -0.222656 0.115012 93 104 109
0.128906 -0.222656 0.106268 93 103 110
0.132812 -0.222656 0.096774 135 143 140
0.136719 -0.222656 0.078945 148 152 147
-0.171875 -0.226562 -0.038097 201 202 202
-0.167969 -0.226562 -0.023601 192 188 187
-0.164062 -0.226562 -0.017021 169 166 166
-0.160156 -0.226562 -0.012452 168 165 164
-0.156250 -0.226562 -0.008372 166 163 162
-0.152344 -0.226562 -0.004546 167 164 164
-0.148438 -0.226562 -0.001336 166 164 165
-0.144531 -0.226562 0.001742 160 159 161
-0.140625 -0.226562 0.004648 160 160 161
-0.136719 -0.226562 0.006998 160 161 162
-0.132812 -0.226562 0.008488 154 155 157
-0.128906 -0.226562 0.009686 147 149 151
-0.125000 -0.226562 0.010933 147 151 152
-0.121094 -0.226562 0.011759 150 154 154
-0.117188 -0.226562 0.011777 144 148 148
-0.113281 -0.226562 0.011462 145 148 148
-0.109375 -0.226562 0.011035 152 154 153
-0.105469 -0.226562 0.010421 147 149 148
-0.101562 -0.226562 0.009741 135 139 138
-0.097656 -0.226562 0.009003 125 129 129
-0.093750 -0.226562 0.008259 122 128 127
-0.089844 -0.226562 0.007314 124 130 127
-0.085938 -0.226562 0.006040 109 116 115
-0.082031 -0.226562 0.004578 98 107 105
-0.078125 -0.226562 0.003165 93 101 100
-0.074219 -0.226562 0.001608 81 89 89
-0.070312 -0.226562 -0.000058 87 95 94
-0.066406 -0.226562 -0.001851 97 103 104
-0.062500 -0.226562 -0.003881 98 104 103
-0.058594 -0.226562 -0.005954 112 114 111
-0.054688 -0.226562 -0.009048 100 99 99
-0.050781 -0.226562 -0.012023 89 87 89
-0.046875 -0.226562 -0.015208 122 118 116
-0.042969 -0.226562 -0.019614 95 93 93
-0.039062 -0.226562 -0.025832 54 56 59
-0.035156 -0.226562 -0.028002 76 79 81
-0.031250 -0.226562 0.099918 94 98 98
-0.027344 -0.226562 0.112047 94 100 98
-0.023438 -0.226562 0.124900 109 115 111
-0.019531 -0.226562 0.135916 138 140 135
-0.015625 -0.226562 0.145014 171 168 160
-0.011719 -0.226562 0.153154 182 177 169
-0.007812 -0.226562 0.155560 184 178 171
-0.003906 -0.226562 0.160872 185 180 173
0.000000 -0.226562 0.163034 185 180 175
0.003906 -0.226562 0.165678 183 179 175
0.007812 -0.226562 0.168861 178 176 172
0.011719 -0.226562 0.170204 178 176 173
0.015625 -0.226562 0.171957 178 176 174
0.019531 -0.226562 0.172927 171 171 169
0.023438 -0.226562 0.173284 165 166 164
0.027344 -0.226562 0.173985 161 163 161
0.031250 -0.226562 0.174780 158 161 159
0.035156 -0.226562 0.175604 155 157 155
0.039062 -0.226562 0.176460 152 154 152
0.042969 -0.226562 0.177153 152 154 152
0.046875 -0.226562 0.177483 150 152 151
0.050781 -0.226562 0.177322 151 153 153
0.054688 -0.226562 0.176625 149 151 152
0.058594 -0.226562 0.175513 142 145 146
0.062500 -0.226562 0.174155 141 143 143
0.066406 -0.226562 0.172549 140 142 141
0.070312 -0.226562 0.170635 138 140 140
0.074219 -0.226562 0.168449 140 141 142
0.078125 -0.226562 0.166248 149 149 151
0.082031 -0.226562 0.163906 149 149 151
0.085938 -0.226562 0.161250 126 129 132
0.089844 -0.226562 0.158565 114 119 122
0.093750 -0.226562 0.155914 127 133 135
0.097656 -0.226562 0.153120 142 147 148
0.101562 -0.226562 0.149992 137 142 142
0.105469 -0.226562 0.146757 113 119 120
0.109375 -0.226562 0.143931 94 103 104
0.113281 -0.226562 0.140503 124 132 133
0.117188 -0.226562 0.134731 165 168 168
0.121094 -0.226562 0.125967 133 140 141
0.125000 -0.226562 0.115570 93 104 108
0.128906 -0.226562 0.106910 102 110 115
0.132812 -0.226562 0.097761 145 149 144
0.136719 -0.226562 0.082480 158 160 154
-0.171875 -0.230469 -0.039315 217 219 217
-0.167969 -0.230469 -0.025054 195 191 190
-0.164062 -0.230469 -0.018585 169 167 167
-0.160156 -0.230469 -0.013735 168 165 165
-0.156250 -0.230469 -0.009636 164 160 160
-0.152344 -0.230469 -0.005794 164 161 162
-0.148438 -0.230469 -0.002447 164 162 164
-0.144531 -0.230469 0.000718 159 158 160
-0.140625 -0.230469 0.003682 157 157 159
-0.136719 -0.230469 0.006114 160 160 162
-0.132812 -0.230469 0.007718 155 157 159
-0.128906 -0.230469 0.009035 151 153 155
-0.125000 -0.230469 0.010336 155 158 159
-0.121094 -0.230469 0.011130 156 159 158
-0.117188 -0.230469 0.011043 146 149 149
-0.113281 -0.230469 0.010609 143 146 145
-0.109375 -0.230469 0.010096 141 142 142
-0.105469 -0.230469 0.009424 129 133 133
-0.101562 -0.230469 0.008764 122 128 128
-0.097656 -0.230469 0.008094 123 128 128
-0.093750 -0.230469 0.007430 127 132 130
-0.089844 -0.230469 0.006532 123 129 126
-0.085938 -0.230469 0.005153 104 110 109
-0.082031 -0.230469 0.003555 98 105 104
-0.078125 -0.230469 0.002075 97 103 102
-0.074219 -0.230469 0.000563 80 87 88
-0.070312 -0.230469 -0.000914 86 93 93
-0.066406 -0.230469 -0.002465 109 114 113
-0.062500 -0.230469 -0.004252 113 116 114
-0.058594 -0.230469 -0.006134 111 111 109
-0.054688 -0.230469 -0.009189 89 86 88
-0.050781 -0.230469 -0.012195 76 73 77
-0.046875 -0.230469 -0.015502 114 109 110
-0.042969 -0.230469 -0.020284 94 92 92
-0.039062 -0.230469 -0.027552 52 54 57
-0.035156 -0.230469 -0.025392 75 77 78
-0.031250 -0.230469 0.102402 97 101 99
-0.027344 -0.230469 0.111489 102 107 104
-0.023438 -0.230469 0.123859 113 119 116
-0.019531 -0.230469 0.134523 132 134 130
-0.015625 -0.230469 0.143539 167 164 155
-0.011719 -0.230469 0.151945 182 177 169
-0.007812 -0.230469 0.154592 184 178 170
-0.003906 -0.230469 0.160242 185 179 172
0.000000 -0.230469 0.162513 184 179 173
0.003906 -0.230469 0.165503 184 181 175
0.007812 -0.230469 0.168872 181 178 174
0.011719 -0.230469 0.170399 177 175 172
0.015625 -0.230469 0.172284 176 174 172
0.019531 -0.230469 0.173358 173 172 170
0.023438 -0.230469 0.173724 167 168 166
0.027344 -0.230469 0.174368 160 162 160
0.031250 -0.230469 0.175114 158 160 157
0.035156 -0.230469 0.175885 155 157 155
0.039062 -0.230469 0.176695 154 155 153
0.042969 -0.230469 0.177354 155 156 154
0.046875 -0.230469 0.177687 152 153 152
0.050781 -0.230469 0.177560 151 153 153
0.054688 -0.230469 0.176894 148 150 151
0.058594 -0.230469 0.175832 144 146 147
0.062500 -0.230469 0.174560 145 146 146
0.066406 -0.230469 0.173049 139 141 141
0.070312 -0.230469 0.171243 139 141 141
0.074219 -0.230469 0.169174 148 149 149
0.078125 -0.230469 0.167023 150 151 152
0.082031 -0.230469 0.164710 137 139 141
0.085938 -0.230469 0.162166 123 128 131
0.089844 -0.230469 0.159555 129 133 136
0.093750 -0.230469 0.156826 139 143 145
0.097656 -0.230469 0.153902 138 143 144
0.101562 -0.230469 0.150674 119 124 125
0.105469 -0.230469 0.147496 96 101 103
0.109375 -0.230469 0.144822 89 96 98
0.113281 -0.230469 0.141390 124 131 132
0.117188 -0.230469 0.135446 159 161 161
0.121094 -0.230469 0.126471 121 128 128
0.125000 -0.230469 0.116204 90 100 104
0.128906 -0.230469 0.107432 98 103 109
0.132812 -0.230469 0.098624 136 136 133
0.136719 -0.230469 0.085211 158 157 153
-0.171875 -0.234375 -0.040663 218 220 216
-0.167969 -0.234375 -0.026330 190 186 184
-0.164062 -0.234375 -0.019809 170 167 167
-0.160156 -0.234375 -0.014938 169 167 166
-0.156250 -0.234375 -0.010890 162 160 160
-0.152344 -0.234375 -0.007069 162 160 161
-0.148438 -0.234375 -0.003563 165 163 164
-0.144531 -0.234375 -0.000323 162 161 163
-0.140625 -0.234375 0.002674 158 158 160
-0.136719 -0.234375 0.005157 160 161 162
-0.132812 -0.234375 0.006835 161 163 163
-0.128906 -0.234375 0.008195 160 162 163
-0.125000 -0.234375 0.009452 162 163 163
-0.121094 -0.234375 0.010166 156 157 156
-0.117188 -0.234375 0.010018 143 145 144
-0.113281 -0.234375 0.009525 133 136 136
-0.109375 -0.234375 0.009011 124 127 128
-0.105469 -0.234375 0.008395 119 124 124
-0.101562 -0.234375 0.007815 125 131 131
-0.097656 -0.234375 0.007199 130 135 135
-0.093750 -0.234375 0.006523 128 133 131
-0.089844 -0.234375 0.005627 118 123 121
-0.085938 -0.234375 0.004221 102 108 107
-0.082031 -0.234375 0.002567 99 105 103
-0.078125 -0.234375 0.001076 95 100 100
-0.074219 -0.234375 -0.000327 81 86 87
-0.070312 -0.234375 -0.001642 87 93 93
-0.066406 -0.234375 -0.003119 104 107 107
-0.062500 -0.234375 -0.004835 98 100 100
-0.058594 -0.234375 -0.006593 90 93 93
-0.054688 -0.234375 -0.009559 67 68 73
-0.050781 -0.234375 -0.012461 58 58 64
-0.046875 -0.234375 -0.015725 114 110 110
-0.042969 -0.234375 -0.020581 106 103 102
-0.039062 -0.234375 -0.029019 55 57 60
-0.035156 -0.234375 -0.021941 79 81 81
-0.031250 -0.234375 0.104493 104 107 104
-0.027344 -0.234375 0.111124 109 113 109
-0.023438 -0.234375 0.122844 120 124 120
-0.019531 -0.234375 0.133006 127 129 125
-0.015625 -0.234375 0.141916 159 157 149
-0.011719 -0.234375 0.150572 181 175 167
-0.007812 -0.234375 0.153641 183 177 169
-0.003906 -0.234375 0.159553 184 178 171
0.000000 -0.234375 0.161983 184 179 172
0.003906 -0.234375 0.165303 185 181 174
0.007812 -0.234375 0.168826 182 178 173
0.011719 -0.234375 0.170543 176 173 169
0.015625 -0.234375 0.172568 173 171 168
0.019531 -0.234375 0.173746 170 169 167
0.023438 -0.234375 0.174147 164 165 163
0.027344 -0.234375 0.174774 159 161 159
0.031250 -0.234375 0.175495 159 161 158
0.035156 -0.234375 0.176217 155 157 154
0.039062 -0.234375 0.176957 151 152 150
0.042969 -0.234375 0.177551 153 152 151
0.046875 -0.234375 0.177872 149 149 149
0.050781 -0.234375 0.177779 148 149 149
0.054688 -0.234375 0.177177 144 146 147
0.058594 -0.234375 0.176219 143 145 146
0.062500 -0.234375 0.175065 147 149 149
0.066406 -0.234375 0.173642 141 143 144
0.070312 -0.234375 0.171907 143 146 146
0.074219 -0.234375 0.169875 147 150 150
0.078125 -0.234375 0.167697 140 143 145
0.082031 -0.234375 0.165420 130 134 137
0.085938 -0.234375 0.162982 134 138 140
0.089844 -0.234375 0.160370 147 150 151
0.093750 -0.234375 0.157519 146 150 151
0.097656 -0.234375 0.154527 130 136 136
0.101562 -0.234375 0.151332 107 113 115
0.105469 -0.234375 0.148305 97 103 105
0.109375 -0.234375 0.145830 103 111 110
0.113281 -0.234375 0.142372 134 142 140
0.117188 -0.234375 0.136206 158 162 161
0.121094 -0.234375 0.127021 122 129 129
0.125000 -0.234375 0.116910 96 105 107
0.128906 -0.234375 0.108069 93 99 104
0.132812 -0.234375 0.099124 122 124 123
0.136719 -0.234375 0.087438 153 149 147
-0.171875 -0.238281 -0.042176 214 216 212
-0.167969 -0.238281 -0.028121 181 177 176
-0.164062 -0.238281 -0.021028 170 166 166
-0.160156 -0.238281 -0.016163 168 166 166
-0.156250 -0.238281 -0.012233 160 158 159
-0.152344 -0.238281 -0.008290 159 158 160
-0.148438 -0.238281 -0.004620 163 162 164
-0.144531 -0.238281 -0.001370 164 164 165
-0.140625 -0.238281 0.001629 159 159 160
-0.136719 -0.238281 0.004081 160 161 161
-0.132812 -0.238281 0.005739 164 164 164
-0.128906 -0.238281 0.007056 161 161 161
-0.125000 -0.238281 0.008201 151 152 153
-0.121094 -0.238281 0.008833 141 143 143
-0.117188 -0.238281 0.008746 133 136 137
-0.113281 -0.238281 0.008359 129 133 133
-0.109375 -0.238281 0.007937 124 128 128
-0.105469 -0.238281 0.007403 126 130 130
-0.101562 -0.238281 0.006865 135 140 139
-0.097656 -0.238281 0.006272 135 140 139
-0.093750 -0.238281 0.005520 124 130 128
-0.089844 -0.238281 0.004542 113 118 116
-0.085938 -0.238281 0.003199 105 110 108
-0.082031 -0.238281 0.001660 101 107 105
-0.078125 -0.238281 0.000198 92 98 98
-0.074219 -0.238281 -0.001153 82 87 89
-0.070312 -0.238281 -0.002343 88 92 94
-0.066406 -0.238281 -0.003764 92 96 97
-0.062500 -0.238281 -0.005437 88 93 93
-0.058594 -0.238281 -0.007080 113 116 113
-0.054688 -0.238281 -0.009943 105 106 108
-0.050781 -0.238281 -0.012751 81 80 84
-0.046875 -0.238281 -0.015966 129 124 122
-0.042969 -0.238281 -0.020954 111 107 106
-0.039062 -0.238281 -0.030529 50 52 55
-0.035156 -0.238281 -0.017184 71 73 74
-0.031250 -0.238281 0.106227 97 100 98
-0.027344 -0.238281 0.110518 103 107 104
-0.023438 -0.238281 0.121731 119 123 119
-0.019531 -0.238281 0.131468 125 128 123
-0.015625 -0.238281 0.140299 156 153 145
-0.011719 -0.238281 0.149201 180 175 167
-0.007812 -0.238281 0.152717 182 176 169
-0.003906 -0.238281 0.158800 184 178 170
0.000000 -0.238281 0.161420 186 180 173
0.003906 -0.238281 0.165040 186 180 174
0.007812 -0.238281 0.168717 182 177 172
0.011719 -0.238281 0.170642 177 173 170
0.015625 -0.238281 0.172836 173 171 168
0.019531 -0.238281 0.174144 169 168 166
0.023438 -0.238281 0.174604 162 163 161
0.027344 -0.238281 0.175235 159 160 158
0.031250 -0.238281 0.175947 161 163 160
0.035156 -0.238281 0.176636 157 158 155
0.039062 -0.238281 0.177296 151 152 149
0.042969 -0.238281 0.177794 154 153 151
0.046875 -0.238281 0.178051 153 152 151
0.050781 -0.238281 0.177944 150 151 151
0.054688 -0.238281 0.177429 143 144 145
0.058594 -0.238281 0.176637 140 142 144
0.062500 -0.238281 0.175606 146 149 149
0.066406 -0.238281 0.174219 147 150 150
0.070312 -0.238281 0.172516 151 154 154
0.074219 -0.238281 0.170522 146 150 150
0.078125 -0.238281 0.168333 133 139 140
0.082031 -0.238281 0.166076 135 140 142
0.085938 -0.238281 0.163677 146 149 151
0.089844 -0.238281 0.161019 150 152 153
0.093750 -0.238281 0.158084 139 143 144
0.097656 -0.238281 0.155138 118 126 127
0.101562 -0.238281 0.152110 102 111 112
0.105469 -0.238281 0.149251 109 116 116
0.109375 -0.238281 0.146849 121 129 126
0.113281 -0.238281 0.143264 139 147 145
0.117188 -0.238281 0.136841 152 157 157
0.121094 -0.238281 0.127402 122 127 127
0.125000 -0.238281 0.117274 99 106 107
0.128906 -0.238281 0.109081 94 99 103
0.132812 -0.238281 0.099910 120 121 121
0.136719 -0.238281 0.089463 135 127 131
-0.171875 -0.242188 -0.043301 206 207 203
-0.167969 -0.242188 -0.029608 172 169 168
-0.164062 -0.242188 -0.022892 170 165 167
-0.160156 -0.242188 -0.017727 173 170 171
-0.156250 -0.242188 -0.013573 165 163 164
-0.152344 -0.242188 -0.009508 162 162 163
-0.148438 -0.242188 -0.005799 165 165 166
-0.144531 -0.242188 -0.002598 165 165 165
-0.140625 -0.242188 0.000375 160 159 160
-0.136719 -0.242188 0.002772 157 157 157
-0.132812 -0.242188 0.004364 154 154 154
-0.128906 -0.242188 0.005629 147 149 150
-0.125000 -0.242188 0.006761 137 140 142
-0.121094 -0.242188 0.007470 133 136 138
-0.117188 -0.242188 0.007540 135 138 138
-0.113281 -0.242188 0.007339 134 137 136
-0.109375 -0.242188 0.007066 132 135 134
-0.105469 -0.242188 0.006595 134 138 137
-0.101562 -0.242188 0.006012 138 141 140
-0.097656 -0.242188 0.005340 132 137 135
-0.093750 -0.242188 0.004496 121 125 123
-0.089844 -0.242188 0.003469 111 116 114
-0.085938 -0.242188 0.002195 105 110 109
-0.082031 -0.242188 0.000779 103 108 107
-0.078125 -0.242188 -0.000623 96 103 103
-0.074219 -0.242188 -0.001958 89 95 97
-0.070312 -0.242188 -0.003084 95 100 101
-0.066406 -0.242188 -0.004411 92 96 98
-0.062500 -0.242188 -0.005940 88 93 94
-0.058594 -0.242188 -0.007420 127 128 125
-0.054688 -0.242188 -0.010207 124 121 123
-0.050781 -0.242188 -0.012969 87 85 89
-0.046875 -0.242188 -0.016190 125 120 118
-0.042969 -0.242188 -0.021172 106 103 102
-0.039062 -0.242188 -0.031466 47 49 52
-0.035156 -0.242188 -0.014399 69 71 71
-0.031250 -0.242188 0.106965 100 103 100
-0.027344 -0.242188 0.110095 106 112 108
-0.023438 -0.242188 0.120841 121 126 122
-0.019531 -0.242188 0.130168 126 128 124
-0.015625 -0.242188 0.138903 152 150 142
-0.011719 -0.242188 0.147940 177 172 164
-0.007812 -0.242188 0.151865 180 174 167
-0.003906 -0.242188 0.158132 184 177 169
0.000000 -0.242188 0.160991 187 180 173
0.003906 -0.242188 0.164877 186 179 172
0.007812 -0.242188 0.168685 183 178 172
0.011719 -0.242188 0.170807 180 176 172
0.015625 -0.242188 0.173166 176 173 170
0.019531 -0.242188 0.174600 171 170 167
0.023438 -0.242188 0.175123 164 164 162
0.027344 -0.242188 0.175753 160 161 159
0.031250 -0.242188 0.176434 162 164 162
0.035156 -0.242188 0.177067 158 159 157
0.039062 -0.242188 0.177644 152 153 150
0.042969 -0.242188 0.178044 154 153 150
0.046875 -0.242188 0.178236 154 153 151
0.050781 -0.242188 0.178150 153 153 152
0.054688 -0.242188 0.177746 144 146 146
0.058594 -0.242188 0.177099 140 142 144
0.062500 -0.242188 0.176197 149 152 153
0.066406 -0.242188 0.174837 153 156 157
0.070312 -0.242188 0.173083 152 154 155
0.074219 -0.242188 0.171068 138 142 144
0.078125 -0.242188 0.168882 125 132 134
0.082031 -0.242188 0.166630 136 141 144
0.085938 -0.242188 0.164219 144 147 149
0.089844 -0.242188 0.161501 133 137 140
0.093750 -0.242188 0.158545 120 126 130
0.097656 -0.242188 0.155738 110 119 121
0.101562 -0.242188 0.152912 107 116 117
0.105469 -0.242188 0.150150 114 120 120
0.109375 -0.242188 0.147694 116 124 122
0.113281 -0.242188 0.143931 132 140 139
0.117188 -0.242188 0.137192 143 148 150
0.121094 -0.242188 0.127548 115 120 121
0.125000 -0.242188 0.117358 92 99 101
0.128906 -0.242188 0.109795 98 101 104
0.132812 -0.242188 0.100782 131 128 126
0.136719 -0.242188 0.093565 142 128 131
-0.171875 -0.246094 -0.045462 209 210 207
-0.167969 -0.246094 -0.031784 180 180 179
-0.164062 -0.246094 -0.025154 170 165 169
-0.160156 -0.246094 -0.019283 174 170 171
-0.156250 -0.246094 -0.014865 167 166 166
-0.152344 -0.246094 -0.010812 164 164 164
-0.148438 -0.246094 -0.007179 165 165 166
-0.144531 -0.246094 -0.004022 164 164 164
-0.140625 -0.246094 -0.001082 158 157 157
-0.136719 -0.246094 0.001316 153 153 152
-0.132812 -0.246094 0.002870 145 147 147
-0.128906 -0.246094 0.004063 142 145 145
-0.125000 -0.246094 0.005245 140 144 144
-0.121094 -0.246094 0.006083 141 144 144
-0.117188 -0.246094 0.006323 139 141 142
-0.113281 -0.246094 0.006363 131 134 134
-0.109375 -0.246094 0.006318 131 135 135
-0.105469 -0.246094 0.005962 135 138 138
-0.101562 -0.246094 0.005296 132 135 134
-0.097656 -0.246094 0.004477 125 128 127
-0.093750 -0.246094 0.003576 117 120 119
-0.089844 -0.246094 0.002544 110 114 113
-0.085938 -0.246094 0.001299 104 111 109
-0.082031 -0.246094 -0.000040 106 113 111
-0.078125 -0.246094 -0.001392 104 112 112
-0.074219 -0.246094 -0.002709 96 105 105
-0.070312 -0.246094 -0.003839 99 105 105
-0.066406 -0.246094 -0.005161 94 99 100
-0.062500 -0.246094 -0.006518 90 95 97
-0.058594 -0.246094 -0.007822 115 116 116
-0.054688 -0.246094 -0.010600 95 94 99
-0.050781 -0.246094 -0.013373 68 67 73
-0.046875 -0.246094 -0.016550 119 115 113
-0.042969 -0.246094 -0.021386 107 104 103
-0.039062 -0.246094 -0.031716 47 49 52
-0.035156 -0.246094 -0.014168 69 71 71
-0.031250 -0.246094 0.106843 105 108 104
-0.027344 -0.246094 0.109626 111 117 113
-0.023438 -0.246094 0.120040 124 129 125
-0.019531 -0.246094 0.128976 126 129 125
-0.015625 -0.246094 0.137583 148 147 140
-0.011719 -0.246094 0.146735 174 169 161
-0.007812 -0.246094 0.151044 180 173 166
-0.003906 -0.246094 0.157473 184 177 169
0.000000 -0.246094 0.160583 187 180 172
0.003906 -0.246094 0.164727 185 178 171
0.007812 -0.246094 0.168646 184 178 172
0.011719 -0.246094 0.170962 182 177 173
0.015625 -0.246094 0.173495 177 173 171
0.019531 -0.246094 0.175059 172 170 168
0.023438 -0.246094 0.175666 166 165 164
0.027344 -0.246094 0.176320 160 162 160
0.031250 -0.246094 0.176960 162 164 162
0.035156 -0.246094 0.177506 158 161 159
0.039062 -0.246094 0.178004 151 153 151
0.042969 -0.246094 0.178321 148 149 147
0.046875 -0.246094 0.178451 146 147 146
0.050781 -0.246094 0.178391 147 148 148
0.054688 -0.246094 0.178075 144 146 146
0.058594 -0.246094 0.177511 146 149 149
0.062500 -0.246094 0.176705 157 159 160
0.066406 -0.246094 0.175398 154 157 157
0.070312 -0.246094 0.173571 143 146 147
0.074219 -0.246094 0.171502 130 135 138
0.078125 -0.246094 0.169379 126 132 136
0.082031 -0.246094 0.167156 143 148 150
0.085938 -0.246094 0.164686 144 148 149
0.089844 -0.246094 0.161933 125 131 132
0.093750 -0.246094 0.159013 114 122 123
0.097656 -0.246094 0.156293 115 123 124
0.101562 -0.246094 0.153604 119 126 127
0.105469 -0.246094 0.150956 109 115 117
0.109375 -0.246094 0.148481 101 110 109
0.113281 -0.246094 0.144556 123 132 132
0.117188 -0.246094 0.137415 136 141 144
0.121094 -0.246094 0.127560 111 117 118
0.125000 -0.246094 0.117353 93 100 103
0.128906 -0.246094 0.109946 105 110 111
0.132812 -0.246094 0.101384 125 125 120
0.136719 -0.246094 0.096904 148 136 134
-0.171875 -0.250000 -0.019696 181 177 185
-0.167969 -0.250000 -0.034991 191 189 190
-0.164062 -0.250000 -0.027243 174 170 173
-0.160156 -0.250000 -0.021322 167 165 166
-0.156250 -0.250000 -0.016433 163 162 162
-0.152344 -0.250000 -0.012258 161 161 162
-0.148438 -0.250000 -0.008653 160 162 162
-0.144531 -0.250000 -0.005498 159 160 160
-0.140625 -0.250000 -0.002589 154 153 154
-0.136719 -0.250000 -0.000178 151 151 151
-0.132812 -0.250000 0.001406 147 149 149
-0.128906 -0.250000 0.002623 145 148 147
-0.125000 -0.250000 0.003851 141 144 144
-0.121094 -0.250000 0.004765 140 143 143
-0.117188 -0.250000 0.005181 136 139 140
-0.113281 -0.250000 0.005465 131 134 135
-0.109375 -0.250000 0.005628 136 139 139
-0.105469 -0.250000 0.005354 137 140 139
-0.101562 -0.250000 0.004608 128 131 131
-0.097656 -0.250000 0.003701 120 124 123
-0.093750 -0.250000 0.002796 116 120 119
-0.089844 -0.250000 0.001782 113 118 116
-0.085938 -0.250000 0.000556 110 116 114
-0.082031 -0.250000 -0.000803 110 117 114
-0.078125 -0.250000 -0.002223 105 112 111
-0.074219 -0.250000 -0.003541 92 101 102
-0.070312 -0.250000 -0.004616 93 101 101
-0.066406 -0.250000 -0.005886 93 99 100
-0.062500 -0.250000 -0.007079 95 101 101
-0.058594 -0.250000 -0.008241 114 118 117
-0.054688 -0.250000 -0.010975 88 90 94
-0.050781 -0.250000 -0.013671 69 69 73
-0.046875 -0.250000 -0.016770 129 123 120
-0.042969 -0.250000 -0.021488 115 111 109
-0.039062 -0.250000 -0.031426 48 50 52
-0.035156 -0.250000 -0.016049 66 68 68
-0.031250 -0.250000 0.106233 102 105 101
-0.027344 -0.250000 0.109261 113 119 115
-0.023438 -0.250000 0.119511 130 134 130
-0.019531 -0.250000 0.128138 130 133 128
-0.015625 -0.250000 0.136566 149 148 141
-0.011719 -0.250000 0.145723 175 170 163
-0.007812 -0.250000 0.150334 180 174 167
-0.003906 -0.250000 0.156895 183 176 168
0.000000 -0.250000 0.160201 188 180 172
0.003906 -0.250000 0.164560 187 180 172
0.007812 -0.250000 0.168589 184 177 172
0.011719 -0.250000 0.171093 180 175 172
0.015625 -0.250000 0.173813 176 172 170
0.019531 -0.250000 0.175527 172 170 168
0.023438 -0.250000 0.176225 166 165 164
0.027344 -0.250000 0.176907 161 161 161
0.031250 -0.250000 0.177522 162 164 163
0.035156 -0.250000 0.178003 160 162 161
0.039062 -0.250000 0.178445 153 155 153
0.042969 -0.250000 0.178708 149 151 149
0.046875 -0.250000 0.178781 146 148 146
0.050781 -0.250000 0.178710 145 147 145
0.054688 -0.250000 0.178440 145 148 146
0.058594 -0.250000 0.177924 152 155 153
0.062500 -0.250000 0.177157 163 164 162
0.066406 -0.250000 0.175875 152 155 155
0.070312 -0.250000 0.174035 139 143 144
0.074219 -0.250000 0.171986 139 142 144
0.078125 -0.250000 0.169930 142 146 148
0.082031 -0.250000 0.167680 151 154 155
0.085938 -0.250000 0.165122 142 146 147
0.089844 -0.250000 0.162367 123 129 129
0.093750 -0.250000 0.159504 116 123 123
0.097656 -0.250000 0.156851 117 124 124
0.101562 -0.250000 0.154264 118 124 125
0.105469 -0.250000 0.151730 99 105 108
0.109375 -0.250000 0.149294 95 103 104
0.113281 -0.250000 0.145238 124 133 133
0.117188 -0.250000 0.137709 129 137 140
0.121094 -0.250000 0.127509 107 113 116
0.125000 -0.250000 0.117265 97 103 106
0.128906 -0.250000 0.110095 121 126 125
0.132812 -0.250000 0.102435 129 132 126
0.136719 -0.250000 0.100351 161 150 147
-0.167969 -0.253906 -0.040668 187 182 179
-0.164062 -0.253906 -0.029502 184 180 180
-0.160156 -0.253906 -0.023454 167 166 165
-0.156250 -0.253906 -0.017845 165 164 163
-0.152344 -0.253906 -0.013586 165 165 164
-0.148438 -0.253906 -0.010110 161 162 162
-0.144531 -0.253906 -0.007025 157 158 158
-0.140625 -0.253906 -0.004164 151 152 152
-0.136719 -0.253906 -0.001772 153 153 153
-0.132812 -0.253906 -0.000159 153 154 154
-0.128906 -0.253906 0.001154 148 150 150
-0.125000 -0.253906 0.002460 137 141 141
-0.121094 -0.253906 0.003498 134 138 138
-0.117188 -0.253906 0.004118 134 138 138
-0.113281 -0.253906 0.004619 135 138 138
-0.109375 -0.253906 0.004982 139 142 141
-0.105469 -0.253906 0.004837 133 136 137
-0.101562 -0.253906 0.004085 126 129 130
-0.097656 -0.253906 0.003137 123 126 126
-0.093750 -0.253906 0.002200 123 127 125
-0.089844 -0.253906 0.001171 123 128 125
-0.085938 -0.253906 -0.000087 117 123 119
-0.082031 -0.253906 -0.001559 107 114 111
-0.078125 -0.253906 -0.003094 93 101 101
-0.074219 -0.253906 -0.004413 84 93 94
-0.070312 -0.253906 -0.005365 93 101 101
-0.066406 -0.253906 -0.006509 96 102 102
-0.062500 -0.253906 -0.007563 97 104 103
-0.058594 -0.253906 -0.008583 116 120 119
-0.054688 -0.253906 -0.011194 91 92 96
-0.050781 -0.253906 -0.013753 69 68 73
-0.046875 -0.253906 -0.016782 124 118 115
-0.042969 -0.253906 -0.021295 112 109 106
-0.039062 -0.253906 -0.030537 48 49 53
-0.035156 -0.253906 -0.020256 64 66 67
-0.031250 -0.253906 0.104924 103 106 102
-0.027344 -0.253906 0.109083 120 124 120
-0.023438 -0.253906 0.119160 136 139 135
-0.019531 -0.253906 0.127481 133 135 131
-0.015625 -0.253906 0.135728 149 148 141
-0.011719 -0.253906 0.144878 175 171 163
-0.007812 -0.253906 0.149800 179 174 167
-0.003906 -0.253906 0.156460 180 174 166
0.000000 -0.253906 0.159931 187 180 172
0.003906 -0.253906 0.164494 189 182 175
0.007812 -0.253906 0.168632 184 178 173
0.011719 -0.253906 0.171298 179 175 171
0.015625 -0.253906 0.174185 177 173 170
0.019531 -0.253906 0.176042 174 171 168
0.023438 -0.253906 0.176826 167 165 164
0.027344 -0.253906 0.177537 163 163 162
0.031250 -0.253906 0.178147 163 164 163
0.035156 -0.253906 0.178592 159 160 159
0.039062 -0.253906 0.178989 152 154 152
0.042969 -0.253906 0.179210 152 154 152
0.046875 -0.253906 0.179243 149 151 149
0.050781 -0.253906 0.179139 143 146 144
0.054688 -0.253906 0.178873 143 146 144
0.058594 -0.253906 0.178375 148 151 149
0.062500 -0.253906 0.177582 156 157 156
0.066406 -0.253906 0.176288 145 147 147
0.070312 -0.253906 0.174473 136 140 141
0.074219 -0.253906 0.172432 145 148 149
0.078125 -0.253906 0.170355 148 150 152
0.082031 -0.253906 0.168046 147 150 151
0.085938 -0.253906 0.165434 132 137 138
0.089844 -0.253906 0.162674 121 125 126
0.093750 -0.253906 0.159878 123 127 128
0.097656 -0.253906 0.157361 119 125 125
0.101562 -0.253906 0.154904 114 121 121
0.105469 -0.253906 0.152507 95 102 105
0.109375 -0.253906 0.150172 104 112 112
0.113281 -0.253906 0.145959 139 147 145
0.117188 -0.253906 0.138024 138 145 147
0.121094 -0.253906 0.127415 111 118 121
0.125000 -0.253906 0.117259 94 99 104
0.128906 -0.253906 0.110532 125 128 129
0.132812 -0.253906 0.103186 136 137 134
0.136719 -0.253906 0.101437 151 141 141
-0.167969 -0.257812 -0.045537 197 193 185
-0.164062 -0.257812 -0.032155 194 191 187
-0.160156 -0.257812 -0.025355 168 165 164
-0.156250 -0.257812 -0.019291 164 162 161
-0.152344 -0.257812 -0.015008 164 164 163
-0.148438 -0.257812 -0.011521 160 161 161
-0.144531 -0.257812 -0.008434 157 158 158
-0.140625 -0.257812 -0.005575 150 152 152
-0.136719 -0.257812 -0.003176 152 153 153
-0.132812 -0.257812 -0.001514 154 155 154
-0.128906 -0.257812 -0.000139 150 151 151
-0.125000 -0.257812 0.001262 141 144 145
-0.121094 -0.257812 0.002438 138 141 141
-0.117188 -0.257812 0.003180 134 137 137
-0.113281 -0.257812 0.003783 133 136 136
-0.109375 -0.257812 0.004293 132 136 137
-0.105469 -0.257812 0.004289 129 133 135
-0.101562 -0.257812 0.003578 132 136 136
-0.097656 -0.257812 0.002608 131 135 133
-0.093750 -0.257812 0.001581 128 132 129
-0.089844 -0.257812 0.000436 125 129 126
-0.085938 -0.257812 -0.000912 114 119 116
-0.082031 -0.257812 -0.002466 101 107 105
-0.078125 -0.257812 -0.004020 88 96 96
-0.074219 -0.257812 -0.005266 83 92 93
-0.070312 -0.257812 -0.006072 91 99 100
-0.066406 -0.257812 -0.007071 89 95 97
-0.062500 -0.257812 -0.008012 90 97 96
-0.058594 -0.257812 -0.008915 114 118 115
-0.054688 -0.257812 -0.011377 94 95 97
-0.050781 -0.257812 -0.013819 67 66 71
-0.046875 -0.257812 -0.016837 116 111 109
-0.042969 -0.257812 -0.021190 114 110 108
-0.039062 -0.257812 -0.029514 51 53 57
-0.035156 -0.257812 -0.024533 66 68 70
-0.031250 -0.257812 0.103365 108 111 107
-0.027344 -0.257812 0.108996 123 127 123
-0.023438 -0.257812 0.118849 134 136 132
-0.019531 -0.257812 0.126862 131 132 128
-0.015625 -0.257812 0.134980 146 146 140
-0.011719 -0.257812 0.144150 173 169 162
-0.007812 -0.257812 0.149477 180 175 168
-0.003906 -0.257812 0.156152 178 173 165
0.000000 -0.257812 0.159758 185 178 170
0.003906 -0.257812 0.164431 188 182 174
0.007812 -0.257812 0.168641 184 178 172
0.011719 -0.257812 0.171474 180 175 171
0.015625 -0.257812 0.174516 178 174 170
0.019531 -0.257812 0.176506 174 171 168
0.023438 -0.257812 0.177388 166 164 162
0.027344 -0.257812 0.178137 164 163 161
0.031250 -0.257812 0.178750 165 165 163
0.035156 -0.257812 0.179164 158 158 157
0.039062 -0.257812 0.179515 149 151 149
0.042969 -0.257812 0.179692 151 153 151
0.046875 -0.257812 0.179698 150 152 149
0.050781 -0.257812 0.179580 146 148 147
0.054688 -0.257812 0.179317 146 148 146
0.058594 -0.257812 0.178811 144 147 146
0.062500 -0.257812 0.177961 146 148 148
0.066406 -0.257812 0.176654 138 140 141
0.070312 -0.257812 0.174876 135 139 139
0.074219 -0.257812 0.172821 145 148 148
0.078125 -0.257812 0.170703 142 144 146
0.082031 -0.257812 0.168378 139 142 143
0.085938 -0.257812 0.165790 128 132 133
0.089844 -0.257812 0.163079 123 127 127
0.093750 -0.257812 0.160335 129 132 131
0.097656 -0.257812 0.157890 120 125 125
0.101562 -0.257812 0.155592 115 121 122
0.105469 -0.257812 0.153455 103 111 114
0.109375 -0.257812 0.151199 118 126 125
0.113281 -0.257812 0.146662 149 156 153
0.117188 -0.257812 0.138224 142 148 149
0.121094 -0.257812 0.127332 114 121 122
0.125000 -0.257812 0.117271 94 101 104
0.128906 -0.257812 0.111001 135 137 136
0.132812 -0.257812 0.103781 149 148 145
0.136719 -0.257812 0.101147 133 128 131
0.140625 -0.257812 0.013874 196 182 177
-0.167969 -0.261719 -0.046383 197 193 186
-0.164062 -0.261719 -0.034581 193 190 188
-0.160156 -0.261719 -0.027375 168 164 163
-0.156250 -0.261719 -0.021136 163 160 159
-0.152344 -0.261719 -0.016666 164 164 163
-0.148438 -0.261719 -0.012874 160 161 161
-0.144531 -0.261719 -0.009724 159 161 160
-0.140625 -0.261719 -0.006830 150 152 152
-0.136719 -0.261719 -0.004368 146 148 148
-0.132812 -0.261719 -0.002612 149 150 150
-0.128906 -0.261719 -0.001142 145 147 147
-0.125000 -0.261719 0.000373 142 144 144
-0.121094 -0.261719 0.001657 141 144 143
-0.117188 -0.261719 0.002482 134 138 138
-0.113281 -0.261719 0.003161 134 138 138
-0.109375 -0.261719 0.003708 138 142 142
-0.105469 -0.261719 0.003704 140 144 143
-0.101562 -0.261719 0.002961 143 145 144
-0.097656 -0.261719 0.001952 133 136 134
-0.093750 -0.261719 0.000854 119 122 121
-0.089844 -0.261719 -0.000418 110 115 112
-0.085938 -0.261719 -0.001848 103 108 106
-0.082031 -0.261719 -0.003438 99 105 103
-0.078125 -0.261719 -0.004981 95 101 101
-0.074219 -0.261719 -0.006132 92 100 100
-0.070312 -0.261719 -0.006774 93 102 102
-0.066406 -0.261719 -0.007586 88 95 96
-0.062500 -0.261719 -0.008405 88 94 94
-0.058594 -0.261719 -0.009265 113 118 115
-0.054688 -0.261719 -0.011639 103 104 105
-0.050781 -0.261719 -0.013967 70 70 75
-0.046875 -0.261719 -0.016943 109 105 105
-0.042969 -0.261719 -0.021082 112 109 108
-0.039062 -0.261719 -0.028459 52 55 59
-0.035156 -0.261719 -0.028735 68 70 72
-0.031250 -0.261719 0.101247 116 116 113
-0.027344 -0.261719 0.108999 126 128 124
-0.023438 -0.261719 0.118599 129 131 127
-0.019531 -0.261719 0.126467 130 131 127
-0.015625 -0.261719 0.134591 145 145 139
-0.011719 -0.261719 0.143663 171 168 161
-0.007812 -0.261719 0.149347 182 176 169
-0.003906 -0.261719 0.156114 180 174 166
0.000000 -0.261719 0.159831 183 177 169
0.003906 -0.261719 0.164526 185 180 172
0.007812 -0.261719 0.168745 183 177 170
0.011719 -0.261719 0.171707 180 175 170
0.015625 -0.261719 0.174865 178 173 169
0.019531 -0.261719 0.176962 171 168 165
0.023438 -0.261719 0.177932 161 160 158
0.027344 -0.261719 0.178707 161 159 158
0.031250 -0.261719 0.179327 164 162 160
0.035156 -0.261719 0.179732 155 155 153
0.039062 -0.261719 0.180064 146 147 146
0.042969 -0.261719 0.180238 146 148 146
0.046875 -0.261719 0.180229 147 149 147
0.050781 -0.261719 0.180098 150 151 149
0.054688 -0.261719 0.179859 151 152 150
0.058594 -0.261719 0.179364 143 146 145
0.062500 -0.261719 0.178479 139 142 143
0.066406 -0.261719 0.177135 136 138 140
0.070312 -0.261719 0.175356 140 143 144
0.074219 -0.261719 0.173286 148 151 151
0.078125 -0.261719 0.171095 137 141 143
0.082031 -0.261719 0.168723 135 139 140
0.085938 -0.261719 0.166195 131 134 134
0.089844 -0.261719 0.163567 128 131 130
0.093750 -0.261719 0.160808 128 132 131
0.097656 -0.261719 0.158323 113 119 119
0.101562 -0.261719 0.156160 110 116 117
0.105469 -0.261719 0.154307 108 115 117
0.109375 -0.261719 0.152134 125 133 131
0.113281 -0.261719 0.147295 143 151 148
0.117188 -0.261719 0.138338 123 132 133
0.121094 -0.261719 0.127251 96 105 108
0.125000 -0.261719 0.117352 89 96 99
0.128906 -0.261719 0.111191 143 143 141
0.132812 -0.261719 0.104220 160 158 155
0.136719 -0.261719 0.100519 142 139 142
0.140625 -0.261719 0.040804 192 179 176
-0.167969 -0.265625 -0.046666 190 184 178
-0.164062 -0.265625 -0.036814 190 186 185
-0.160156 -0.265625 -0.029345 168 163 163
-0.156250 -0.265625 -0.023132 164 161 159
-0.152344 -0.265625 -0.018319 169 168 166
-0.148438 -0.265625 -0.014253 163 164 162
-0.144531 -0.265625 -0.011007 160 161 159
-0.140625 -0.265625 -0.007981 151 152 152
-0.136719 -0.265625 -0.005372 146 148 148
-0.132812 -0.265625 -0.003471 148 150 149
-0.128906 -0.265625 -0.001888 143 144 145
-0.125000 -0.265625 -0.000288 137 139 140
-0.121094 -0.265625 0.001054 137 141 141
-0.117188 -0.265625 0.001957 136 140 141
-0.113281 -0.265625 0.002691 142 146 146
-0.109375 -0.265625 0.003181 148 150 149
-0.105469 -0.265625 0.003028 142 144 143
-0.101562 -0.265625 0.002141 132 135 133
-0.097656 -0.265625 0.001062 120 123 122
-0.093750 -0.265625 -0.000025 110 114 113
-0.089844 -0.265625 -0.001280 105 110 108
-0.085938 -0.265625 -0.002683 103 108 106
-0.082031 -0.265625 -0.004229 102 109 106
-0.078125 -0.265625 -0.005769 97 104 103
-0.074219 -0.265625 -0.006887 95 102 102
-0.070312 -0.265625 -0.007404 101 108 107
-0.066406 -0.265625 -0.008060 98 105 104
-0.062500 -0.265625 -0.008741 94 101 99
-0.058594 -0.265625 -0.009550 116 119 117
-0.054688 -0.265625 -0.011916 114 113 114
-0.050781 -0.265625 -0.014252 81 79 84
-0.046875 -0.265625 -0.017259 112 108 107
-0.042969 -0.265625 -0.021285 112 110 108
-0.039062 -0.265625 -0.027748 52 55 59
-0.035156 -0.265625 -0.033709 69 71 73
-0.031250 -0.265625 0.097424 122 122 117
-0.027344 -0.265625 0.108854 129 131 126
-0.023438 -0.265625 0.118368 127 129 125
-0.019531 -0.265625 0.126230 133 135 130
-0.015625 -0.265625 0.134414 150 150 144
-0.011719 -0.265625 0.143466 169 166 159
-0.007812 -0.265625 0.149529 180 175 167
-0.003906 -0.265625 0.156229 182 176 168
0.000000 -0.265625 0.160101 184 178 170
0.003906 -0.265625 0.164780 185 179 171
0.007812 -0.265625 0.168956 182 176 169
0.011719 -0.265625 0.172002 179 174 168
0.015625 -0.265625 0.175239 176 172 168
0.019531 -0.265625 0.177415 169 166 163
0.023438 -0.265625 0.178453 160 159 157
0.027344 -0.265625 0.179232 159 158 157
0.031250 -0.265625 0.179855 160 159 157
0.035156 -0.265625 0.180257 153 153 151
0.039062 -0.265625 0.180569 143 145 144
0.042969 -0.265625 0.180725 141 143 142
0.046875 -0.265625 0.180689 143 145 143
0.050781 -0.265625 0.180548 146 148 146
0.054688 -0.265625 0.180344 147 149 147
0.058594 -0.265625 0.179910 140 143 143
0.062500 -0.265625 0.179069 139 143 144
0.066406 -0.265625 0.177708 137 140 142
0.070312 -0.265625 0.175882 141 144 146
0.074219 -0.265625 0.173752 145 149 150
0.078125 -0.265625 0.171487 133 138 140
0.082031 -0.265625 0.169080 135 140 140
0.085938 -0.265625 0.166568 135 139 138
0.089844 -0.265625 0.163939 131 135 133
0.093750 -0.265625 0.161151 132 136 133
0.097656 -0.265625 0.158681 113 120 120
0.101562 -0.265625 0.156625 103 110 112
0.105469 -0.265625 0.154982 103 109 113
0.109375 -0.265625 0.152920 122 129 129
0.113281 -0.265625 0.147894 133 142 140
0.117188 -0.265625 0.138571 112 121 124
0.121094 -0.265625 0.127297 93 101 105
0.125000 -0.265625 0.117443 92 99 100
0.128906 -0.265625 0.111202 141 140 136
0.132812 -0.265625 0.104290 162 157 154
0.136719 -0.265625 0.099234 161 155 156
0.140625 -0.265625 0.076371 197 184 181
-0.167969 -0.269531 -0.054095 194 190 182
-0.164062 -0.269531 -0.039634 189 185 183
-0.160156 -0.269531 -0.031535 166 161 161
-0.156250 -0.269531 -0.025311 160 157 155
-0.152344 -0.269531 -0.020124 170 168 165
-0.148438 -0.269531 -0.015691 165 165 162
-0.144531 -0.269531 -0.012169 159 159 156
-0.140625 -0.269531 -0.008876 152 153 151
-0.136719 -0.269531 -0.006066 151 151 151
-0.132812 -0.269531 -0.003973 152 153 152
-0.128906 -0.269531 -0.002239 144 146 147
-0.125000 -0.269531 -0.000556 139 143 144
-0.121094 -0.269531 0.000830 142 146 146
-0.117188 -0.269531 0.001700 147 150 150
-0.113281 -0.269531 0.002319 153 155 154
-0.109375 -0.269531 0.002673 146 149 147
-0.105469 -0.269531 0.002352 129 133 132
-0.101562 -0.269531 0.001343 116 120 120
-0.097656 -0.269531 0.000203 114 117 117
-0.093750 -0.269531 -0.000875 116 120 118
-0.089844 -0.269531 -0.002099 113 117 114
-0.085938 -0.269531 -0.003476 109 115 111
-0.082031 -0.269531 -0.004960 105 112 109
-0.078125 -0.269531 -0.006496 93 101 100
-0.074219 -0.269531 -0.007591 90 97 97
-0.070312 -0.269531 -0.007983 99 104 105
-0.066406 -0.269531 -0.008504 98 103 103
-0.062500 -0.269531 -0.009005 93 99 98
-0.058594 -0.269531 -0.009680 105 110 109
-0.054688 -0.269531 -0.012043 100 100 101
-0.050781 -0.269531 -0.014456 76 74 79
-0.046875 -0.269531 -0.017485 111 106 106
-0.042969 -0.269531 -0.021339 116 113 109
-0.039062 -0.269531 -0.027062 56 58 61
-0.035156 -0.269531 -0.038860 69 70 72
-0.031250 -0.269531 0.092060 120 118 114
-0.027344 -0.269531 0.108917 126 127 122
-0.023438 -0.269531 0.118249 125 127 122
-0.019531 -0.269531 0.126220 139 140 135
-0.015625 -0.269531 0.134436 160 159 153
-0.011719 -0.269531 0.143255 169 165 158
-0.007812 -0.269531 0.149684 176 171 162
-0.003906 -0.269531 0.156472 182 176 167
0.000000 -0.269531 0.160535 184 179 170
0.003906 -0.269531 0.165175 185 179 171
0.007812 -0.269531 0.169278 181 176 168
0.011719 -0.269531 0.172398 179 174 167
0.015625 -0.269531 0.175680 177 172 168
0.019531 -0.269531 0.177891 171 168 165
0.023438 -0.269531 0.178974 164 163 161
0.027344 -0.269531 0.179749 161 160 159
0.031250 -0.269531 0.180369 160 159 158
0.035156 -0.269531 0.180746 156 157 155
0.039062 -0.269531 0.181022 148 150 149
0.042969 -0.269531 0.181126 143 145 145
0.046875 -0.269531 0.181052 143 145 143
0.050781 -0.269531 0.180930 140 142 141
0.054688 -0.269531 0.180737 136 139 138
0.058594 -0.269531 0.180336 139 142 142
0.062500 -0.269531 0.179575 150 153 154
0.066406 -0.269531 0.178233 146 150 151
0.070312 -0.269531 0.176327 141 145 146
0.074219 -0.269531 0.174111 141 146 147
0.078125 -0.269531 0.171835 132 138 140
0.082031 -0.269531 0.169450 136 141 142
0.085938 -0.269531 0.166919 133 138 137
0.089844 -0.269531 0.164250 125 131 129
0.093750 -0.269531 0.161490 128 133 131
0.097656 -0.269531 0.159109 114 122 121
0.101562 -0.269531 0.157159 97 105 107
0.105469 -0.269531 0.155740 98 105 109
0.109375 -0.269531 0.153821 125 132 132
0.113281 -0.269531 0.148599 137 144 142
0.117188 -0.269531 0.139046 118 126 128
0.121094 -0.269531 0.127629 100 107 111
0.125000 -0.269531 0.117737 93 98 99
0.128906 -0.269531 0.111467 117 116 116
0.132812 -0.269531 0.104492 135 129 130
0.136719 -0.269531 0.098204 159 153 152
0.140625 -0.269531 0.089191 193 180 178
-0.167969 -0.273438 -0.057317 182 179 170
-0.164062 -0.273438 -0.042522 181 178 176
-0.160156 -0.273438 -0.033605 166 163 162
-0.156250 -0.273438 -0.027006 160 157 155
-0.152344 -0.273438 -0.021667 169 166 163
-0.148438 -0.273438 -0.016980 164 163 160
-0.144531 -0.273438 -0.013160 157 156 153
-0.140625 -0.273438 -0.009615 151 151 149
-0.136719 -0.273438 -0.006664 152 152 151
-0.132812 -0.273438 -0.004459 154 155 155
-0.128906 -0.273438 -0.002580 150 152 153
-0.125000 -0.273438 -0.000805 153 156 156
-0.121094 -0.273438 0.000599 158 160 159
-0.117188 -0.273438 0.001375 158 160 158
-0.113281 -0.273438 0.001823 153 155 153
-0.109375 -0.273438 0.002097 138 141 140
-0.105469 -0.273438 0.001786 127 130 130
-0.101562 -0.273438 0.000827 119 122 122
-0.097656 -0.273438 -0.000262 117 121 120
-0.093750 -0.273438 -0.001321 119 122 121
-0.089844 -0.273438 -0.002571 111 115 114
-0.085938 -0.273438 -0.004011 106 112 110
-0.082031 -0.273438 -0.005548 103 110 108
-0.078125 -0.273438 -0.007137 91 99 97
-0.074219 -0.273438 -0.008214 90 97 96
-0.070312 -0.273438 -0.008485 102 107 107
-0.066406 -0.273438 -0.008871 102 106 105
-0.062500 -0.273438 -0.009205 102 107 105
-0.058594 -0.273438 -0.009772 111 116 114
-0.054688 -0.273438 -0.012109 96 97 98
-0.050781 -0.273438 -0.014589 69 68 73
-0.046875 -0.273438 -0.017698 98 96 96
-0.042969 -0.273438 -0.021188 108 104 101
-0.039062 -0.273438 -0.026161 55 56 59
-0.035156 -0.273438 -0.041972 64 65 67
-0.031250 -0.273438 0.084946 111 111 108
-0.027344 -0.273438 0.109095 126 128 122
-0.023438 -0.273438 0.117994 132 135 129
-0.019531 -0.273438 0.126099 151 153 146
-0.015625 -0.273438 0.134354 169 168 162
-0.011719 -0.273438 0.142942 169 166 159
