ply
    format ascii 1.0
    element vertex 80066
    property float x
    property float y
    property float z
    property uchar red
    property uchar green
    property uchar blue
    end_header
-0.023438 -0.265625 0.106893 127 122 98
-0.019531 -0.265625 0.104391 127 121 98
-0.015625 -0.265625 0.102242 129 122 99
-0.011719 -0.265625 0.100775 135 129 105
-0.007812 -0.265625 0.099824 142 136 111
-0.003906 -0.265625 0.098812 146 141 113
0.000000 -0.265625 0.097714 156 151 120
0.003906 -0.265625 0.095519 167 158 125
0.007812 -0.265625 0.094973 173 165 128
0.011719 -0.265625 0.089621 186 183 145
0.015625 -0.265625 0.086707 120 119 94
0.023438 -0.265625 -0.034254 168 124 114
0.027344 -0.265625 -0.084273 84 51 50
0.031250 -0.265625 -0.068104 17 12 12
0.035156 -0.265625 -0.062020 21 16 14
0.039062 -0.265625 -0.053560 20 16 12
0.042969 -0.265625 -0.042851 25 21 15
0.046875 -0.265625 -0.032049 37 32 22
0.050781 -0.265625 -0.011135 48 43 31
0.054688 -0.265625 -0.000363 61 56 42
0.058594 -0.265625 0.004706 64 59 45
0.062500 -0.265625 0.008668 62 55 42
0.066406 -0.265625 0.012369 58 50 37
0.070312 -0.265625 0.016052 67 59 43
0.074219 -0.265625 0.019263 77 69 52
0.078125 -0.265625 0.021957 84 76 58
0.082031 -0.265625 0.023619 95 86 66
0.085938 -0.265625 0.024427 97 89 71
0.089844 -0.265625 0.024873 98 91 74
0.093750 -0.265625 0.025396 100 93 76
0.097656 -0.265625 0.025788 97 91 76
0.101562 -0.265625 0.026150 99 91 77
0.105469 -0.265625 0.026409 104 94 81
0.109375 -0.265625 0.026750 102 93 81
0.113281 -0.265625 0.027108 101 92 80
0.117188 -0.265625 0.027517 103 93 82
0.121094 -0.265625 0.027943 103 93 82
0.125000 -0.265625 0.028256 106 96 83
0.128906 -0.265625 0.028392 106 96 82
0.132812 -0.265625 0.028199 107 97 83
0.136719 -0.265625 0.027851 110 100 86
0.140625 -0.265625 0.027437 108 99 84
0.144531 -0.265625 0.026721 109 98 84
0.148438 -0.265625 0.025560 112 101 85
0.152344 -0.265625 0.024168 109 98 83
0.156250 -0.265625 0.022663 106 95 81
0.160156 -0.265625 0.020817 107 95 82
0.164062 -0.265625 0.018551 108 94 80
0.167969 -0.265625 0.016413 102 88 74
0.171875 -0.265625 0.013884 90 80 64
0.175781 -0.265625 0.010849 130 114 93
0.179688 -0.265625 0.006461 178 162 143
0.183594 -0.265625 -0.000273 146 140 120
0.187500 -0.265625 -0.018269 112 115 93
-0.167969 -0.269531 0.064195 46 37 30
-0.164062 -0.269531 0.068694 49 41 32
-0.160156 -0.269531 0.073997 63 57 43
-0.156250 -0.269531 0.078652 66 60 45
-0.152344 -0.269531 0.085458 75 67 51
-0.148438 -0.269531 0.093350 61 52 41
-0.144531 -0.269531 0.100251 56 47 37
-0.140625 -0.269531 0.106006 69 61 48
-0.136719 -0.269531 0.110403 69 64 52
-0.132812 -0.269531 0.113027 80 75 58
-0.128906 -0.269531 0.115116 95 87 66
-0.125000 -0.269531 0.117038 97 89 67
-0.121094 -0.269531 0.118389 102 93 71
-0.117188 -0.269531 0.119176 100 92 74
-0.113281 -0.269531 0.119734 95 89 73
-0.109375 -0.269531 0.120333 90 84 70
-0.105469 -0.269531 0.120581 82 76 63
-0.101562 -0.269531 0.120495 77 71 57
-0.097656 -0.269531 0.120400 74 66 52
-0.093750 -0.269531 0.120354 72 63 47
-0.089844 -0.269531 0.120565 72 62 44
-0.085938 -0.269531 0.121205 69 60 42
-0.082031 -0.269531 0.122017 68 59 43
-0.078125 -0.269531 0.122683 67 60 46
-0.074219 -0.269531 0.123109 69 63 51
-0.070312 -0.269531 0.123387 73 68 56
-0.066406 -0.269531 0.123503 81 76 63
-0.062500 -0.269531 0.123368 94 88 71
-0.058594 -0.269531 0.122832 108 101 79
-0.054688 -0.269531 0.121945 129 120 93
-0.050781 -0.269531 0.120788 142 135 106
-0.046875 -0.269531 0.119509 146 139 112
-0.042969 -0.269531 0.117902 146 141 115
-0.039062 -0.269531 0.115912 142 137 113
-0.035156 -0.269531 0.113873 139 135 111
-0.031250 -0.269531 0.112017 138 133 109
-0.027344 -0.269531 0.109948 133 129 105
-0.023438 -0.269531 0.107214 134 129 104
-0.019531 -0.269531 0.104536 135 129 102
-0.015625 -0.269531 0.102239 137 131 102
-0.011719 -0.269531 0.100706 142 136 107
-0.007812 -0.269531 0.099624 148 143 113
-0.003906 -0.269531 0.098367 152 149 117
0.000000 -0.269531 0.097239 164 161 126
0.003906 -0.269531 0.094970 175 167 132
0.007812 -0.269531 0.093387 175 167 129
0.011719 -0.269531 0.087547 195 190 152
0.015625 -0.269531 0.081057 135 127 100
0.023438 -0.269531 -0.030806 60 49 44
0.027344 -0.269531 -0.084134 47 37 33
0.031250 -0.269531 -0.068368 20 16 15
0.035156 -0.269531 -0.062377 26 21 16
0.039062 -0.269531 -0.054222 22 17 13
0.042969 -0.269531 -0.043699 27 23 16
0.046875 -0.269531 -0.032742 47 40 27
0.050781 -0.269531 -0.012228 59 51 37
0.054688 -0.269531 -0.002105 68 61 44
0.058594 -0.269531 0.002371 66 59 43
0.062500 -0.269531 0.006002 56 48 36
0.066406 -0.269531 0.009640 49 41 29
0.070312 -0.269531 0.013591 61 51 35
0.074219 -0.269531 0.017306 69 61 43
0.078125 -0.269531 0.020383 69 63 46
0.082031 -0.269531 0.022294 79 71 54
0.085938 -0.269531 0.023238 89 80 64
0.089844 -0.269531 0.023785 96 88 71
0.093750 -0.269531 0.024437 102 96 79
0.097656 -0.269531 0.025037 100 95 81
0.101562 -0.269531 0.025490 96 90 77
0.105469 -0.269531 0.025776 99 91 79
0.109375 -0.269531 0.026099 98 90 79
0.113281 -0.269531 0.026377 99 91 80
0.117188 -0.269531 0.026733 100 91 81
0.121094 -0.269531 0.027148 98 89 80
0.125000 -0.269531 0.027465 101 92 80
0.128906 -0.269531 0.027522 103 93 80
0.132812 -0.269531 0.027253 108 98 84
0.136719 -0.269531 0.026889 111 101 86
0.140625 -0.269531 0.026453 107 97 83
0.144531 -0.269531 0.025673 107 97 83
0.148438 -0.269531 0.024404 109 99 83
0.152344 -0.269531 0.022832 108 97 81
0.156250 -0.269531 0.021283 109 98 83
0.160156 -0.269531 0.019664 109 98 82
0.164062 -0.269531 0.017397 111 96 79
0.167969 -0.269531 0.014905 110 94 76
0.171875 -0.269531 0.012646 115 100 78
0.175781 -0.269531 0.010195 173 158 126
0.179688 -0.269531 0.004554 191 184 154
0.183594 -0.269531 -0.005942 142 147 121
-0.167969 -0.273438 0.060196 34 26 22
-0.164062 -0.273438 0.066348 34 27 22
-0.160156 -0.273438 0.070977 48 41 30
-0.156250 -0.273438 0.075694 56 49 37
-0.152344 -0.273438 0.083570 70 63 48
-0.148438 -0.273438 0.092417 57 50 38
-0.144531 -0.273438 0.099654 48 40 31
-0.140625 -0.273438 0.105581 63 53 43
-0.136719 -0.273438 0.110217 69 62 50
-0.132812 -0.273438 0.112972 75 70 54
-0.128906 -0.273438 0.115142 86 78 59
-0.125000 -0.273438 0.117172 93 84 62
-0.121094 -0.273438 0.118685 102 91 69
-0.117188 -0.273438 0.119710 101 93 73
-0.113281 -0.273438 0.120519 98 91 73
-0.109375 -0.273438 0.121339 96 90 73
-0.105469 -0.273438 0.121633 92 86 71
-0.101562 -0.273438 0.121425 88 81 67
-0.097656 -0.273438 0.121107 83 76 61
-0.093750 -0.273438 0.120747 78 70 54
-0.089844 -0.273438 0.120608 74 66 49
-0.085938 -0.273438 0.120918 71 63 45
-0.082031 -0.273438 0.121415 72 63 47
-0.078125 -0.273438 0.121830 72 64 49
-0.074219 -0.273438 0.122153 71 64 51
-0.070312 -0.273438 0.122461 69 64 51
-0.066406 -0.273438 0.122686 71 66 54
-0.062500 -0.273438 0.122719 77 72 59
-0.058594 -0.273438 0.122415 86 81 65
-0.054688 -0.273438 0.121759 102 98 78
-0.050781 -0.273438 0.120856 116 112 90
-0.046875 -0.273438 0.119866 125 122 100
-0.042969 -0.273438 0.118421 132 129 107
-0.039062 -0.273438 0.116370 132 128 106
-0.035156 -0.273438 0.114167 130 126 104
-0.031250 -0.273438 0.112128 128 125 102
-0.027344 -0.273438 0.109934 129 125 101
-0.023438 -0.273438 0.107209 132 127 101
-0.019531 -0.273438 0.104524 133 127 98
-0.015625 -0.273438 0.102192 135 129 97
-0.011719 -0.273438 0.100644 139 134 100
-0.007812 -0.273438 0.099426 146 142 107
-0.003906 -0.273438 0.097998 152 148 112
0.000000 -0.273438 0.096609 164 160 122
0.003906 -0.273438 0.093983 179 170 131
0.007812 -0.273438 0.091617 178 168 127
0.011719 -0.273438 0.085453 206 197 157
0.015625 -0.273438 0.075048 170 157 124
0.023438 -0.273438 -0.032493 22 21 19
0.027344 -0.273438 -0.083999 30 26 21
0.031250 -0.273438 -0.068729 20 17 14
0.035156 -0.273438 -0.062632 26 22 16
0.039062 -0.273438 -0.054524 25 21 15
0.042969 -0.273438 -0.044350 36 30 21
0.046875 -0.273438 -0.033797 60 51 35
0.050781 -0.273438 -0.015007 61 54 38
0.054688 -0.273438 -0.005155 62 56 40
0.058594 -0.273438 -0.000351 60 55 39
0.062500 -0.273438 0.003710 50 44 31
0.066406 -0.273438 0.007605 42 35 24
0.070312 -0.273438 0.011551 50 42 28
0.074219 -0.273438 0.015426 62 53 36
0.078125 -0.273438 0.018770 63 57 40
0.082031 -0.273438 0.020795 69 63 47
0.085938 -0.273438 0.021669 74 66 51
0.089844 -0.273438 0.022111 75 67 55
0.093750 -0.273438 0.022811 93 87 71
0.097656 -0.273438 0.023634 111 104 87
0.101562 -0.273438 0.024296 108 100 86
0.105469 -0.273438 0.024809 102 95 82
0.109375 -0.273438 0.025280 95 90 78
0.113281 -0.273438 0.025581 96 89 78
0.117188 -0.273438 0.025959 100 92 81
0.121094 -0.273438 0.026396 100 91 81
0.125000 -0.273438 0.026737 101 92 81
0.128906 -0.273438 0.026777 100 91 79
0.132812 -0.273438 0.026416 104 94 80
0.136719 -0.273438 0.025967 106 96 82
0.140625 -0.273438 0.025498 104 95 80
0.144531 -0.273438 0.024644 108 98 83
0.148438 -0.273438 0.023202 108 99 82
0.152344 -0.273438 0.021398 105 96 80
0.156250 -0.273438 0.019502 106 97 81
0.160156 -0.273438 0.017838 105 94 79
0.164062 -0.273438 0.015983 105 91 75
0.167969 -0.273438 0.013761 122 106 84
0.171875 -0.273438 0.012138 160 147 112
0.175781 -0.273438 0.008890 194 187 146
0.179688 -0.273438 0.002356 195 196 162
0.183594 -0.273438 -0.014795 213 218 200
-0.167969 -0.277344 0.060572 17 12 11
-0.164062 -0.277344 0.063277 18 14 12
-0.160156 -0.277344 0.067923 29 24 18
-0.156250 -0.277344 0.072360 38 32 25
-0.152344 -0.277344 0.080896 61 54 42
-0.148438 -0.277344 0.091208 65 58 45
-0.144531 -0.277344 0.099155 46 41 32
-0.140625 -0.277344 0.105276 51 43 34
-0.136719 -0.277344 0.110088 65 55 44
-0.132812 -0.277344 0.113018 75 68 52
-0.128906 -0.277344 0.115280 81 74 56
-0.125000 -0.277344 0.117312 89 78 58
-0.121094 -0.277344 0.118858 100 88 66
-0.117188 -0.277344 0.120093 103 94 72
-0.113281 -0.277344 0.121168 102 95 75
-0.109375 -0.277344 0.122199 101 94 76
-0.105469 -0.277344 0.122581 97 91 75
-0.101562 -0.277344 0.122325 93 87 71
-0.097656 -0.277344 0.121868 89 82 67
-0.093750 -0.277344 0.121363 85 78 61
-0.089844 -0.277344 0.121045 79 72 54
-0.085938 -0.277344 0.121095 74 67 50
-0.082031 -0.277344 0.121292 75 68 51
-0.078125 -0.277344 0.121420 77 70 54
-0.074219 -0.277344 0.121519 77 70 55
-0.070312 -0.277344 0.121720 76 69 55
-0.066406 -0.277344 0.121903 76 70 56
-0.062500 -0.277344 0.121927 77 71 59
-0.058594 -0.277344 0.121661 81 76 63
-0.054688 -0.277344 0.121062 88 86 70
-0.050781 -0.277344 0.120294 97 95 78
-0.046875 -0.277344 0.119481 111 108 90
-0.042969 -0.277344 0.118168 122 118 98
-0.039062 -0.277344 0.116115 123 118 98
-0.035156 -0.277344 0.113841 120 115 94
-0.031250 -0.277344 0.111772 118 114 93
-0.027344 -0.277344 0.109635 123 119 96
-0.023438 -0.277344 0.107117 130 125 99
-0.019531 -0.277344 0.104585 136 129 98
-0.015625 -0.277344 0.102323 143 135 100
-0.011719 -0.277344 0.100816 147 140 103
-0.007812 -0.277344 0.099470 153 147 109
-0.003906 -0.277344 0.097983 156 151 113
0.000000 -0.277344 0.095996 163 159 120
0.003906 -0.277344 0.092946 178 168 129
0.007812 -0.277344 0.090288 179 166 125
0.011719 -0.277344 0.082446 204 193 152
0.015625 -0.277344 0.069407 182 167 131
0.023438 -0.277344 -0.040739 24 21 20
0.027344 -0.277344 -0.084959 32 24 20
0.031250 -0.277344 -0.069393 18 15 12
0.035156 -0.277344 -0.063129 27 24 16
0.039062 -0.277344 -0.055119 37 32 22
0.042969 -0.277344 -0.045363 48 41 28
0.046875 -0.277344 -0.035799 60 52 35
0.050781 -0.277344 -0.019806 50 45 32
0.054688 -0.277344 -0.009881 49 45 32
0.058594 -0.277344 -0.003497 51 47 33
0.062500 -0.277344 0.001690 45 41 28
0.066406 -0.277344 0.006123 39 34 23
0.070312 -0.277344 0.010057 44 38 25
0.074219 -0.277344 0.013784 59 51 34
0.078125 -0.277344 0.017124 69 61 42
0.082031 -0.277344 0.019157 74 67 48
0.085938 -0.277344 0.019978 62 56 42
0.089844 -0.277344 0.020301 44 40 32
0.093750 -0.277344 0.020912 47 42 35
0.097656 -0.277344 0.021627 62 54 46
0.101562 -0.277344 0.022317 71 61 54
0.105469 -0.277344 0.022979 85 74 63
0.109375 -0.277344 0.023697 94 85 72
0.113281 -0.277344 0.024427 99 91 80
0.117188 -0.277344 0.025040 100 91 81
0.121094 -0.277344 0.025455 97 88 79
0.125000 -0.277344 0.025868 98 89 80
0.128906 -0.277344 0.026007 97 88 77
0.132812 -0.277344 0.025629 97 88 76
0.136719 -0.277344 0.025124 99 89 76
0.140625 -0.277344 0.024661 100 90 75
0.144531 -0.277344 0.023751 107 97 81
0.148438 -0.277344 0.022120 107 97 81
0.152344 -0.277344 0.020233 104 94 79
0.156250 -0.277344 0.018173 106 96 81
0.160156 -0.277344 0.015952 109 97 81
0.164062 -0.277344 0.013845 118 105 86
0.167969 -0.277344 0.012321 150 137 107
0.171875 -0.277344 0.010429 177 169 129
0.175781 -0.277344 0.006788 148 145 110
0.179688 -0.277344 -0.008499 124 126 107
-0.167969 -0.281250 0.053725 12 8 9
-0.164062 -0.281250 0.060601 13 9 9
-0.160156 -0.281250 0.065009 21 17 14
-0.156250 -0.281250 0.069349 24 21 17
-0.152344 -0.281250 0.077934 43 38 31
-0.148438 -0.281250 0.089999 76 68 54
-0.144531 -0.281250 0.098939 56 51 41
-0.140625 -0.281250 0.105242 36 31 26
-0.136719 -0.281250 0.110028 45 37 29
-0.132812 -0.281250 0.112987 66 57 44
-0.128906 -0.281250 0.115275 78 69 52
-0.125000 -0.281250 0.117243 84 73 56
-0.121094 -0.281250 0.118822 92 82 62
-0.117188 -0.281250 0.120303 97 88 67
-0.113281 -0.281250 0.121654 100 93 72
-0.109375 -0.281250 0.122893 102 95 76
-0.105469 -0.281250 0.123389 100 94 76
-0.101562 -0.281250 0.123130 95 88 72
-0.097656 -0.281250 0.122605 89 83 67
-0.093750 -0.281250 0.122032 86 79 63
-0.089844 -0.281250 0.121578 81 74 57
-0.085938 -0.281250 0.121416 77 71 54
-0.082031 -0.281250 0.121357 80 73 57
-0.078125 -0.281250 0.121209 80 74 58
-0.074219 -0.281250 0.121085 80 72 58
-0.070312 -0.281250 0.121166 81 73 58
-0.066406 -0.281250 0.121275 84 76 60
-0.062500 -0.281250 0.121230 85 78 63
-0.058594 -0.281250 0.120939 86 81 66
-0.054688 -0.281250 0.120343 88 85 70
-0.050781 -0.281250 0.119583 91 90 75
-0.046875 -0.281250 0.118757 100 98 82
-0.042969 -0.281250 0.117426 108 105 87
-0.039062 -0.281250 0.115375 112 107 88
-0.035156 -0.281250 0.113133 111 108 87
-0.031250 -0.281250 0.111158 112 110 88
-0.027344 -0.281250 0.109214 125 121 97
-0.023438 -0.281250 0.107018 139 134 105
-0.019531 -0.281250 0.104790 151 142 110
-0.015625 -0.281250 0.102673 162 151 114
-0.011719 -0.281250 0.101184 164 154 115
-0.007812 -0.281250 0.099668 165 156 117
-0.003906 -0.281250 0.098104 169 162 124
0.000000 -0.281250 0.095518 173 167 130
0.003906 -0.281250 0.092974 180 170 133
0.007812 -0.281250 0.089075 180 165 127
0.011719 -0.281250 0.081696 199 183 143
0.015625 -0.281250 0.070364 177 156 118
0.023438 -0.281250 -0.032027 31 24 21
0.027344 -0.281250 -0.086061 37 27 21
0.031250 -0.281250 -0.070159 21 17 13
0.035156 -0.281250 -0.063790 31 28 18
0.039062 -0.281250 -0.056125 44 39 25
0.042969 -0.281250 -0.047048 42 37 25
0.046875 -0.281250 -0.038464 42 37 25
0.050781 -0.281250 -0.024696 35 32 23
0.054688 -0.281250 -0.014267 37 34 24
0.058594 -0.281250 -0.006424 43 39 28
0.062500 -0.281250 0.000011 44 40 28
0.066406 -0.281250 0.005138 41 37 25
0.070312 -0.281250 0.009040 44 39 26
0.074219 -0.281250 0.012551 58 51 33
0.078125 -0.281250 0.015769 73 65 43
0.082031 -0.281250 0.017818 83 75 51
0.085938 -0.281250 0.018712 79 70 48
0.089844 -0.281250 0.019120 59 52 37
0.093750 -0.281250 0.019719 49 42 33
0.097656 -0.281250 0.020222 43 37 32
0.101562 -0.281250 0.020548 37 31 29
0.105469 -0.281250 0.020780 45 37 33
0.109375 -0.281250 0.021389 68 56 48
0.113281 -0.281250 0.022479 94 81 70
0.117188 -0.281250 0.023474 102 92 81
0.121094 -0.281250 0.024155 89 82 74
0.125000 -0.281250 0.024846 87 81 73
0.128906 -0.281250 0.025176 90 84 74
0.132812 -0.281250 0.024910 89 82 71
0.136719 -0.281250 0.024452 92 83 71
0.140625 -0.281250 0.023890 94 84 70
0.144531 -0.281250 0.022799 98 88 72
0.148438 -0.281250 0.020976 101 90 75
0.152344 -0.281250 0.019037 105 93 81
0.156250 -0.281250 0.016930 108 97 83
0.160156 -0.281250 0.014734 117 105 87
0.164062 -0.281250 0.012909 145 131 106
0.167969 -0.281250 0.010521 163 155 119
0.171875 -0.281250 0.006317 141 142 105
0.175781 -0.281250 -0.005547 91 94 80
-0.164062 -0.285156 0.059790 11 8 9
-0.160156 -0.285156 0.062411 19 15 13
-0.156250 -0.285156 0.067131 21 19 17
-0.152344 -0.285156 0.075521 35 32 27
-0.148438 -0.285156 0.088840 81 73 57
-0.144531 -0.285156 0.098568 71 66 53
-0.140625 -0.285156 0.105244 33 29 25
-0.136719 -0.285156 0.110160 32 26 22
-0.132812 -0.285156 0.113052 54 46 36
-0.128906 -0.285156 0.115185 69 61 47
-0.125000 -0.285156 0.117039 73 64 49
-0.121094 -0.285156 0.118690 79 71 54
-0.117188 -0.285156 0.120465 89 82 63
-0.113281 -0.285156 0.122123 98 91 71
-0.109375 -0.285156 0.123559 101 94 74
-0.105469 -0.285156 0.124164 102 95 76
-0.101562 -0.285156 0.123939 99 92 75
-0.097656 -0.285156 0.123416 92 86 69
-0.093750 -0.285156 0.122850 86 79 64
-0.089844 -0.285156 0.122307 80 74 58
-0.085938 -0.285156 0.121949 78 72 56
-0.082031 -0.285156 0.121639 80 73 57
-0.078125 -0.285156 0.121246 79 72 58
-0.074219 -0.285156 0.120934 78 72 57
-0.070312 -0.285156 0.120858 81 74 59
-0.066406 -0.285156 0.120801 84 77 61
-0.062500 -0.285156 0.120579 85 78 64
-0.058594 -0.285156 0.120173 87 82 68
-0.054688 -0.285156 0.119529 90 87 73
-0.050781 -0.285156 0.118729 94 92 77
-0.046875 -0.285156 0.117867 99 97 81
-0.042969 -0.285156 0.116553 104 101 84
-0.039062 -0.285156 0.114576 111 107 88
-0.035156 -0.285156 0.112435 114 111 89
-0.031250 -0.285156 0.110591 116 114 91
-0.027344 -0.285156 0.108802 130 127 101
-0.023438 -0.285156 0.106854 144 138 109
-0.019531 -0.285156 0.104911 155 145 112
-0.015625 -0.285156 0.102932 164 153 116
-0.011719 -0.285156 0.101441 166 155 117
-0.007812 -0.285156 0.099822 165 155 118
-0.003906 -0.285156 0.098177 174 166 131
0.000000 -0.285156 0.094669 180 173 141
0.003906 -0.285156 0.093090 182 171 138
0.007812 -0.285156 0.087262 189 174 139
0.011719 -0.285156 0.083521 194 176 137
0.023438 -0.285156 -0.024661 36 28 22
0.027344 -0.285156 -0.086442 38 27 19
0.031250 -0.285156 -0.069796 23 19 13
0.035156 -0.285156 -0.064042 25 22 15
0.039062 -0.285156 -0.056857 27 24 16
0.042969 -0.285156 -0.048427 21 18 14
0.046875 -0.285156 -0.040619 19 17 13
0.050781 -0.285156 -0.029390 19 16 13
0.054688 -0.285156 -0.018298 23 20 15
0.058594 -0.285156 -0.009169 33 30 21
0.062500 -0.285156 -0.001498 45 41 28
0.066406 -0.285156 0.004323 49 44 30
0.070312 -0.285156 0.008239 48 43 28
0.074219 -0.285156 0.011564 54 48 31
0.078125 -0.285156 0.014664 63 57 38
0.082031 -0.285156 0.016678 74 67 45
0.085938 -0.285156 0.017624 85 75 52
0.089844 -0.285156 0.018134 91 80 55
0.093750 -0.285156 0.018705 98 85 60
0.097656 -0.285156 0.019088 94 82 62
0.101562 -0.285156 0.018998 64 57 46
0.105469 -0.285156 0.018549 43 37 30
0.109375 -0.285156 0.018628 41 34 27
0.113281 -0.285156 0.019397 57 45 38
0.117188 -0.285156 0.020633 82 67 57
0.121094 -0.285156 0.021978 85 75 65
0.125000 -0.285156 0.023298 89 82 72
0.128906 -0.285156 0.024132 93 88 78
0.132812 -0.285156 0.024120 89 84 74
0.136719 -0.285156 0.023806 94 85 72
0.140625 -0.285156 0.023243 95 85 69
0.144531 -0.285156 0.022075 93 82 66
0.148438 -0.285156 0.020188 105 92 76
0.152344 -0.285156 0.018120 119 104 89
0.156250 -0.285156 0.015538 109 97 85
0.160156 -0.285156 0.013422 110 102 87
0.164062 -0.285156 0.011036 133 124 98
0.167969 -0.285156 0.010077 136 131 97
0.171875 -0.285156 -0.007016 127 125 99
-0.164062 -0.289062 0.061657 15 12 13
-0.160156 -0.289062 0.061288 18 15 13
-0.156250 -0.289062 0.066414 22 19 17
-0.152344 -0.289062 0.074401 34 29 25
-0.148438 -0.289062 0.088113 70 62 48
-0.144531 -0.289062 0.098324 71 64 51
-0.140625 -0.289062 0.105441 38 33 28
-0.136719 -0.289062 0.110388 33 28 23
-0.132812 -0.289062 0.113027 52 45 35
-0.128906 -0.289062 0.114978 65 58 46
-0.125000 -0.289062 0.116750 61 56 43
-0.121094 -0.289062 0.118419 62 58 45
-0.117188 -0.289062 0.120365 79 73 57
-0.113281 -0.289062 0.122290 96 89 70
-0.109375 -0.289062 0.123974 100 93 73
-0.105469 -0.289062 0.124769 101 93 74
-0.101562 -0.289062 0.124679 101 94 76
-0.097656 -0.289062 0.124261 98 91 73
-0.093750 -0.289062 0.123773 92 86 69
-0.089844 -0.289062 0.123187 86 80 64
-0.085938 -0.289062 0.122630 82 75 59
-0.082031 -0.289062 0.122062 80 73 58
-0.078125 -0.289062 0.121473 77 71 57
-0.074219 -0.289062 0.120983 76 71 56
-0.070312 -0.289062 0.120680 78 72 58
-0.066406 -0.289062 0.120364 80 74 60
-0.062500 -0.289062 0.119909 81 76 62
-0.058594 -0.289062 0.119371 85 80 66
-0.054688 -0.289062 0.118708 90 87 73
-0.050781 -0.289062 0.117931 95 92 78
-0.046875 -0.289062 0.117117 99 97 81
-0.042969 -0.289062 0.115897 104 101 85
-0.039062 -0.289062 0.114038 115 111 91
-0.035156 -0.289062 0.112029 124 120 96
-0.031250 -0.289062 0.110312 128 124 98
-0.027344 -0.289062 0.108583 136 131 103
-0.023438 -0.289062 0.106715 144 136 106
-0.019531 -0.289062 0.104894 152 141 109
-0.015625 -0.289062 0.102987 160 148 113
-0.011719 -0.289062 0.101495 165 153 118
-0.007812 -0.289062 0.099770 163 154 120
-0.003906 -0.289062 0.097817 174 167 135
0.000000 -0.289062 0.093958 180 173 144
0.003906 -0.289062 0.093291 182 172 141
0.007812 -0.289062 0.086004 203 191 157
0.011719 -0.289062 0.089074 183 170 130
0.023438 -0.289062 -0.023275 45 38 29
0.027344 -0.289062 -0.086422 26 19 13
0.031250 -0.289062 -0.069867 20 16 11
0.035156 -0.289062 -0.064614 18 16 11
0.039062 -0.289062 -0.057800 17 16 11
0.042969 -0.289062 -0.049763 14 12 10
0.046875 -0.289062 -0.042068 14 11 10
0.050781 -0.289062 -0.032251 14 12 10
0.054688 -0.289062 -0.021173 17 15 12
0.058594 -0.289062 -0.011262 31 27 20
0.062500 -0.289062 -0.002853 50 45 31
0.066406 -0.289062 0.003269 53 47 33
0.070312 -0.289062 0.007073 49 44 29
0.074219 -0.289062 0.010242 53 47 31
0.078125 -0.289062 0.013284 60 54 35
0.082031 -0.289062 0.015338 68 61 41
0.085938 -0.289062 0.016381 73 64 44
0.089844 -0.289062 0.016979 73 64 45
0.093750 -0.289062 0.017511 81 71 51
0.097656 -0.289062 0.017805 95 82 61
0.101562 -0.289062 0.017657 93 80 61
0.105469 -0.289062 0.017182 73 64 47
0.109375 -0.289062 0.016943 46 39 29
0.113281 -0.289062 0.016995 32 25 21
0.117188 -0.289062 0.017853 39 30 27
0.121094 -0.289062 0.019328 62 50 43
0.125000 -0.289062 0.021061 90 78 66
0.128906 -0.289062 0.022429 97 90 78
0.132812 -0.289062 0.022765 91 85 74
0.136719 -0.289062 0.022716 92 84 69
0.140625 -0.289062 0.022594 91 81 64
0.144531 -0.289062 0.021847 92 81 66
0.148438 -0.289062 0.019669 118 103 83
0.152344 -0.289062 0.016917 127 108 89
0.156250 -0.289062 0.014607 104 91 83
0.160156 -0.289062 0.012615 102 103 95
0.164062 -0.289062 0.009361 91 102 83
0.167969 -0.289062 0.003072 93 98 78
-0.164062 -0.292969 0.063150 46 40 37
-0.160156 -0.292969 0.061478 29 24 20
-0.156250 -0.292969 0.066317 24 19 17
-0.152344 -0.292969 0.074166 30 24 21
-0.148438 -0.292969 0.087915 57 50 39
-0.144531 -0.292969 0.098501 66 60 48
-0.140625 -0.292969 0.105856 46 40 33
-0.136719 -0.292969 0.110525 40 34 27
-0.132812 -0.292969 0.112802 53 45 34
-0.128906 -0.292969 0.114659 67 58 45
-0.125000 -0.292969 0.116452 65 58 45
-0.121094 -0.292969 0.118135 57 53 42
-0.117188 -0.292969 0.120091 64 59 47
-0.113281 -0.292969 0.122138 82 74 59
-0.109375 -0.292969 0.124071 96 87 69
-0.105469 -0.292969 0.125129 101 93 73
-0.101562 -0.292969 0.125268 101 94 75
-0.097656 -0.292969 0.125057 100 93 75
-0.093750 -0.292969 0.124733 98 92 75
-0.089844 -0.292969 0.124189 94 88 70
-0.085938 -0.292969 0.123501 87 81 64
-0.082031 -0.292969 0.122726 84 77 61
-0.078125 -0.292969 0.121978 83 76 60
-0.074219 -0.292969 0.121288 81 75 60
-0.070312 -0.292969 0.120680 78 72 58
-0.066406 -0.292969 0.120030 76 70 56
-0.062500 -0.292969 0.119309 77 72 58
-0.058594 -0.292969 0.118631 82 77 63
-0.054688 -0.292969 0.117973 87 84 69
-0.050781 -0.292969 0.117273 91 89 74
-0.046875 -0.292969 0.116570 96 94 79
-0.042969 -0.292969 0.115503 103 100 84
-0.039062 -0.292969 0.113790 116 112 92
-0.035156 -0.292969 0.111940 129 124 100
-0.031250 -0.292969 0.110333 135 128 101
-0.027344 -0.292969 0.108561 136 128 99
-0.023438 -0.292969 0.106624 141 131 101
-0.019531 -0.292969 0.104818 150 138 107
-0.015625 -0.292969 0.102890 160 147 114
-0.011719 -0.292969 0.101313 171 158 125
-0.007812 -0.292969 0.099494 170 161 128
-0.003906 -0.292969 0.096912 178 171 139
0.000000 -0.292969 0.092986 178 171 141
0.003906 -0.292969 0.093380 180 170 140
0.007812 -0.292969 0.086734 214 205 174
0.011719 -0.292969 0.080140 171 158 119
0.027344 -0.292969 -0.087493 20 17 11
0.031250 -0.292969 -0.071273 21 19 13
0.035156 -0.292969 -0.065444 21 20 15
0.039062 -0.292969 -0.058594 20 19 14
0.042969 -0.292969 -0.050359 17 16 13
0.046875 -0.292969 -0.042228 16 14 12
0.050781 -0.292969 -0.032927 15 14 12
0.054688 -0.292969 -0.022522 20 17 14
0.058594 -0.292969 -0.012617 40 35 25
0.062500 -0.292969 -0.004195 63 54 37
0.066406 -0.292969 0.001889 53 45 32
0.070312 -0.292969 0.005690 45 40 27
0.074219 -0.292969 0.008889 54 47 31
0.078125 -0.292969 0.011919 65 56 37
0.082031 -0.292969 0.013979 76 65 44
0.085938 -0.292969 0.015139 80 68 48
0.089844 -0.292969 0.015899 73 63 46
0.093750 -0.292969 0.016438 66 58 44
0.097656 -0.292969 0.016641 66 58 45
0.101562 -0.292969 0.016562 77 67 53
0.105469 -0.292969 0.016416 99 87 67
0.109375 -0.292969 0.016264 90 77 59
0.113281 -0.292969 0.015956 50 42 34
0.117188 -0.292969 0.016175 32 28 25
0.121094 -0.292969 0.017034 38 33 29
0.125000 -0.292969 0.018530 56 47 39
0.128906 -0.292969 0.020030 66 56 46
0.132812 -0.292969 0.020814 71 59 48
0.136719 -0.292969 0.021168 79 67 53
0.140625 -0.292969 0.021603 102 91 71
0.144531 -0.292969 0.021494 135 123 99
0.148438 -0.292969 0.019141 160 144 119
0.152344 -0.292969 0.015713 135 119 99
0.156250 -0.292969 0.014136 115 105 97
0.160156 -0.292969 0.014249 160 163 153
0.164062 -0.292969 0.006701 141 159 141
0.167969 -0.292969 -0.025790 77 89 82
-0.164062 -0.296875 0.064725 82 72 61
-0.160156 -0.296875 0.062862 56 46 36
-0.156250 -0.296875 0.067297 34 26 21
-0.152344 -0.296875 0.074960 29 23 19
-0.148438 -0.296875 0.088323 56 48 40
-0.144531 -0.296875 0.098882 76 68 57
-0.140625 -0.296875 0.106223 57 50 41
-0.136719 -0.296875 0.110633 43 37 29
-0.132812 -0.296875 0.112578 39 33 25
-0.128906 -0.296875 0.114200 52 42 31
-0.125000 -0.296875 0.115944 70 59 44
-0.121094 -0.296875 0.117718 68 61 47
-0.117188 -0.296875 0.119706 61 56 43
-0.113281 -0.296875 0.121734 64 58 46
-0.109375 -0.296875 0.123749 81 72 57
-0.105469 -0.296875 0.125045 97 88 69
-0.101562 -0.296875 0.125531 101 93 74
-0.097656 -0.296875 0.125705 101 94 77
-0.093750 -0.296875 0.125697 102 96 78
-0.089844 -0.296875 0.125324 100 94 76
-0.085938 -0.296875 0.124620 94 88 71
-0.082031 -0.296875 0.123716 88 81 65
-0.078125 -0.296875 0.122805 87 80 63
-0.074219 -0.296875 0.121865 87 80 63
-0.070312 -0.296875 0.120907 81 74 59
-0.066406 -0.296875 0.119864 75 70 56
-0.062500 -0.296875 0.118804 76 71 56
-0.058594 -0.296875 0.117926 79 75 60
-0.054688 -0.296875 0.117251 84 81 66
-0.050781 -0.296875 0.116645 87 85 71
-0.046875 -0.296875 0.116085 95 92 78
-0.042969 -0.296875 0.115223 104 100 86
-0.039062 -0.296875 0.113738 117 113 94
-0.035156 -0.296875 0.112087 135 128 104
-0.031250 -0.296875 0.110579 143 134 105
-0.027344 -0.296875 0.108752 143 133 101
-0.023438 -0.296875 0.106670 148 137 104
-0.019531 -0.296875 0.104741 156 144 112
-0.015625 -0.296875 0.102676 162 151 119
-0.011719 -0.296875 0.100958 174 163 131
-0.007812 -0.296875 0.098991 173 164 134
-0.003906 -0.296875 0.095891 180 172 140
0.000000 -0.296875 0.091703 176 166 134
0.003906 -0.296875 0.091657 177 167 135
0.007812 -0.296875 0.084858 220 210 183
0.011719 -0.296875 0.022237 162 146 114
0.027344 -0.296875 -0.088731 20 18 13
0.031250 -0.296875 -0.072592 30 28 19
0.035156 -0.296875 -0.066047 36 34 25
0.039062 -0.296875 -0.058833 40 38 27
0.042969 -0.296875 -0.049914 35 34 25
0.046875 -0.296875 -0.041273 26 26 20
0.050781 -0.296875 -0.032339 21 20 16
0.054688 -0.296875 -0.022718 24 22 17
0.058594 -0.296875 -0.013471 44 37 26
0.062500 -0.296875 -0.005553 57 46 32
0.066406 -0.296875 0.000423 42 34 25
0.070312 -0.296875 0.004414 43 36 26
0.074219 -0.296875 0.007718 60 51 34
0.078125 -0.296875 0.010668 66 57 37
0.082031 -0.296875 0.012605 73 63 42
0.085938 -0.296875 0.013729 82 70 49
0.089844 -0.296875 0.014482 83 73 53
0.093750 -0.296875 0.015058 82 72 56
0.097656 -0.296875 0.015410 77 69 55
0.101562 -0.296875 0.015505 78 70 57
0.105469 -0.296875 0.015570 98 87 70
0.109375 -0.296875 0.015669 111 98 77
0.113281 -0.296875 0.015651 97 84 66
0.117188 -0.296875 0.015777 74 65 51
0.121094 -0.296875 0.016090 55 48 39
0.125000 -0.296875 0.016985 39 33 27
0.128906 -0.296875 0.018068 35 27 22
0.132812 -0.296875 0.018875 38 27 22
0.136719 -0.296875 0.019399 49 36 29
0.140625 -0.296875 0.019919 106 89 69
0.144531 -0.296875 0.019928 174 158 131
0.148438 -0.296875 0.018179 197 180 156
0.152344 -0.296875 0.015346 172 156 138
0.156250 -0.296875 0.014029 143 140 128
0.160156 -0.296875 0.013216 203 203 187
0.164062 -0.296875 0.002510 224 221 205
-0.164062 -0.300781 0.065679 67 56 47
-0.160156 -0.300781 0.063733 74 60 45
-0.156250 -0.300781 0.068604 49 38 29
-0.152344 -0.300781 0.076553 31 26 21
-0.148438 -0.300781 0.089278 55 49 41
-0.144531 -0.300781 0.099381 78 70 60
-0.140625 -0.300781 0.106411 62 54 45
-0.136719 -0.300781 0.110562 48 41 33
-0.132812 -0.300781 0.112290 37 32 24
-0.128906 -0.300781 0.113677 41 33 24
-0.125000 -0.300781 0.115289 61 50 37
-0.121094 -0.300781 0.117123 76 66 50
-0.117188 -0.300781 0.119166 71 63 49
-0.113281 -0.300781 0.121167 60 54 43
-0.109375 -0.300781 0.123164 65 58 45
-0.105469 -0.300781 0.124631 82 72 56
-0.101562 -0.300781 0.125518 93 84 67
-0.097656 -0.300781 0.126183 99 92 75
-0.093750 -0.300781 0.126583 103 97 80
-0.089844 -0.300781 0.126467 105 99 82
-0.085938 -0.300781 0.125835 104 96 79
-0.082031 -0.300781 0.124876 96 88 71
-0.078125 -0.300781 0.123850 89 82 66
-0.074219 -0.300781 0.122692 90 82 66
-0.070312 -0.300781 0.121385 87 80 64
-0.066406 -0.300781 0.119912 82 76 61
-0.062500 -0.300781 0.118461 80 74 60
-0.058594 -0.300781 0.117325 79 75 60
-0.054688 -0.300781 0.116588 83 79 65
-0.050781 -0.300781 0.116053 85 82 69
-0.046875 -0.300781 0.115610 92 88 77
-0.042969 -0.300781 0.114948 103 98 86
-0.039062 -0.300781 0.113761 119 114 97
-0.035156 -0.300781 0.112368 142 136 112
-0.031250 -0.300781 0.110960 152 143 112
-0.027344 -0.300781 0.109055 152 142 108
-0.023438 -0.300781 0.106762 159 148 113
-0.019531 -0.300781 0.104605 165 154 121
-0.015625 -0.300781 0.102317 168 157 124
-0.011719 -0.300781 0.100360 177 166 135
-0.007812 -0.300781 0.098179 175 166 134
-0.003906 -0.300781 0.094848 179 170 135
0.000000 -0.300781 0.090788 173 164 125
0.003906 -0.300781 0.088729 177 170 129
0.007812 -0.300781 0.082443 212 201 170
0.027344 -0.300781 -0.090243 23 19 15
0.031250 -0.300781 -0.074259 32 29 20
0.035156 -0.300781 -0.066741 39 36 26
0.039062 -0.300781 -0.058987 56 52 36
0.042969 -0.300781 -0.049239 60 57 39
0.046875 -0.300781 -0.039843 49 47 34
0.050781 -0.300781 -0.030706 38 36 27
0.054688 -0.300781 -0.021681 34 32 24
0.058594 -0.300781 -0.013416 39 35 26
0.062500 -0.300781 -0.006229 40 34 25
0.066406 -0.300781 -0.000590 33 28 21
0.070312 -0.300781 0.003395 47 39 28
0.074219 -0.300781 0.006748 72 61 41
0.078125 -0.300781 0.009598 74 64 43
0.082031 -0.300781 0.011392 73 64 43
0.085938 -0.300781 0.012389 79 69 48
0.089844 -0.300781 0.013038 82 73 54
0.093750 -0.300781 0.013676 85 76 59
0.097656 -0.300781 0.014249 85 77 61
0.101562 -0.300781 0.014670 83 75 61
0.105469 -0.300781 0.015039 84 75 61
0.109375 -0.300781 0.015329 87 77 63
0.113281 -0.300781 0.015542 103 88 70
0.117188 -0.300781 0.015751 124 105 80
0.121094 -0.300781 0.015785 116 99 76
0.125000 -0.300781 0.016129 74 62 49
0.128906 -0.300781 0.016681 49 39 30
0.132812 -0.300781 0.017148 37 28 22
0.136719 -0.300781 0.017497 31 22 19
0.140625 -0.300781 0.017738 52 40 33
0.144531 -0.300781 0.017592 91 74 62
0.148438 -0.300781 0.016352 136 116 96
0.152344 -0.300781 0.014433 175 159 136
0.156250 -0.300781 0.014281 145 140 131
0.160156 -0.300781 0.013085 123 124 118
0.164062 -0.300781 -0.002775 133 123 106
-0.164062 -0.304688 0.064771 50 41 35
-0.160156 -0.304688 0.063730 78 62 47
-0.156250 -0.304688 0.069310 66 53 41
-0.152344 -0.304688 0.077896 46 41 33
-0.148438 -0.304688 0.090227 61 56 47
-0.144531 -0.304688 0.099756 70 64 54
-0.140625 -0.304688 0.106402 56 50 41
-0.136719 -0.304688 0.110369 53 46 36
-0.132812 -0.304688 0.112061 50 42 32
-0.128906 -0.304688 0.113365 47 40 29
-0.125000 -0.304688 0.114813 54 46 34
-0.121094 -0.304688 0.116547 68 59 46
-0.117188 -0.304688 0.118605 78 68 55
-0.113281 -0.304688 0.120665 72 63 50
-0.109375 -0.304688 0.122702 67 59 45
-0.105469 -0.304688 0.124257 72 63 49
-0.101562 -0.304688 0.125352 80 72 58
-0.097656 -0.304688 0.126324 89 82 69
-0.093750 -0.304688 0.127051 97 91 77
-0.089844 -0.304688 0.127203 103 96 82
-0.085938 -0.304688 0.126740 105 97 81
-0.082031 -0.304688 0.125891 100 91 75
-0.078125 -0.304688 0.124912 95 87 71
-0.074219 -0.304688 0.123640 97 88 72
-0.070312 -0.304688 0.122048 95 87 72
-0.066406 -0.304688 0.120235 91 84 69
-0.062500 -0.304688 0.118480 87 80 66
-0.058594 -0.304688 0.117111 83 78 64
-0.054688 -0.304688 0.116243 84 79 65
-0.050781 -0.304688 0.115635 84 80 68
-0.046875 -0.304688 0.115162 90 86 75
-0.042969 -0.304688 0.114591 100 95 85
-0.039062 -0.304688 0.113690 118 114 99
-0.035156 -0.304688 0.112605 146 139 117
-0.031250 -0.304688 0.111354 155 146 117
-0.027344 -0.304688 0.109369 152 143 109
-0.023438 -0.304688 0.106812 160 150 115
-0.019531 -0.304688 0.104380 166 155 121
-0.015625 -0.304688 0.101848 170 160 125
-0.011719 -0.304688 0.099635 180 170 136
-0.007812 -0.304688 0.097244 179 170 135
-0.003906 -0.304688 0.093702 174 164 125
0.000000 -0.304688 0.089516 166 156 112
0.003906 -0.304688 0.086025 179 172 126
0.007812 -0.304688 0.079079 173 162 127
0.027344 -0.304688 -0.091223 26 22 17
0.031250 -0.304688 -0.075819 32 27 20
0.035156 -0.304688 -0.067679 31 28 21
0.039062 -0.304688 -0.059611 40 36 26
0.042969 -0.304688 -0.049314 47 42 30
0.046875 -0.304688 -0.039400 51 47 34
0.050781 -0.304688 -0.030061 52 49 36
0.054688 -0.304688 -0.021243 52 50 37
0.058594 -0.304688 -0.013356 51 49 36
0.062500 -0.304688 -0.006455 45 43 32
0.066406 -0.304688 -0.000967 42 39 29
0.070312 -0.304688 0.002902 56 50 35
0.074219 -0.304688 0.006083 77 66 45
0.078125 -0.304688 0.008770 80 69 48
0.082031 -0.304688 0.010423 79 70 48
0.085938 -0.304688 0.011299 82 73 52
0.089844 -0.304688 0.011866 85 77 56
0.093750 -0.304688 0.012471 87 79 60
0.097656 -0.304688 0.013043 86 79 62
0.101562 -0.304688 0.013652 85 77 62
0.105469 -0.304688 0.014278 83 75 61
0.109375 -0.304688 0.014712 82 73 60
0.113281 -0.304688 0.014976 90 78 64
0.117188 -0.304688 0.015176 106 89 71
0.121094 -0.304688 0.015170 110 94 74
0.125000 -0.304688 0.015354 91 78 60
0.128906 -0.304688 0.015760 78 65 48
0.132812 -0.304688 0.016083 75 59 44
0.136719 -0.304688 0.016247 55 45 34
0.140625 -0.304688 0.016157 42 35 28
0.144531 -0.304688 0.015759 35 30 27
0.148438 -0.304688 0.014267 48 43 38
0.152344 -0.304688 0.012280 122 105 87
0.156250 -0.304688 0.012581 159 139 130
0.160156 -0.304688 0.012423 120 114 111
0.164062 -0.304688 -0.003088 57 58 50
-0.164062 -0.308594 0.063446 34 29 25
-0.160156 -0.308594 0.063343 58 47 36
-0.156250 -0.308594 0.069223 66 55 42
-0.152344 -0.308594 0.078220 64 58 46
-0.148438 -0.308594 0.090908 71 66 54
-0.144531 -0.308594 0.100069 62 58 47
-0.140625 -0.308594 0.106339 49 44 36
-0.136719 -0.308594 0.110119 52 46 35
-0.132812 -0.308594 0.111725 54 47 35
-0.128906 -0.308594 0.112896 53 46 34
-0.125000 -0.308594 0.114259 53 47 36
-0.121094 -0.308594 0.115993 58 52 41
-0.117188 -0.308594 0.118048 70 63 50
-0.113281 -0.308594 0.120119 78 68 54
-0.109375 -0.308594 0.122224 76 66 51
-0.105469 -0.308594 0.123852 74 64 50
-0.101562 -0.308594 0.125036 74 66 53
-0.097656 -0.308594 0.126179 79 72 62
-0.093750 -0.308594 0.127114 89 83 72
-0.089844 -0.308594 0.127498 97 90 78
-0.085938 -0.308594 0.127273 101 93 78
-0.082031 -0.308594 0.126660 101 92 77
-0.078125 -0.308594 0.125863 102 92 77
-0.074219 -0.308594 0.124620 103 93 79
-0.070312 -0.308594 0.122890 100 91 77
-0.066406 -0.308594 0.120907 96 87 74
-0.062500 -0.308594 0.119004 93 85 72
-0.058594 -0.308594 0.117432 89 82 70
-0.054688 -0.308594 0.116311 87 81 68
-0.050781 -0.308594 0.115430 86 80 69
-0.046875 -0.308594 0.114691 91 85 76
-0.042969 -0.308594 0.114033 100 93 84
-0.039062 -0.308594 0.113370 117 111 98
-0.035156 -0.308594 0.112663 146 138 119
-0.031250 -0.308594 0.111696 159 150 122
-0.027344 -0.308594 0.109705 156 148 115
-0.023438 -0.308594 0.106883 162 154 119
-0.019531 -0.308594 0.104147 166 157 121
-0.015625 -0.308594 0.101329 172 162 125
-0.011719 -0.308594 0.098881 183 173 137
-0.007812 -0.308594 0.096297 183 173 136
-0.003906 -0.308594 0.092425 169 156 118
0.000000 -0.308594 0.087783 158 144 106
0.003906 -0.308594 0.083706 189 179 138
0.007812 -0.308594 0.076758 152 145 114
0.023438 -0.308594 -0.020220 16 15 14
0.027344 -0.308594 -0.090488 27 23 19
0.031250 -0.308594 -0.076400 31 26 19
0.035156 -0.308594 -0.068398 30 26 19
0.039062 -0.308594 -0.060359 32 29 21
0.042969 -0.308594 -0.050153 33 30 21
0.046875 -0.308594 -0.040300 38 36 26
0.050781 -0.308594 -0.030865 43 41 30
0.054688 -0.308594 -0.021864 51 49 36
0.058594 -0.308594 -0.013784 54 53 40
0.062500 -0.308594 -0.006685 55 55 42
0.066406 -0.308594 -0.001000 57 57 42
0.070312 -0.308594 0.002749 61 59 42
0.074219 -0.308594 0.005565 68 62 43
0.078125 -0.308594 0.008076 74 67 47
0.082031 -0.308594 0.009615 79 72 51
0.085938 -0.308594 0.010364 82 75 54
0.089844 -0.308594 0.010825 84 77 57
0.093750 -0.308594 0.011363 84 78 59
0.097656 -0.308594 0.011896 85 77 61
0.101562 -0.308594 0.012533 86 78 62
0.105469 -0.308594 0.013221 88 79 64
0.109375 -0.308594 0.013805 90 80 66
0.113281 -0.308594 0.014240 88 78 63
0.117188 -0.308594 0.014525 81 71 58
0.121094 -0.308594 0.014590 74 64 51
0.125000 -0.308594 0.014815 68 58 44
0.128906 -0.308594 0.015176 73 61 45
0.132812 -0.308594 0.015356 97 80 59
0.136719 -0.308594 0.015414 107 91 69
0.140625 -0.308594 0.015001 92 80 63
0.144531 -0.308594 0.014024 73 64 54
0.148438 -0.308594 0.012083 62 56 48
0.152344 -0.308594 0.009956 81 68 58
0.156250 -0.308594 0.009883 133 109 92
0.160156 -0.308594 0.009762 182 166 140
0.164062 -0.308594 0.002444 160 157 123
-0.164062 -0.312500 0.062167 33 28 22
-0.160156 -0.312500 0.062303 44 36 26
-0.156250 -0.312500 0.068205 50 43 33
-0.152344 -0.312500 0.077656 63 56 45
-0.148438 -0.312500 0.091203 70 63 51
-0.144531 -0.312500 0.100428 55 50 40
-0.140625 -0.312500 0.106333 47 42 33
-0.136719 -0.312500 0.109836 53 46 35
-0.132812 -0.312500 0.111350 55 48 36
-0.128906 -0.312500 0.112435 55 49 37
-0.125000 -0.312500 0.113791 56 50 39
-0.121094 -0.312500 0.115554 55 50 40
-0.117188 -0.312500 0.117525 61 55 44
-0.113281 -0.312500 0.119528 70 61 49
-0.109375 -0.312500 0.121667 74 64 50
-0.105469 -0.312500 0.123344 76 65 51
-0.101562 -0.312500 0.124592 74 66 53
-0.097656 -0.312500 0.125815 75 67 58
-0.093750 -0.312500 0.126819 81 75 66
-0.089844 -0.312500 0.127350 88 81 71
-0.085938 -0.312500 0.127359 92 84 72
-0.082031 -0.312500 0.127045 99 89 75
-0.078125 -0.312500 0.126532 104 94 80
-0.074219 -0.312500 0.125476 106 95 82
-0.070312 -0.312500 0.123821 104 94 81
-0.066406 -0.312500 0.121865 102 92 80
-0.062500 -0.312500 0.119966 101 91 80
-0.058594 -0.312500 0.118249 98 89 77
-0.054688 -0.312500 0.116819 95 86 75
-0.050781 -0.312500 0.115537 93 85 75
-0.046875 -0.312500 0.114341 94 87 77
-0.042969 -0.312500 0.113410 96 90 80
-0.039062 -0.312500 0.112883 110 104 91
-0.035156 -0.312500 0.112572 143 134 116
-0.031250 -0.312500 0.111988 162 153 127
-0.027344 -0.312500 0.110042 162 155 123
-0.023438 -0.312500 0.106964 166 158 123
-0.019531 -0.312500 0.103952 168 159 123
-0.015625 -0.312500 0.100868 174 163 126
-0.011719 -0.312500 0.098166 184 173 137
-0.007812 -0.312500 0.095326 183 172 135
-0.003906 -0.312500 0.091275 168 154 120
0.000000 -0.312500 0.086284 161 146 112
0.003906 -0.312500 0.082600 198 185 151
0.007812 -0.312500 0.074794 155 148 124
0.023438 -0.312500 -0.018572 18 15 14
0.027344 -0.312500 -0.090011 27 23 19
0.031250 -0.312500 -0.077038 27 22 17
0.035156 -0.312500 -0.069070 29 25 18
0.039062 -0.312500 -0.061206 32 28 20
0.042969 -0.312500 -0.051427 32 29 20
0.046875 -0.312500 -0.041841 35 32 23
0.050781 -0.312500 -0.032497 35 32 24
0.054688 -0.312500 -0.023258 40 38 29
0.058594 -0.312500 -0.014766 43 42 33
0.062500 -0.312500 -0.007320 51 51 41
0.066406 -0.312500 -0.001428 61 62 48
0.070312 -0.312500 0.002214 62 62 45
0.074219 -0.312500 0.004896 64 62 44
0.078125 -0.312500 0.007371 72 67 48
0.082031 -0.312500 0.008872 79 73 52
0.085938 -0.312500 0.009588 82 75 55
0.089844 -0.312500 0.009996 81 75 56
0.093750 -0.312500 0.010506 79 73 56
0.097656 -0.312500 0.011048 79 73 58
0.101562 -0.312500 0.011673 82 75 59
0.105469 -0.312500 0.012304 85 77 62
0.109375 -0.312500 0.012877 87 78 63
0.113281 -0.312500 0.013330 85 77 62
0.117188 -0.312500 0.013675 81 72 58
0.121094 -0.312500 0.013870 77 67 53
0.125000 -0.312500 0.014135 73 63 49
0.128906 -0.312500 0.014384 75 64 50
0.132812 -0.312500 0.014309 91 78 61
0.136719 -0.312500 0.014118 104 90 72
0.140625 -0.312500 0.013414 110 98 80
0.144531 -0.312500 0.012228 120 108 87
0.148438 -0.312500 0.010189 115 102 82
0.152344 -0.312500 0.008182 90 78 62
0.156250 -0.312500 0.008495 75 62 49
0.160156 -0.312500 0.008744 118 98 77
0.164062 -0.312500 0.007008 164 151 123
0.167969 -0.312500 -0.034869 159 149 122
-0.164062 -0.316406 0.060312 38 32 24
-0.160156 -0.316406 0.060379 43 35 25
-0.156250 -0.316406 0.066073 44 37 28
-0.152344 -0.316406 0.076060 59 51 40
-0.148438 -0.316406 0.090966 67 59 46
-0.144531 -0.316406 0.100709 53 47 37
-0.140625 -0.316406 0.106503 47 41 32
-0.136719 -0.316406 0.109832 51 45 34
-0.132812 -0.316406 0.111157 53 47 36
-0.128906 -0.316406 0.112137 55 49 37
-0.125000 -0.316406 0.113397 58 52 40
-0.121094 -0.316406 0.115032 58 53 41
-0.117188 -0.316406 0.116915 61 55 44
-0.113281 -0.316406 0.118936 65 58 46
-0.109375 -0.316406 0.121101 67 59 47
-0.105469 -0.316406 0.122767 71 62 49
-0.101562 -0.316406 0.124007 73 64 51
-0.097656 -0.316406 0.125197 74 66 55
-0.093750 -0.316406 0.126191 78 70 61
-0.089844 -0.316406 0.126837 81 72 63
-0.085938 -0.316406 0.127093 83 74 63
-0.082031 -0.316406 0.127137 93 83 69
-0.078125 -0.316406 0.126965 101 92 77
-0.074219 -0.316406 0.126190 104 95 81
-0.070312 -0.316406 0.124761 105 95 82
-0.066406 -0.316406 0.122979 106 95 83
-0.062500 -0.316406 0.121217 108 96 85
-0.058594 -0.316406 0.119442 106 95 84
-0.054688 -0.316406 0.117689 104 94 83
-0.050781 -0.316406 0.115903 104 95 83
-0.046875 -0.316406 0.114135 102 94 83
-0.042969 -0.316406 0.112786 99 92 80
-0.039062 -0.316406 0.112247 108 101 86
-0.035156 -0.316406 0.112284 141 131 111
-0.031250 -0.316406 0.112098 164 154 128
-0.027344 -0.316406 0.110235 165 157 126
-0.023438 -0.316406 0.106969 167 159 124
-0.019531 -0.316406 0.103736 169 160 124
-0.015625 -0.316406 0.100437 173 162 127
-0.011719 -0.316406 0.097518 179 167 133
-0.007812 -0.316406 0.094506 176 164 130
-0.003906 -0.316406 0.090558 171 158 126
0.000000 -0.316406 0.085122 176 161 128
0.003906 -0.316406 0.081308 199 185 154
0.007812 -0.316406 0.072121 164 162 139
0.023438 -0.316406 -0.017916 22 17 16
0.027344 -0.316406 -0.089941 34 27 22
0.031250 -0.316406 -0.077394 30 24 19
0.035156 -0.316406 -0.069818 30 25 19
0.039062 -0.316406 -0.062383 30 25 18
0.042969 -0.316406 -0.053231 33 27 19
0.046875 -0.316406 -0.044094 37 31 22
0.050781 -0.316406 -0.034906 35 31 22
0.054688 -0.316406 -0.025423 39 35 26
0.058594 -0.316406 -0.016204 40 39 30
0.062500 -0.316406 -0.008180 47 47 38
0.066406 -0.316406 -0.001968 60 60 47
0.070312 -0.316406 0.001736 64 63 48
0.074219 -0.316406 0.004412 69 66 48
0.078125 -0.316406 0.006900 77 72 52
0.082031 -0.316406 0.008368 80 74 54
0.085938 -0.316406 0.009047 80 75 56
0.089844 -0.316406 0.009415 79 74 56
0.093750 -0.316406 0.009866 79 73 57
0.097656 -0.316406 0.010345 80 74 58
0.101562 -0.316406 0.010902 81 75 59
0.105469 -0.316406 0.011434 84 76 61
0.109375 -0.316406 0.011923 84 76 61
0.113281 -0.316406 0.012327 82 75 60
0.117188 -0.316406 0.012719 82 74 60
0.121094 -0.316406 0.013063 85 76 60
0.125000 -0.316406 0.013393 83 74 58
0.128906 -0.316406 0.013608 82 73 57
0.132812 -0.316406 0.013279 90 79 63
0.136719 -0.316406 0.012666 92 82 66
0.140625 -0.316406 0.011587 93 85 70
0.144531 -0.316406 0.010464 110 100 81
0.148438 -0.316406 0.008479 121 107 85
0.152344 -0.316406 0.006365 114 99 78
0.156250 -0.316406 0.006172 87 73 58
0.160156 -0.316406 0.006048 101 80 66
0.164062 -0.316406 0.004871 178 155 138
0.167969 -0.316406 -0.012598 158 132 123
0.171875 -0.316406 -0.056819 134 108 99
-0.164062 -0.320312 0.057542 35 30 22
-0.160156 -0.320312 0.057057 40 34 23
-0.156250 -0.320312 0.062874 40 35 26
-0.152344 -0.320312 0.073056 55 48 37
-0.148438 -0.320312 0.089895 65 56 43
-0.144531 -0.320312 0.100801 56 48 37
-0.140625 -0.320312 0.106829 51 45 35
-0.136719 -0.320312 0.110131 52 46 35
-0.132812 -0.320312 0.111205 53 48 36
-0.128906 -0.320312 0.112006 56 50 38
-0.125000 -0.320312 0.113145 59 53 41
-0.121094 -0.320312 0.114658 61 55 43
-0.117188 -0.320312 0.116474 63 57 44
-0.113281 -0.320312 0.118478 64 58 45
-0.109375 -0.320312 0.120621 65 58 46
-0.105469 -0.320312 0.122262 67 59 47
-0.101562 -0.320312 0.123466 69 61 48
-0.097656 -0.320312 0.124581 72 62 50
-0.093750 -0.320312 0.125548 75 64 53
-0.089844 -0.320312 0.126290 76 66 54
-0.085938 -0.320312 0.126724 76 66 54
-0.082031 -0.320312 0.126984 83 73 59
-0.078125 -0.320312 0.127039 92 82 67
-0.074219 -0.320312 0.126520 97 88 74
-0.070312 -0.320312 0.125336 99 90 76
-0.066406 -0.320312 0.123777 102 91 79
-0.062500 -0.320312 0.122208 107 95 83
-0.058594 -0.320312 0.120424 109 96 85
-0.054688 -0.320312 0.118389 107 96 85
-0.050781 -0.320312 0.116150 106 97 85
-0.046875 -0.320312 0.113868 108 99 86
-0.042969 -0.320312 0.112130 104 97 81
-0.039062 -0.320312 0.111493 107 99 81
-0.035156 -0.320312 0.111754 137 126 102
-0.031250 -0.320312 0.111926 164 154 124
-0.027344 -0.320312 0.110183 167 159 125
-0.023438 -0.320312 0.106824 168 160 125
-0.019531 -0.320312 0.103442 172 163 127
-0.015625 -0.320312 0.099949 172 162 129
-0.011719 -0.320312 0.096848 173 162 130
-0.007812 -0.320312 0.093743 171 158 127
-0.003906 -0.320312 0.089715 178 163 131
0.000000 -0.320312 0.083650 191 176 141
0.003906 -0.320312 0.079079 181 172 139
0.007812 -0.320312 0.069274 169 172 149
0.027344 -0.320312 -0.090654 54 42 35
0.031250 -0.320312 -0.077561 44 35 27
0.035156 -0.320312 -0.070298 40 33 25
0.039062 -0.320312 -0.063145 33 27 20
0.042969 -0.320312 -0.054167 32 26 17
0.046875 -0.320312 -0.045290 36 28 19
0.050781 -0.320312 -0.036295 35 28 19
0.054688 -0.320312 -0.026789 38 33 24
0.058594 -0.320312 -0.017222 43 41 31
0.062500 -0.320312 -0.008896 52 51 41
0.066406 -0.320312 -0.002639 63 62 49
0.070312 -0.320312 0.001031 69 67 51
0.074219 -0.320312 0.003717 79 75 56
0.078125 -0.320312 0.006264 85 81 60
0.082031 -0.320312 0.007783 83 78 59
0.085938 -0.320312 0.008532 81 77 58
0.089844 -0.320312 0.008996 80 75 58
0.093750 -0.320312 0.009457 80 75 58
0.097656 -0.320312 0.009913 82 76 59
0.101562 -0.320312 0.010439 82 76 59
0.105469 -0.320312 0.010899 82 75 59
0.109375 -0.320312 0.011340 81 74 59
0.113281 -0.320312 0.011764 81 74 59
0.117188 -0.320312 0.012165 84 76 61
0.121094 -0.320312 0.012497 88 80 64
0.125000 -0.320312 0.012774 88 79 63
0.128906 -0.320312 0.012839 84 76 61
0.132812 -0.320312 0.012163 88 79 65
0.136719 -0.320312 0.011066 90 81 66
0.140625 -0.320312 0.009545 89 82 67
0.144531 -0.320312 0.008125 96 87 72
0.148438 -0.320312 0.006242 101 90 73
0.152344 -0.320312 0.004536 104 90 72
0.156250 -0.320312 0.004017 100 83 67
0.160156 -0.320312 0.003887 111 90 75
0.164062 -0.320312 0.003174 182 158 141
0.167969 -0.320312 -0.004573 184 159 146
0.171875 -0.320312 -0.044637 124 104 90
-0.164062 -0.324219 0.053570 31 27 20
-0.160156 -0.324219 0.051434 37 32 22
-0.156250 -0.324219 0.058114 39 35 25
-0.152344 -0.324219 0.068392 50 45 34
-0.148438 -0.324219 0.087944 59 52 39
-0.144531 -0.324219 0.100828 54 48 37
