ply
    format ascii 1.0
    element vertex 73830
    property float x
    property float y
    property float z
    property uchar red
    property uchar green
    property uchar blue
    end_header
0.304688 0.023438 -0.067240 223 201 179
-0.214844 0.019531 0.006193 179 156 143
-0.210938 0.019531 0.001240 192 140 121
-0.207031 0.019531 -0.000706 210 147 120
-0.203125 0.019531 -0.001614 220 154 125
-0.199219 0.019531 -0.000752 227 163 133
-0.195312 0.019531 0.000906 233 170 140
-0.191406 0.019531 0.003372 237 177 147
-0.187500 0.019531 0.006963 240 183 154
-0.183594 0.019531 0.013168 242 188 160
-0.179688 0.019531 0.019649 240 183 156
-0.175781 0.019531 0.025971 240 188 164
-0.171875 0.019531 0.032878 236 180 159
-0.167969 0.019531 0.037045 232 178 157
-0.164062 0.019531 0.041361 241 203 186
-0.160156 0.019531 0.049546 240 212 197
-0.156250 0.019531 0.043047 251 248 245
-0.148438 0.019531 -0.033707 251 249 249
-0.144531 0.019531 -0.045228 245 240 240
-0.140625 0.019531 -0.052275 245 240 240
-0.136719 0.019531 -0.058192 244 238 240
-0.132812 0.019531 -0.062820 242 236 240
-0.128906 0.019531 -0.066919 241 235 240
-0.125000 0.019531 -0.070913 241 235 240
-0.121094 0.019531 -0.074802 241 236 240
-0.117188 0.019531 -0.078689 241 236 239
-0.113281 0.019531 -0.082387 241 235 239
-0.109375 0.019531 -0.085967 240 233 237
-0.105469 0.019531 -0.089025 238 229 233
-0.101562 0.019531 -0.091828 237 227 231
-0.097656 0.019531 -0.094792 236 226 230
-0.093750 0.019531 -0.097613 239 230 233
-0.089844 0.019531 -0.100371 241 234 236
-0.085938 0.019531 -0.103005 242 237 239
-0.082031 0.019531 -0.105563 243 241 243
-0.078125 0.019531 -0.107991 243 241 243
-0.074219 0.019531 -0.110026 242 241 243
-0.070312 0.019531 -0.111768 242 240 243
-0.066406 0.019531 -0.113378 242 240 243
-0.062500 0.019531 -0.114867 242 239 243
-0.058594 0.019531 -0.116392 243 239 243
-0.054688 0.019531 -0.117854 244 240 244
-0.050781 0.019531 -0.119234 244 241 244
-0.046875 0.019531 -0.120543 245 242 244
-0.042969 0.019531 -0.121666 245 243 245
-0.039062 0.019531 -0.122634 245 243 244
-0.035156 0.019531 -0.123605 245 243 244
-0.031250 0.019531 -0.124578 245 243 244
-0.027344 0.019531 -0.125493 246 243 244
-0.023438 0.019531 -0.126407 245 242 243
-0.019531 0.019531 -0.127225 243 241 241
-0.015625 0.019531 -0.127992 241 240 240
-0.011719 0.019531 -0.128709 239 239 239
-0.007812 0.019531 -0.129405 236 237 237
-0.003906 0.019531 -0.130002 231 233 233
0.000000 0.019531 -0.130512 221 225 226
0.003906 0.019531 -0.131081 206 212 216
0.007812 0.019531 -0.131586 188 196 205
0.011719 0.019531 -0.132115 181 189 202
0.015625 0.019531 -0.132601 173 182 197
0.019531 0.019531 -0.133013 155 170 184
0.023438 0.019531 -0.133494 148 168 177
0.027344 0.019531 -0.133965 148 169 175
0.031250 0.019531 -0.134425 146 166 174
0.035156 0.019531 -0.134868 143 160 170
0.039062 0.019531 -0.135363 135 147 159
0.042969 0.019531 -0.135879 122 130 144
0.046875 0.019531 -0.136363 115 119 133
0.050781 0.019531 -0.136864 123 126 137
0.054688 0.019531 -0.137306 110 114 126
0.058594 0.019531 -0.137882 78 84 93
0.062500 0.019531 -0.138522 69 73 81
0.066406 0.019531 -0.139131 68 70 79
0.070312 0.019531 -0.139719 64 62 73
0.074219 0.019531 -0.140231 62 59 70
0.078125 0.019531 -0.140836 72 69 78
0.082031 0.019531 -0.141560 91 89 94
0.085938 0.019531 -0.142302 112 112 114
0.089844 0.019531 -0.143011 137 137 138
0.093750 0.019531 -0.143688 165 166 166
0.097656 0.019531 -0.144458 181 182 182
0.101562 0.019531 -0.145282 186 187 187
0.105469 0.019531 -0.146044 187 188 187
0.109375 0.019531 -0.146728 191 192 193
0.113281 0.019531 -0.147342 194 194 196
0.117188 0.019531 -0.147909 194 195 196
0.121094 0.019531 -0.148381 202 197 202
0.125000 0.019531 -0.148769 200 195 200
0.128906 0.019531 -0.148943 196 192 196
0.132812 0.019531 -0.148861 193 190 193
0.136719 0.019531 -0.148579 195 193 195
0.140625 0.019531 -0.148061 203 203 203
0.144531 0.019531 -0.147390 210 210 208
0.148438 0.019531 -0.146573 210 211 206
0.152344 0.019531 -0.145469 210 213 205
0.156250 0.019531 -0.144174 210 212 205
0.160156 0.019531 -0.142686 207 212 206
0.164062 0.019531 -0.141012 205 212 205
0.167969 0.019531 -0.139168 204 210 206
0.171875 0.019531 -0.137130 200 209 208
0.175781 0.019531 -0.134972 196 204 205
0.179688 0.019531 -0.132630 191 199 201
0.183594 0.019531 -0.130178 163 164 170
0.187500 0.019531 -0.127633 175 178 180
0.191406 0.019531 -0.124656 150 154 153
0.195312 0.019531 -0.121282 146 152 148
0.199219 0.019531 -0.117831 144 150 145
0.203125 0.019531 -0.114177 139 146 137
0.207031 0.019531 -0.110276 138 146 136
0.210938 0.019531 -0.105996 160 168 157
0.214844 0.019531 -0.101511 157 163 157
0.218750 0.019531 -0.096906 68 76 80
0.222656 0.019531 -0.091558 64 73 88
0.226562 0.019531 -0.085710 77 91 118
0.230469 0.019531 -0.079287 90 108 145
0.234375 0.019531 -0.072427 79 99 145
0.238281 0.019531 -0.066120 77 99 154
0.242188 0.019531 -0.060763 90 113 172
0.246094 0.019531 -0.054171 85 102 157
0.250000 0.019531 -0.050402 66 82 133
0.253906 0.019531 -0.064209 65 80 121
0.257812 0.019531 -0.073691 72 86 113
0.261719 0.019531 -0.079954 83 92 107
0.265625 0.019531 -0.082227 199 207 211
0.269531 0.019531 -0.084896 152 161 155
0.273438 0.019531 -0.086265 106 112 105
0.277344 0.019531 -0.087306 86 103 86
0.281250 0.019531 -0.088793 163 174 142
0.285156 0.019531 -0.089793 206 193 165
0.289062 0.019531 -0.088908 226 199 173
0.292969 0.019531 -0.087447 236 214 183
0.296875 0.019531 -0.085242 230 203 169
0.300781 0.019531 -0.083406 219 194 170
0.304688 0.019531 -0.065015 237 223 206
-0.214844 0.015625 0.002121 191 165 151
-0.210938 0.015625 -0.000523 191 136 117
-0.207031 0.015625 -0.002375 214 152 126
-0.203125 0.015625 -0.002921 221 157 129
-0.199219 0.015625 -0.001885 227 162 133
-0.195312 0.015625 -0.000063 233 171 143
-0.191406 0.015625 0.002623 237 177 149
-0.187500 0.015625 0.006355 239 181 154
-0.183594 0.015625 0.012955 242 188 161
-0.179688 0.015625 0.019663 238 180 154
-0.175781 0.015625 0.025883 239 188 165
-0.171875 0.015625 0.032787 235 181 159
-0.167969 0.015625 0.036738 229 173 153
-0.164062 0.015625 0.040647 242 205 188
-0.160156 0.015625 0.050739 242 212 197
-0.156250 0.015625 0.031949 253 251 248
-0.152344 0.015625 -0.023211 254 254 254
-0.148438 0.015625 -0.038235 253 251 251
-0.144531 0.015625 -0.048722 245 238 237
-0.140625 0.015625 -0.055269 246 240 240
-0.136719 0.015625 -0.060505 244 239 241
-0.132812 0.015625 -0.064843 243 237 241
-0.128906 0.015625 -0.068628 242 237 241
-0.125000 0.015625 -0.072386 242 237 241
-0.121094 0.015625 -0.076001 240 236 240
-0.117188 0.015625 -0.079633 240 236 239
-0.113281 0.015625 -0.083113 241 236 239
-0.109375 0.015625 -0.086516 241 236 238
-0.105469 0.015625 -0.089408 240 235 237
-0.101562 0.015625 -0.092035 240 234 237
-0.097656 0.015625 -0.094845 240 234 237
-0.093750 0.015625 -0.097523 242 237 239
-0.089844 0.015625 -0.100134 243 239 241
-0.085938 0.015625 -0.102605 244 240 242
-0.082031 0.015625 -0.104996 244 242 244
-0.078125 0.015625 -0.107271 243 241 244
-0.074219 0.015625 -0.109184 243 241 244
-0.070312 0.015625 -0.110816 242 241 244
-0.066406 0.015625 -0.112327 241 239 243
-0.062500 0.015625 -0.113746 241 238 243
-0.058594 0.015625 -0.115233 241 237 242
-0.054688 0.015625 -0.116716 241 236 241
-0.050781 0.015625 -0.118114 241 236 241
-0.046875 0.015625 -0.119460 241 236 240
-0.042969 0.015625 -0.120634 241 237 241
-0.039062 0.015625 -0.121658 243 239 242
-0.035156 0.015625 -0.122705 245 242 243
-0.031250 0.015625 -0.123730 246 243 244
-0.027344 0.015625 -0.124675 247 244 245
-0.023438 0.015625 -0.125593 247 244 245
-0.019531 0.015625 -0.126407 246 243 243
-0.015625 0.015625 -0.127186 245 242 243
-0.011719 0.015625 -0.127929 245 242 242
-0.007812 0.015625 -0.128613 244 242 242
-0.003906 0.015625 -0.129182 243 241 241
0.000000 0.015625 -0.129690 241 240 240
0.003906 0.015625 -0.130194 239 238 238
0.007812 0.015625 -0.130663 237 235 237
0.011719 0.015625 -0.131199 235 233 235
0.015625 0.015625 -0.131658 234 231 234
0.019531 0.015625 -0.132132 233 230 233
0.023438 0.015625 -0.132677 231 229 231
0.027344 0.015625 -0.133172 227 225 228
0.031250 0.015625 -0.133682 223 220 225
0.035156 0.015625 -0.134187 220 217 221
0.039062 0.015625 -0.134710 215 211 217
0.042969 0.015625 -0.135255 211 208 213
0.046875 0.015625 -0.135751 209 207 211
0.050781 0.015625 -0.136230 213 211 214
0.054688 0.015625 -0.136622 210 211 213
0.058594 0.015625 -0.137096 195 200 203
0.062500 0.015625 -0.137678 186 193 196
0.066406 0.015625 -0.138244 181 189 194
0.070312 0.015625 -0.138828 171 179 188
0.074219 0.015625 -0.139373 155 163 177
0.078125 0.015625 -0.139966 137 145 164
0.082031 0.015625 -0.140686 109 117 138
0.085938 0.015625 -0.141427 83 90 107
0.089844 0.015625 -0.142120 78 86 98
0.093750 0.015625 -0.142767 87 94 101
0.097656 0.015625 -0.143494 112 117 118
0.101562 0.015625 -0.144296 138 142 140
0.105469 0.015625 -0.145047 154 157 154
0.109375 0.015625 -0.145719 165 167 165
0.113281 0.015625 -0.146319 172 174 174
0.117188 0.015625 -0.146876 173 176 176
0.121094 0.015625 -0.147349 172 170 179
0.125000 0.015625 -0.147718 171 169 178
0.128906 0.015625 -0.147876 170 168 176
0.132812 0.015625 -0.147766 167 166 173
0.136719 0.015625 -0.147467 164 164 169
0.140625 0.015625 -0.146967 162 163 167
0.144531 0.015625 -0.146343 157 158 161
0.148438 0.015625 -0.145597 146 149 149
0.152344 0.015625 -0.144580 140 143 141
0.156250 0.015625 -0.143374 133 137 135
0.160156 0.015625 -0.141978 128 134 131
0.164062 0.015625 -0.140392 128 134 130
0.167969 0.015625 -0.138616 129 136 133
0.171875 0.015625 -0.136643 134 142 138
0.175781 0.015625 -0.134555 141 150 147
0.179688 0.015625 -0.132297 149 158 154
0.183594 0.015625 -0.129916 151 158 156
0.187500 0.015625 -0.127426 135 144 142
0.191406 0.015625 -0.124486 117 129 127
0.195312 0.015625 -0.121111 108 121 120
0.199219 0.015625 -0.117662 96 110 109
0.203125 0.015625 -0.114018 81 97 96
0.207031 0.015625 -0.110133 67 87 83
0.210938 0.015625 -0.105888 71 92 85
0.214844 0.015625 -0.101447 73 91 84
0.218750 0.015625 -0.096863 47 59 58
0.222656 0.015625 -0.091537 47 59 67
0.226562 0.015625 -0.085763 57 71 88
0.230469 0.015625 -0.079445 72 89 113
0.234375 0.015625 -0.072630 61 79 106
0.238281 0.015625 -0.066652 50 69 97
0.242188 0.015625 -0.061104 61 83 116
0.246094 0.015625 -0.054301 70 86 130
0.250000 0.015625 -0.043411 66 80 125
0.253906 0.015625 -0.053717 69 83 118
0.257812 0.015625 -0.070231 74 86 110
0.261719 0.015625 -0.078428 82 92 102
0.265625 0.015625 -0.080875 197 204 205
0.269531 0.015625 -0.083833 146 152 145
0.273438 0.015625 -0.085392 69 73 67
0.277344 0.015625 -0.086840 52 50 40
0.281250 0.015625 -0.088584 196 164 151
0.285156 0.015625 -0.089496 230 205 185
0.289062 0.015625 -0.088782 233 197 173
0.292969 0.015625 -0.087483 239 207 179
0.296875 0.015625 -0.085588 238 206 176
0.300781 0.015625 -0.083677 229 200 176
0.304688 0.015625 -0.068306 240 228 211
-0.218750 0.011719 0.006153 181 132 112
-0.214844 0.011719 0.000484 194 163 143
-0.210938 0.011719 -0.002319 186 129 107
-0.207031 0.011719 -0.003896 214 153 127
-0.203125 0.011719 -0.004300 220 155 129
-0.199219 0.011719 -0.003209 225 158 131
-0.195312 0.011719 -0.001188 233 171 144
-0.191406 0.011719 0.001764 237 178 152
-0.187500 0.011719 0.005644 240 183 158
-0.183594 0.011719 0.012501 242 190 165
-0.179688 0.011719 0.019257 237 179 154
-0.175781 0.011719 0.025589 239 190 166
-0.171875 0.011719 0.032744 235 181 158
-0.167969 0.011719 0.036492 225 166 146
-0.164062 0.011719 0.040375 242 202 186
-0.160156 0.011719 0.054417 243 209 195
-0.156250 0.011719 0.003561 253 250 248
-0.152344 0.011719 -0.029357 254 254 254
-0.148438 0.011719 -0.041830 253 251 250
-0.144531 0.011719 -0.051909 245 237 236
-0.140625 0.011719 -0.058069 246 240 239
-0.136719 0.011719 -0.062529 244 239 240
-0.132812 0.011719 -0.066604 242 237 241
-0.128906 0.011719 -0.070114 242 237 241
-0.125000 0.011719 -0.073649 241 238 241
-0.121094 0.011719 -0.077027 240 237 240
-0.117188 0.011719 -0.080419 239 237 239
-0.113281 0.011719 -0.083695 240 237 239
-0.109375 0.011719 -0.086921 241 238 239
-0.105469 0.011719 -0.089682 242 238 240
-0.101562 0.011719 -0.092163 242 239 240
-0.097656 0.011719 -0.094828 243 239 241
-0.093750 0.011719 -0.097357 244 240 242
-0.089844 0.011719 -0.099823 243 239 242
-0.085938 0.011719 -0.102150 243 239 242
-0.082031 0.011719 -0.104374 242 239 242
-0.078125 0.011719 -0.106483 240 237 241
-0.074219 0.011719 -0.108282 240 238 242
-0.070312 0.011719 -0.109821 240 239 242
-0.066406 0.011719 -0.111261 240 238 242
-0.062500 0.011719 -0.112665 241 238 242
-0.058594 0.011719 -0.114128 240 237 241
-0.054688 0.011719 -0.115620 240 236 241
-0.050781 0.011719 -0.117064 240 234 240
-0.046875 0.011719 -0.118440 238 232 239
-0.042969 0.011719 -0.119624 237 230 237
-0.039062 0.011719 -0.120682 237 230 237
-0.035156 0.011719 -0.121742 239 232 238
-0.031250 0.011719 -0.122723 241 235 239
-0.027344 0.011719 -0.123663 243 237 240
-0.023438 0.011719 -0.124570 244 237 240
-0.019531 0.011719 -0.125388 244 237 240
-0.015625 0.011719 -0.126165 244 238 240
-0.011719 0.011719 -0.126894 245 239 241
-0.007812 0.011719 -0.127582 244 239 241
-0.003906 0.011719 -0.128186 244 239 240
0.000000 0.011719 -0.128718 243 239 240
0.003906 0.011719 -0.129168 243 239 241
0.007812 0.011719 -0.129622 243 239 241
0.011719 0.011719 -0.130074 242 238 240
0.015625 0.011719 -0.130471 240 236 238
0.019531 0.011719 -0.130940 239 234 238
0.023438 0.011719 -0.131450 238 233 237
0.027344 0.011719 -0.131932 236 232 235
0.031250 0.011719 -0.132452 235 231 234
0.035156 0.011719 -0.133027 233 229 232
0.039062 0.011719 -0.133595 231 228 231
0.042969 0.011719 -0.134152 231 229 231
0.046875 0.011719 -0.134665 231 229 230
0.050781 0.011719 -0.135178 230 229 230
0.054688 0.011719 -0.135633 229 229 229
0.058594 0.011719 -0.136085 227 229 228
0.062500 0.011719 -0.136604 226 229 228
0.066406 0.011719 -0.137119 222 227 227
0.070312 0.011719 -0.137691 218 225 225
0.074219 0.011719 -0.138262 215 223 223
0.078125 0.011719 -0.138850 210 219 220
0.082031 0.011719 -0.139519 200 210 213
0.085938 0.011719 -0.140247 186 198 201
0.089844 0.011719 -0.140935 181 194 196
0.093750 0.011719 -0.141569 179 190 194
0.097656 0.011719 -0.142285 175 185 187
0.101562 0.011719 -0.143062 182 189 189
0.105469 0.011719 -0.143798 192 195 196
0.109375 0.011719 -0.144458 197 197 200
0.113281 0.011719 -0.145015 196 195 200
0.117188 0.011719 -0.145548 193 191 198
0.121094 0.011719 -0.146029 189 188 196
0.125000 0.011719 -0.146397 183 184 192
0.128906 0.011719 -0.146589 175 180 186
0.132812 0.011719 -0.146535 165 174 180
0.136719 0.011719 -0.146292 157 169 176
0.140625 0.011719 -0.145867 148 162 168
0.144531 0.011719 -0.145308 133 150 158
0.148438 0.011719 -0.144644 121 140 147
0.152344 0.011719 -0.143713 109 131 136
0.156250 0.011719 -0.142581 100 124 128
0.160156 0.011719 -0.141281 96 122 124
0.164062 0.011719 -0.139804 93 120 119
0.167969 0.011719 -0.138123 93 120 119
0.171875 0.011719 -0.136234 97 124 122
0.175781 0.011719 -0.134208 98 127 126
0.179688 0.011719 -0.131998 103 133 133
0.183594 0.011719 -0.129667 114 144 146
0.187500 0.011719 -0.127225 125 155 159
0.191406 0.011719 -0.124313 138 165 170
0.195312 0.011719 -0.120889 141 167 174
0.199219 0.011719 -0.117436 140 167 175
0.203125 0.011719 -0.113809 140 168 175
0.207031 0.011719 -0.109927 138 167 174
0.210938 0.011719 -0.105736 141 170 174
0.214844 0.011719 -0.101340 123 157 154
0.218750 0.011719 -0.096767 103 138 128
0.222656 0.011719 -0.091495 92 124 111
0.226562 0.011719 -0.085818 78 108 96
0.230469 0.011719 -0.079566 71 96 87
0.234375 0.011719 -0.072745 65 90 81
0.238281 0.011719 -0.066895 62 87 81
0.242188 0.011719 -0.062053 68 96 92
0.246094 0.011719 -0.054194 78 107 106
0.250000 0.011719 -0.045029 83 107 114
0.253906 0.011719 -0.040196 86 103 123
0.257812 0.011719 -0.065412 71 84 99
0.261719 0.011719 -0.076108 73 83 89
0.265625 0.011719 -0.080134 187 195 191
0.269531 0.011719 -0.082642 130 136 126
0.273438 0.011719 -0.084616 45 48 38
0.277344 0.011719 -0.086602 81 58 48
0.281250 0.011719 -0.088575 209 165 155
0.285156 0.011719 -0.089508 236 209 189
0.289062 0.011719 -0.089070 240 207 183
0.292969 0.011719 -0.088048 244 209 186
0.296875 0.011719 -0.086512 241 201 178
0.300781 0.011719 -0.082451 232 196 174
0.304688 0.011719 -0.073729 237 220 203
-0.218750 0.007812 0.003035 156 120 113
-0.214844 0.007812 -0.001324 189 147 123
-0.210938 0.007812 -0.003957 188 128 104
-0.207031 0.007812 -0.005554 212 150 124
-0.203125 0.007812 -0.005896 219 154 129
-0.199219 0.007812 -0.004668 225 159 133
-0.195312 0.007812 -0.002445 234 173 148
-0.191406 0.007812 0.000741 238 182 157
-0.187500 0.007812 0.004955 241 187 163
-0.183594 0.007812 0.012162 242 192 169
-0.179688 0.007812 0.019024 238 182 158
-0.175781 0.007812 0.025365 239 191 168
-0.171875 0.007812 0.032326 235 181 157
-0.167969 0.007812 0.035407 224 162 141
-0.164062 0.007812 0.039940 242 198 180
-0.160156 0.007812 0.052092 244 207 192
-0.156250 0.007812 -0.018650 253 250 248
-0.152344 0.007812 -0.033184 254 254 254
-0.148438 0.007812 -0.045799 253 251 251
-0.144531 0.007812 -0.054677 246 237 236
-0.140625 0.007812 -0.060356 246 240 239
-0.136719 0.007812 -0.064370 244 239 241
-0.132812 0.007812 -0.068225 241 237 241
-0.128906 0.007812 -0.071518 241 237 242
-0.125000 0.007812 -0.074835 242 239 242
-0.121094 0.007812 -0.077973 240 238 241
-0.117188 0.007812 -0.081149 239 237 240
-0.113281 0.007812 -0.084246 240 238 240
-0.109375 0.007812 -0.087298 241 238 240
-0.105469 0.007812 -0.089903 242 239 240
-0.101562 0.007812 -0.092236 242 239 240
-0.097656 0.007812 -0.094749 243 240 241
-0.093750 0.007812 -0.097120 243 240 242
-0.089844 0.007812 -0.099438 243 240 242
-0.085938 0.007812 -0.101637 243 240 242
-0.082031 0.007812 -0.103736 242 239 242
-0.078125 0.007812 -0.105723 241 238 241
-0.074219 0.007812 -0.107426 241 239 242
-0.070312 0.007812 -0.108907 241 239 242
-0.066406 0.007812 -0.110301 241 239 242
-0.062500 0.007812 -0.111655 242 240 243
-0.058594 0.007812 -0.113071 243 240 243
-0.054688 0.007812 -0.114516 243 240 243
-0.050781 0.007812 -0.115932 243 240 243
-0.046875 0.007812 -0.117288 243 238 242
-0.042969 0.007812 -0.118472 241 236 241
-0.039062 0.007812 -0.119535 240 234 239
-0.035156 0.007812 -0.120589 240 233 239
-0.031250 0.007812 -0.121593 240 233 239
-0.027344 0.007812 -0.122552 242 235 239
-0.023438 0.007812 -0.123460 243 236 240
-0.019531 0.007812 -0.124286 243 237 240
-0.015625 0.007812 -0.125062 244 238 241
-0.011719 0.007812 -0.125789 245 239 241
-0.007812 0.007812 -0.126459 245 239 242
-0.003906 0.007812 -0.127060 244 239 241
0.000000 0.007812 -0.127589 243 239 241
0.003906 0.007812 -0.128006 243 238 241
0.007812 0.007812 -0.128427 242 238 241
0.011719 0.007812 -0.128808 242 238 241
0.015625 0.007812 -0.129161 241 237 241
0.019531 0.007812 -0.129587 241 236 241
0.023438 0.007812 -0.130056 240 236 240
0.027344 0.007812 -0.130543 239 235 240
0.031250 0.007812 -0.131046 238 235 239
0.035156 0.007812 -0.131636 237 234 238
0.039062 0.007812 -0.132224 237 233 238
0.042969 0.007812 -0.132767 237 233 237
0.046875 0.007812 -0.133266 237 234 237
0.050781 0.007812 -0.133759 237 234 237
0.054688 0.007812 -0.134195 237 234 237
0.058594 0.007812 -0.134648 237 235 237
0.062500 0.007812 -0.135129 237 236 238
0.066406 0.007812 -0.135623 236 236 237
0.070312 0.007812 -0.136203 235 236 237
0.074219 0.007812 -0.136783 235 236 237
0.078125 0.007812 -0.137372 234 235 237
0.082031 0.007812 -0.138048 234 234 236
0.085938 0.007812 -0.138791 232 232 234
0.089844 0.007812 -0.139463 232 232 234
0.093750 0.007812 -0.140092 234 233 235
0.097656 0.007812 -0.140818 236 234 235
0.101562 0.007812 -0.141599 238 235 236
0.105469 0.007812 -0.142330 238 235 235
0.109375 0.007812 -0.143001 238 234 235
0.113281 0.007812 -0.143585 239 235 236
0.117188 0.007812 -0.144106 240 236 237
0.121094 0.007812 -0.144576 241 238 238
0.125000 0.007812 -0.144950 242 238 238
0.128906 0.007812 -0.145159 241 238 237
0.132812 0.007812 -0.145174 240 237 237
0.136719 0.007812 -0.145006 239 237 236
0.140625 0.007812 -0.144670 238 236 235
0.144531 0.007812 -0.144203 235 233 233
0.148438 0.007812 -0.143627 231 230 230
0.152344 0.007812 -0.142783 226 226 227
0.156250 0.007812 -0.141721 223 224 225
0.160156 0.007812 -0.140494 222 224 224
0.164062 0.007812 -0.139089 219 222 223
0.167969 0.007812 -0.137465 218 221 222
0.171875 0.007812 -0.135610 218 221 222
0.175781 0.007812 -0.133624 217 221 222
0.179688 0.007812 -0.131452 218 222 224
0.183594 0.007812 -0.129159 224 227 229
0.187500 0.007812 -0.126742 229 231 233
0.191406 0.007812 -0.123818 233 234 235
0.195312 0.007812 -0.120353 233 235 236
0.199219 0.007812 -0.116893 234 236 237
0.203125 0.007812 -0.113267 234 235 237
0.207031 0.007812 -0.109388 232 233 236
0.210938 0.007812 -0.105238 232 232 234
0.214844 0.007812 -0.100891 225 227 228
0.218750 0.007812 -0.096354 221 222 220
0.222656 0.007812 -0.091126 221 217 214
0.226562 0.007812 -0.085494 217 209 207
0.230469 0.007812 -0.079298 213 202 201
0.234375 0.007812 -0.072643 209 196 197
0.238281 0.007812 -0.066842 206 193 196
0.242188 0.007812 -0.062200 205 194 198
0.246094 0.007812 -0.053755 206 194 198
0.250000 0.007812 -0.045065 207 196 198
0.253906 0.007812 -0.032946 220 213 209
0.257812 0.007812 -0.055513 198 195 190
0.261719 0.007812 -0.073142 97 109 102
0.265625 0.007812 -0.078525 143 153 145
0.269531 0.007812 -0.082358 84 84 78
0.273438 0.007812 -0.084214 80 65 50
0.277344 0.007812 -0.086484 146 110 96
0.281250 0.007812 -0.088436 216 175 162
0.285156 0.007812 -0.089488 239 209 189
0.289062 0.007812 -0.089042 243 209 187
0.292969 0.007812 -0.088012 244 204 185
0.296875 0.007812 -0.086967 240 190 173
0.300781 0.007812 -0.082436 231 189 168
0.304688 0.007812 -0.076970 237 223 206
-0.218750 0.003906 0.000152 168 126 112
-0.214844 0.003906 -0.003377 192 144 118
-0.210938 0.003906 -0.005690 198 138 112
-0.207031 0.003906 -0.006984 215 155 129
-0.203125 0.003906 -0.007456 223 162 137
-0.199219 0.003906 -0.006149 229 167 143
-0.195312 0.003906 -0.003650 236 180 156
-0.191406 0.003906 -0.000188 240 186 163
-0.187500 0.003906 0.004322 241 190 168
-0.183594 0.003906 0.012002 242 194 171
-0.179688 0.003906 0.018952 238 184 162
-0.175781 0.003906 0.025282 238 189 167
-0.171875 0.003906 0.031887 233 176 152
-0.167969 0.003906 0.033240 225 160 138
-0.164062 0.003906 0.043764 242 193 174
-0.160156 0.003906 0.015413 245 203 187
-0.156250 0.003906 -0.032141 254 250 248
-0.152344 0.003906 -0.039850 254 254 254
-0.148438 0.003906 -0.049140 253 251 250
-0.144531 0.003906 -0.057112 245 235 234
-0.140625 0.003906 -0.062572 244 238 238
-0.136719 0.003906 -0.066220 243 239 241
-0.132812 0.003906 -0.069751 242 239 242
-0.128906 0.003906 -0.072894 242 239 243
-0.125000 0.003906 -0.076010 243 242 243
-0.121094 0.003906 -0.078925 242 241 242
-0.117188 0.003906 -0.081869 241 240 241
-0.113281 0.003906 -0.084783 241 239 241
-0.109375 0.003906 -0.087653 242 239 241
-0.105469 0.003906 -0.090112 243 240 241
-0.101562 0.003906 -0.092313 243 240 241
-0.097656 0.003906 -0.094680 243 240 242
-0.093750 0.003906 -0.096899 243 241 242
-0.089844 0.003906 -0.099074 243 240 242
-0.085938 0.003906 -0.101147 243 240 243
-0.082031 0.003906 -0.103142 242 240 242
-0.078125 0.003906 -0.105033 242 239 242
-0.074219 0.003906 -0.106658 242 240 242
-0.070312 0.003906 -0.108085 242 240 243
-0.066406 0.003906 -0.109416 243 241 243
-0.062500 0.003906 -0.110702 244 242 244
-0.058594 0.003906 -0.112057 244 242 244
-0.054688 0.003906 -0.113444 244 242 244
-0.050781 0.003906 -0.114804 245 242 244
-0.046875 0.003906 -0.116115 244 241 243
-0.042969 0.003906 -0.117275 244 240 243
-0.039062 0.003906 -0.118317 244 240 242
-0.035156 0.003906 -0.119349 243 239 242
-0.031250 0.003906 -0.120362 243 239 242
-0.027344 0.003906 -0.121313 244 239 242
-0.023438 0.003906 -0.122207 244 240 242
-0.019531 0.003906 -0.123024 244 240 242
-0.015625 0.003906 -0.123789 244 240 242
-0.011719 0.003906 -0.124521 245 240 243
-0.007812 0.003906 -0.125164 245 241 243
-0.003906 0.003906 -0.125740 245 241 243
0.000000 0.003906 -0.126271 244 241 243
0.003906 0.003906 -0.126720 244 240 243
0.007812 0.003906 -0.127151 243 240 243
0.011719 0.003906 -0.127563 243 239 243
0.015625 0.003906 -0.127949 242 238 242
0.019531 0.003906 -0.128346 242 238 243
0.023438 0.003906 -0.128812 241 237 242
0.027344 0.003906 -0.129309 239 235 241
0.031250 0.003906 -0.129784 238 234 240
0.035156 0.003906 -0.130373 236 232 238
0.039062 0.003906 -0.130961 235 231 238
0.042969 0.003906 -0.131527 235 231 237
0.046875 0.003906 -0.132028 236 231 237
0.050781 0.003906 -0.132473 237 232 238
0.054688 0.003906 -0.132880 238 233 238
0.058594 0.003906 -0.133336 238 234 238
0.062500 0.003906 -0.133831 238 234 238
0.066406 0.003906 -0.134355 237 235 238
0.070312 0.003906 -0.134958 237 235 238
0.074219 0.003906 -0.135547 237 235 238
0.078125 0.003906 -0.136141 236 234 238
0.082031 0.003906 -0.136830 236 234 238
0.085938 0.003906 -0.137589 236 234 238
0.089844 0.003906 -0.138259 238 236 239
0.093750 0.003906 -0.138914 240 237 240
0.097656 0.003906 -0.139681 241 238 240
0.101562 0.003906 -0.140475 242 239 240
0.105469 0.003906 -0.141211 242 240 241
0.109375 0.003906 -0.141899 243 240 241
0.113281 0.003906 -0.142507 243 241 241
0.117188 0.003906 -0.143011 244 241 242
0.121094 0.003906 -0.143466 245 242 242
0.125000 0.003906 -0.143870 245 243 242
0.128906 0.003906 -0.144096 245 242 242
0.132812 0.003906 -0.144140 245 243 242
0.136719 0.003906 -0.144004 245 243 242
0.140625 0.003906 -0.143719 245 243 242
0.144531 0.003906 -0.143330 245 242 242
0.148438 0.003906 -0.142825 243 241 241
0.152344 0.003906 -0.142037 242 240 239
0.156250 0.003906 -0.141021 241 240 239
0.160156 0.003906 -0.139826 242 241 240
0.164062 0.003906 -0.138437 242 241 240
0.167969 0.003906 -0.136824 241 240 240
0.171875 0.003906 -0.134954 240 239 239
0.175781 0.003906 -0.132974 238 238 238
0.179688 0.003906 -0.130803 238 238 239
0.183594 0.003906 -0.128521 240 240 240
0.187500 0.003906 -0.126110 241 241 241
0.191406 0.003906 -0.123170 242 241 242
0.195312 0.003906 -0.119675 241 241 241
0.199219 0.003906 -0.116155 242 241 242
0.203125 0.003906 -0.112502 242 241 242
0.207031 0.003906 -0.108624 240 238 241
0.210938 0.003906 -0.104482 237 235 238
0.214844 0.003906 -0.100169 230 228 231
0.218750 0.003906 -0.095682 227 222 223
0.222656 0.003906 -0.090503 228 217 218
0.226562 0.003906 -0.084914 227 211 212
0.230469 0.003906 -0.078822 226 207 209
0.234375 0.003906 -0.072352 224 204 208
0.238281 0.003906 -0.066585 223 203 208
0.242188 0.003906 -0.061088 222 203 208
0.246094 0.003906 -0.053603 222 203 208
0.250000 0.003906 -0.043265 223 205 210
0.253906 0.003906 -0.032417 235 222 222
0.257812 0.003906 -0.027217 245 236 232
0.261719 0.003906 -0.069403 224 215 208
0.265625 0.003906 -0.077588 100 107 102
0.269531 0.003906 -0.082431 70 61 60
0.273438 0.003906 -0.083839 173 137 124
0.277344 0.003906 -0.086539 214 184 168
0.281250 0.003906 -0.088486 226 190 173
0.285156 0.003906 -0.089739 239 200 178
0.289062 0.003906 -0.089202 243 201 181
0.292969 0.003906 -0.088028 244 197 178
0.296875 0.003906 -0.087162 241 186 168
0.300781 0.003906 -0.082662 234 194 172
0.304688 0.003906 -0.078740 240 228 211
-0.222656 0.000000 0.003665 199 150 137
-0.218750 0.000000 -0.002283 181 132 112
-0.214844 0.000000 -0.005047 196 139 113
-0.210938 0.000000 -0.007194 204 142 116
-0.207031 0.000000 -0.008418 219 161 135
-0.203125 0.000000 -0.008883 227 169 145
-0.199219 0.000000 -0.007434 232 173 150
-0.195312 0.000000 -0.004660 237 184 162
-0.191406 0.000000 -0.000985 240 187 166
-0.187500 0.000000 0.004197 240 188 167
-0.183594 0.000000 0.012135 241 191 170
-0.179688 0.000000 0.019038 237 185 163
-0.175781 0.000000 0.025285 234 183 160
-0.171875 0.000000 0.031012 228 166 142
-0.167969 0.000000 0.032761 225 158 136
-0.164062 0.000000 0.043456 243 190 170
-0.160156 0.000000 -0.027534 246 199 183
-0.156250 0.000000 -0.036104 254 250 247
-0.152344 0.000000 -0.046045 254 254 254
-0.148438 0.000000 -0.053095 253 251 250
-0.144531 0.000000 -0.058968 245 235 233
-0.140625 0.000000 -0.064483 243 237 236
-0.136719 0.000000 -0.067989 243 238 239
-0.132812 0.000000 -0.071189 242 238 241
-0.128906 0.000000 -0.074154 242 239 242
-0.125000 0.000000 -0.077077 244 242 243
-0.121094 0.000000 -0.079797 242 241 243
-0.117188 0.000000 -0.082533 241 240 242
-0.113281 0.000000 -0.085261 242 240 241
-0.109375 0.000000 -0.087939 242 240 241
-0.105469 0.000000 -0.090255 243 241 242
-0.101562 0.000000 -0.092335 243 240 241
-0.097656 0.000000 -0.094562 243 240 242
-0.093750 0.000000 -0.096650 243 240 242
-0.089844 0.000000 -0.098703 242 240 242
-0.085938 0.000000 -0.100661 242 240 242
-0.082031 0.000000 -0.102555 242 239 242
-0.078125 0.000000 -0.104353 241 238 241
-0.074219 0.000000 -0.105909 242 239 242
-0.070312 0.000000 -0.107277 242 240 242
-0.066406 0.000000 -0.108548 243 241 243
-0.062500 0.000000 -0.109777 244 241 243
-0.058594 0.000000 -0.111075 244 242 244
-0.054688 0.000000 -0.112410 245 242 244
-0.050781 0.000000 -0.113719 245 243 244
-0.046875 0.000000 -0.114983 245 243 244
-0.042969 0.000000 -0.116102 246 243 244
-0.039062 0.000000 -0.117121 246 243 244
-0.035156 0.000000 -0.118125 245 242 244
-0.031250 0.000000 -0.119109 245 242 244
-0.027344 0.000000 -0.120029 245 242 244
-0.023438 0.000000 -0.120886 245 242 244
-0.019531 0.000000 -0.121673 245 242 243
-0.015625 0.000000 -0.122399 245 241 243
-0.011719 0.000000 -0.123096 244 240 243
-0.007812 0.000000 -0.123692 244 240 242
-0.003906 0.000000 -0.124238 243 239 242
0.000000 0.000000 -0.124745 243 239 242
0.003906 0.000000 -0.125159 242 238 241
0.007812 0.000000 -0.125563 241 238 241
0.011719 0.000000 -0.125969 241 237 242
0.015625 0.000000 -0.126384 240 237 242
0.019531 0.000000 -0.126774 240 237 242
0.023438 0.000000 -0.127233 240 237 242
0.027344 0.000000 -0.127718 238 235 241
0.031250 0.000000 -0.128194 236 233 240
0.035156 0.000000 -0.128799 235 232 239
0.039062 0.000000 -0.129395 234 231 238
0.042969 0.000000 -0.130037 235 231 238
0.046875 0.000000 -0.130604 235 231 238
0.050781 0.000000 -0.131063 235 231 237
0.054688 0.000000 -0.131496 235 230 237
0.058594 0.000000 -0.131963 233 228 235
0.062500 0.000000 -0.132487 231 227 234
0.066406 0.000000 -0.133059 230 226 233
0.070312 0.000000 -0.133672 229 225 233
0.074219 0.000000 -0.134277 228 225 233
0.078125 0.000000 -0.134892 229 226 233
0.082031 0.000000 -0.135565 232 230 236
0.085938 0.000000 -0.136319 235 233 238
0.089844 0.000000 -0.136998 239 236 240
0.093750 0.000000 -0.137665 241 238 242
0.097656 0.000000 -0.138457 242 239 242
0.101562 0.000000 -0.139256 243 241 243
0.105469 0.000000 -0.140014 244 242 243
0.109375 0.000000 -0.140730 245 242 244
0.113281 0.000000 -0.141338 245 242 244
0.117188 0.000000 -0.141856 246 242 244
0.121094 0.000000 -0.142321 246 242 243
0.125000 0.000000 -0.142720 246 242 243
0.128906 0.000000 -0.142945 246 242 243
0.132812 0.000000 -0.143016 246 243 243
0.136719 0.000000 -0.142916 247 243 243
0.140625 0.000000 -0.142659 247 243 243
0.144531 0.000000 -0.142296 246 243 243
0.148438 0.000000 -0.141836 246 243 243
0.152344 0.000000 -0.141086 245 242 242
0.156250 0.000000 -0.140104 245 241 242
0.160156 0.000000 -0.138938 244 241 242
0.164062 0.000000 -0.137559 244 241 241
0.167969 0.000000 -0.135963 244 241 241
0.171875 0.000000 -0.134104 244 241 241
0.175781 0.000000 -0.132129 243 241 241
0.179688 0.000000 -0.129953 243 241 242
0.183594 0.000000 -0.127681 243 241 242
0.187500 0.000000 -0.125288 244 241 243
0.191406 0.000000 -0.122351 244 241 243
0.195312 0.000000 -0.118851 243 240 242
0.199219 0.000000 -0.115328 243 240 242
0.203125 0.000000 -0.111683 243 240 242
0.207031 0.000000 -0.107831 242 238 242
0.210938 0.000000 -0.103724 240 235 240
0.214844 0.000000 -0.099448 234 229 233
0.218750 0.000000 -0.094989 232 223 226
0.222656 0.000000 -0.089851 232 218 220
0.226562 0.000000 -0.084308 231 212 215
0.230469 0.000000 -0.078300 230 210 214
0.234375 0.000000 -0.071958 229 207 213
0.238281 0.000000 -0.066157 228 209 215
0.242188 0.000000 -0.059795 229 210 216
0.246094 0.000000 -0.053187 231 210 217
0.250000 0.000000 -0.041823 232 209 217
0.253906 0.000000 -0.030928 237 217 221
0.257812 0.000000 -0.012539 243 228 228
0.261719 0.000000 -0.050781 240 228 225
0.265625 0.000000 -0.075910 210 193 186
0.269531 0.000000 -0.081110 181 151 142
0.273438 0.000000 -0.083487 219 186 171
0.277344 0.000000 -0.086547 235 210 195
0.281250 0.000000 -0.088739 233 198 180
0.285156 0.000000 -0.090037 238 192 171
0.289062 0.000000 -0.089562 243 196 177
0.292969 0.000000 -0.088734 244 193 173
0.296875 0.000000 -0.087877 241 184 166
0.300781 0.000000 -0.083411 234 192 172
0.304688 0.000000 -0.078528 237 220 203
-0.222656 -0.003906 0.000192 169 130 124
-0.218750 -0.003906 -0.004017 185 125 107
-0.214844 -0.003906 -0.006523 202 138 113
-0.210938 -0.003906 -0.008720 210 145 119
-0.207031 -0.003906 -0.009724 223 165 140
-0.203125 -0.003906 -0.010203 229 171 147
-0.199219 -0.003906 -0.008709 233 175 153
-0.195312 -0.003906 -0.005668 239 187 165
-0.191406 -0.003906 -0.001685 240 188 168
-0.187500 -0.003906 0.004864 239 185 165
-0.183594 -0.003906 0.012449 239 187 166
-0.179688 -0.003906 0.019322 235 180 159
-0.175781 -0.003906 0.025181 228 171 148
-0.171875 -0.003906 0.029575 221 151 127
-0.167969 -0.003906 0.034334 225 155 133
-0.164062 -0.003906 -0.001189 243 190 169
-0.160156 -0.003906 -0.040229 246 197 180
-0.156250 -0.003906 -0.040838 254 250 247
-0.152344 -0.003906 -0.050621 254 254 254
-0.148438 -0.003906 -0.056334 253 251 250
-0.144531 -0.003906 -0.060871 245 235 233
-0.140625 -0.003906 -0.066159 243 237 236
-0.136719 -0.003906 -0.069456 242 238 239
-0.132812 -0.003906 -0.072525 241 238 240
-0.128906 -0.003906 -0.075321 242 239 242
-0.125000 -0.003906 -0.078068 244 242 243
-0.121094 -0.003906 -0.080618 243 241 243
-0.117188 -0.003906 -0.083164 241 240 241
-0.113281 -0.003906 -0.085715 242 240 241
-0.109375 -0.003906 -0.088201 243 240 241
-0.105469 -0.003906 -0.090374 243 240 241
-0.101562 -0.003906 -0.092341 243 240 241
-0.097656 -0.003906 -0.094426 243 240 242
-0.093750 -0.003906 -0.096377 243 240 242
-0.089844 -0.003906 -0.098301 243 240 242
-0.085938 -0.003906 -0.100137 243 240 242
-0.082031 -0.003906 -0.101919 242 240 242
-0.078125 -0.003906 -0.103620 242 239 242
-0.074219 -0.003906 -0.105089 242 239 241
-0.070312 -0.003906 -0.106391 242 239 242
-0.066406 -0.003906 -0.107604 243 240 242
-0.062500 -0.003906 -0.108784 244 241 243
-0.058594 -0.003906 -0.110031 244 241 243
-0.054688 -0.003906 -0.111312 245 242 244
-0.050781 -0.003906 -0.112567 246 243 244
-0.046875 -0.003906 -0.113766 246 244 245
-0.042969 -0.003906 -0.114837 247 244 245
-0.039062 -0.003906 -0.115814 247 244 245
-0.035156 -0.003906 -0.116774 247 244 245
-0.031250 -0.003906 -0.117722 246 243 245
-0.027344 -0.003906 -0.118604 246 243 244
-0.023438 -0.003906 -0.119421 246 242 244
-0.019531 -0.003906 -0.120181 245 242 243
-0.015625 -0.003906 -0.120887 244 241 243
-0.011719 -0.003906 -0.121553 243 240 242
-0.007812 -0.003906 -0.122107 243 239 241
-0.003906 -0.003906 -0.122640 242 238 241
0.000000 -0.003906 -0.123130 242 238 241
0.003906 -0.003906 -0.123501 241 238 241
0.007812 -0.003906 -0.123858 241 238 241
0.011719 -0.003906 -0.124228 241 238 242
0.015625 -0.003906 -0.124637 240 237 242
0.019531 -0.003906 -0.125019 239 236 242
0.023438 -0.003906 -0.125475 238 235 241
0.027344 -0.003906 -0.125954 236 233 240
0.031250 -0.003906 -0.126430 234 232 239
0.035156 -0.003906 -0.127055 234 232 239
0.039062 -0.003906 -0.127650 234 232 238
0.042969 -0.003906 -0.128300 235 232 238
0.046875 -0.003906 -0.128884 234 231 237
0.050781 -0.003906 -0.129367 233 229 236
0.054688 -0.003906 -0.129840 232 228 235
0.058594 -0.003906 -0.130301 231 226 234
0.062500 -0.003906 -0.130838 229 225 233
0.066406 -0.003906 -0.131424 227 223 232
0.070312 -0.003906 -0.132036 227 223 232
0.074219 -0.003906 -0.132652 228 225 233
0.078125 -0.003906 -0.133279 231 228 235
0.082031 -0.003906 -0.133938 235 232 238
0.085938 -0.003906 -0.134687 238 235 240
0.089844 -0.003906 -0.135400 241 237 242
0.093750 -0.003906 -0.136088 242 239 242
0.097656 -0.003906 -0.136896 243 239 242
0.101562 -0.003906 -0.137724 243 239 242
0.105469 -0.003906 -0.138543 244 240 243
0.109375 -0.003906 -0.139315 244 240 243
0.113281 -0.003906 -0.139933 244 240 243
0.117188 -0.003906 -0.140442 245 240 243
0.121094 -0.003906 -0.140907 245 241 243
0.125000 -0.003906 -0.141304 246 241 243
0.128906 -0.003906 -0.141542 246 241 243
0.132812 -0.003906 -0.141634 246 241 242
0.136719 -0.003906 -0.141559 246 241 242
0.140625 -0.003906 -0.141330 246 241 242
0.144531 -0.003906 -0.140992 246 240 241
0.148438 -0.003906 -0.140573 246 241 241
0.152344 -0.003906 -0.139855 246 241 242
0.156250 -0.003906 -0.138902 246 241 242
0.160156 -0.003906 -0.137770 245 240 241
0.164062 -0.003906 -0.136421 244 239 240
0.167969 -0.003906 -0.134840 243 238 239
0.171875 -0.003906 -0.133002 243 238 239
0.175781 -0.003906 -0.131043 243 237 239
0.179688 -0.003906 -0.128873 242 236 239
0.183594 -0.003906 -0.126628 242 236 239
0.187500 -0.003906 -0.124262 242 236 240
0.191406 -0.003906 -0.121353 243 237 240
0.195312 -0.003906 -0.117881 242 237 240
0.199219 -0.003906 -0.114393 242 237 240
0.203125 -0.003906 -0.110777 242 236 240
0.207031 -0.003906 -0.106964 242 237 241
0.210938 -0.003906 -0.102903 242 236 240
0.214844 -0.003906 -0.098673 238 231 235
0.218750 -0.003906 -0.094248 238 229 230
0.222656 -0.003906 -0.089112 238 224 226
0.226562 -0.003906 -0.083569 237 220 222
0.230469 -0.003906 -0.077600 236 218 221
0.234375 -0.003906 -0.071338 233 215 219
0.238281 -0.003906 -0.065584 233 217 221
0.242188 -0.003906 -0.058836 234 217 222
0.246094 -0.003906 -0.052222 235 216 222
0.250000 -0.003906 -0.042110 236 214 220
0.253906 -0.003906 -0.028540 238 217 220
0.257812 -0.003906 -0.011068 235 216 216
0.265625 -0.003906 -0.074501 247 236 233
0.269531 -0.003906 -0.079303 241 220 213
0.273438 -0.003906 -0.083517 228 191 176
0.277344 -0.003906 -0.086555 232 196 180
0.281250 -0.003906 -0.089066 233 189 174
0.285156 -0.003906 -0.090393 238 185 166
0.289062 -0.003906 -0.089968 242 192 172
0.292969 -0.003906 -0.089674 243 191 170
0.296875 -0.003906 -0.088837 242 187 168
0.300781 -0.003906 -0.085567 236 195 177
0.304688 -0.003906 -0.079047 234 212 197
-0.222656 -0.007812 -0.002338 192 147 139
-0.218750 -0.007812 -0.005525 201 139 123
-0.214844 -0.007812 -0.007900 214 152 129
-0.210938 -0.007812 -0.009800 217 153 128
-0.207031 -0.007812 -0.010812 225 165 141
-0.203125 -0.007812 -0.011359 228 168 146
-0.199219 -0.007812 -0.009841 233 174 153
-0.195312 -0.007812 -0.006675 239 188 167
-0.191406 -0.007812 -0.002402 241 190 170
-0.187500 -0.007812 0.004898 239 186 166
-0.183594 -0.007812 0.012094 237 182 162
-0.179688 -0.007812 0.018696 230 170 150
-0.175781 -0.007812 0.023673 220 155 133
-0.171875 -0.007812 0.026791 212 136 113
-0.167969 -0.007812 0.032203 223 152 129
-0.164062 -0.007812 -0.028519 244 192 171
-0.160156 -0.007812 -0.042541 247 200 182
-0.156250 -0.007812 -0.047036 254 250 247
-0.152344 -0.007812 -0.053977 254 254 254
-0.148438 -0.007812 -0.058752 253 250 249
-0.144531 -0.007812 -0.062805 244 234 231
-0.140625 -0.007812 -0.067604 243 237 234
-0.136719 -0.007812 -0.070777 241 237 237
-0.132812 -0.007812 -0.073712 240 237 239
-0.128906 -0.007812 -0.076354 242 239 242
-0.125000 -0.007812 -0.078947 244 242 243
-0.121094 -0.007812 -0.081354 243 241 243
-0.117188 -0.007812 -0.083734 242 240 241
-0.113281 -0.007812 -0.086117 242 240 241
-0.109375 -0.007812 -0.088423 243 240 241
-0.105469 -0.007812 -0.090459 244 241 241
-0.101562 -0.007812 -0.092315 244 240 241
-0.097656 -0.007812 -0.094265 244 240 242
-0.093750 -0.007812 -0.096083 244 241 242
-0.089844 -0.007812 -0.097878 244 241 242
-0.085938 -0.007812 -0.099595 244 241 243
-0.082031 -0.007812 -0.101274 243 240 242
-0.078125 -0.007812 -0.102881 243 240 242
-0.074219 -0.007812 -0.104260 243 240 242
-0.070312 -0.007812 -0.105487 243 240 242
-0.066406 -0.007812 -0.106639 243 240 242
-0.062500 -0.007812 -0.107759 244 241 243
-0.058594 -0.007812 -0.108948 244 241 243
-0.054688 -0.007812 -0.110170 245 242 243
-0.050781 -0.007812 -0.111362 245 242 244
-0.046875 -0.007812 -0.112497 245 243 244
-0.042969 -0.007812 -0.113516 246 243 244
-0.039062 -0.007812 -0.114443 246 243 244
-0.035156 -0.007812 -0.115352 246 243 244
-0.031250 -0.007812 -0.116260 246 242 244
-0.027344 -0.007812 -0.117097 245 242 243
-0.023438 -0.007812 -0.117874 245 242 243
-0.019531 -0.007812 -0.118610 245 241 243
-0.015625 -0.007812 -0.119302 244 240 242
-0.011719 -0.007812 -0.119956 243 240 242
-0.007812 -0.007812 -0.120486 243 239 241
-0.003906 -0.007812 -0.121008 242 239 241
0.000000 -0.007812 -0.121495 242 238 241
0.003906 -0.007812 -0.121852 241 238 241
0.007812 -0.007812 -0.122185 241 237 241
0.011719 -0.007812 -0.122530 241 237 241
0.015625 -0.007812 -0.122917 240 237 241
0.019531 -0.007812 -0.123282 238 235 241
0.023438 -0.007812 -0.123739 236 233 239
0.027344 -0.007812 -0.124205 233 230 238
0.031250 -0.007812 -0.124658 232 229 237
0.035156 -0.007812 -0.125248 231 229 236
0.039062 -0.007812 -0.125794 231 230 236
0.042969 -0.007812 -0.126455 232 230 236
0.046875 -0.007812 -0.127021 231 229 235
0.050781 -0.007812 -0.127470 230 227 234
0.054688 -0.007812 -0.127947 229 226 233
0.058594 -0.007812 -0.128396 229 225 233
0.062500 -0.007812 -0.128928 228 224 233
0.066406 -0.007812 -0.129491 226 223 232
0.070312 -0.007812 -0.130110 228 224 233
0.074219 -0.007812 -0.130732 231 228 235
0.078125 -0.007812 -0.131378 234 231 238
0.082031 -0.007812 -0.132067 237 234 240
0.085938 -0.007812 -0.132823 239 235 241
0.089844 -0.007812 -0.133565 240 236 241
0.093750 -0.007812 -0.134289 241 237 241
0.097656 -0.007812 -0.135122 241 237 242
0.101562 -0.007812 -0.135987 242 238 242
0.105469 -0.007812 -0.136843 242 239 242
0.109375 -0.007812 -0.137637 243 239 242
0.113281 -0.007812 -0.138271 243 239 242
0.117188 -0.007812 -0.138784 244 240 243
0.121094 -0.007812 -0.139266 244 240 243
0.125000 -0.007812 -0.139686 245 241 243
0.128906 -0.007812 -0.139944 245 241 243
0.132812 -0.007812 -0.140064 245 241 242
0.136719 -0.007812 -0.140022 245 241 242
0.140625 -0.007812 -0.139833 245 241 242
0.144531 -0.007812 -0.139536 246 241 242
0.148438 -0.007812 -0.139165 246 241 242
0.152344 -0.007812 -0.138494 246 241 243
0.156250 -0.007812 -0.137579 246 241 242
0.160156 -0.007812 -0.136477 245 240 242
0.164062 -0.007812 -0.135161 244 239 241
0.167969 -0.007812 -0.133601 244 238 240
0.171875 -0.007812 -0.131781 243 237 239
0.175781 -0.007812 -0.129844 242 235 239
0.179688 -0.007812 -0.127694 242 235 239
0.183594 -0.007812 -0.125470 242 235 239
0.187500 -0.007812 -0.123129 242 236 240
0.191406 -0.007812 -0.120265 243 237 240
0.195312 -0.007812 -0.116827 243 237 241
0.199219 -0.007812 -0.113368 243 237 241
0.203125 -0.007812 -0.109795 243 237 241
0.207031 -0.007812 -0.106002 243 238 241
0.210938 -0.007812 -0.101951 243 237 241
0.214844 -0.007812 -0.097754 241 235 237
0.218750 -0.007812 -0.093337 241 234 234
0.222656 -0.007812 -0.088195 240 230 230
0.226562 -0.007812 -0.082667 239 226 228
0.230469 -0.007812 -0.076753 238 224 227
0.234375 -0.007812 -0.070558 236 221 225
0.238281 -0.007812 -0.064822 235 223 227
0.242188 -0.007812 -0.057887 235 223 228
0.246094 -0.007812 -0.050697 235 221 226
0.250000 -0.007812 -0.042020 236 221 225
0.253906 -0.007812 -0.025897 239 223 224
0.257812 -0.007812 -0.008637 233 212 214
0.265625 -0.007812 -0.069349 248 234 232
0.269531 -0.007812 -0.077976 246 224 220
0.273438 -0.007812 -0.083437 236 198 188
0.277344 -0.007812 -0.086680 236 198 184
0.281250 -0.007812 -0.089518 238 196 180
0.285156 -0.007812 -0.091067 240 191 172
0.289062 -0.007812 -0.090689 242 193 173
0.292969 -0.007812 -0.090664 243 192 171
0.296875 -0.007812 -0.089793 242 189 170
0.300781 -0.007812 -0.086986 238 197 179
0.304688 -0.007812 -0.080305 232 203 190
-0.226562 -0.011719 0.001877 127 80 78
-0.222656 -0.011719 -0.003967 199 150 137
-0.218750 -0.011719 -0.006914 211 151 133
-0.214844 -0.011719 -0.009073 221 160 138
-0.210938 -0.011719 -0.010761 219 154 130
-0.207031 -0.011719 -0.011813 224 161 139
-0.203125 -0.011719 -0.012379 229 167 146
-0.199219 -0.011719 -0.010925 234 175 156
-0.195312 -0.011719 -0.007819 238 186 167
-0.191406 -0.011719 -0.003232 240 188 169
-0.187500 -0.011719 0.004798 238 185 166
-0.183594 -0.011719 0.011424 234 178 158
-0.179688 -0.011719 0.017825 225 160 140
-0.175781 -0.011719 0.020686 213 143 121
-0.171875 -0.011719 0.023197 203 124 102
-0.167969 -0.011719 -0.001174 219 143 121
-0.164062 -0.011719 -0.036319 244 192 170
-0.160156 -0.011719 -0.044234 247 204 184
-0.156250 -0.011719 -0.050026 254 250 247
-0.152344 -0.011719 -0.056238 254 254 254
-0.148438 -0.011719 -0.060487 253 251 249
-0.144531 -0.011719 -0.064427 243 234 230
-0.140625 -0.011719 -0.068729 241 236 233
-0.136719 -0.011719 -0.071867 239 235 235
-0.132812 -0.011719 -0.074687 239 235 238
-0.128906 -0.011719 -0.077219 242 239 242
-0.125000 -0.011719 -0.079691 245 242 243
-0.121094 -0.011719 -0.081969 243 241 243
-0.117188 -0.011719 -0.084213 242 240 241
-0.113281 -0.011719 -0.086450 243 240 241
-0.109375 -0.011719 -0.088596 243 240 241
-0.105469 -0.011719 -0.090506 244 241 241
-0.101562 -0.011719 -0.092251 244 241 242
-0.097656 -0.011719 -0.094065 244 241 242
-0.093750 -0.011719 -0.095751 244 241 242
-0.089844 -0.011719 -0.097411 244 241 243
-0.085938 -0.011719 -0.099001 244 241 243
-0.082031 -0.011719 -0.100565 244 241 243
-0.078125 -0.011719 -0.102063 243 241 242
-0.074219 -0.011719 -0.103341 243 240 242
-0.070312 -0.011719 -0.104485 244 241 242
-0.066406 -0.011719 -0.105560 244 241 243
-0.062500 -0.011719 -0.106606 244 241 243
-0.058594 -0.011719 -0.107732 244 242 243
-0.054688 -0.011719 -0.108901 245 242 243
-0.050781 -0.011719 -0.110041 245 242 243
-0.046875 -0.011719 -0.111127 245 242 243
-0.042969 -0.011719 -0.112107 245 242 243
-0.039062 -0.011719 -0.113000 245 242 243
-0.035156 -0.011719 -0.113874 245 242 243
-0.031250 -0.011719 -0.114747 245 242 243
-0.027344 -0.011719 -0.115543 245 242 243
-0.023438 -0.011719 -0.116277 245 241 243
-0.019531 -0.011719 -0.116982 245 241 243
-0.015625 -0.011719 -0.117646 245 241 242
-0.011719 -0.011719 -0.118280 244 241 242
-0.007812 -0.011719 -0.118791 244 240 242
-0.003906 -0.011719 -0.119296 243 240 241
0.000000 -0.011719 -0.119771 243 239 241
0.003906 -0.011719 -0.120111 242 238 241
0.007812 -0.011719 -0.120419 241 237 240
0.011719 -0.011719 -0.120747 240 237 241
0.015625 -0.011719 -0.121123 239 236 240
0.019531 -0.011719 -0.121472 238 235 240
0.023438 -0.011719 -0.121927 236 233 239
0.027344 -0.011719 -0.122369 233 231 237
0.031250 -0.011719 -0.122818 230 228 235
0.035156 -0.011719 -0.123394 226 225 233
0.039062 -0.011719 -0.123852 226 225 233
0.042969 -0.011719 -0.124480 228 227 234
0.046875 -0.011719 -0.125021 228 227 234
0.050781 -0.011719 -0.125374 228 227 233
0.054688 -0.011719 -0.125818 227 226 233
0.058594 -0.011719 -0.126252 229 227 233
0.062500 -0.011719 -0.126763 231 229 235
0.066406 -0.011719 -0.127307 230 228 235
0.070312 -0.011719 -0.127921 232 229 236
0.074219 -0.011719 -0.128517 234 232 238
0.078125 -0.011719 -0.129152 237 234 240
0.082031 -0.011719 -0.129856 240 237 242
0.085938 -0.011719 -0.130617 240 237 242
0.089844 -0.011719 -0.131381 241 237 242
0.093750 -0.011719 -0.132134 241 238 242
0.097656 -0.011719 -0.132999 242 238 243
0.101562 -0.011719 -0.133882 242 239 243
0.105469 -0.011719 -0.134746 243 240 243
0.109375 -0.011719 -0.135553 244 241 244
0.113281 -0.011719 -0.136197 244 241 244
0.117188 -0.011719 -0.136704 245 242 244
0.121094 -0.011719 -0.137183 245 242 244
0.125000 -0.011719 -0.137611 246 242 244
0.128906 -0.011719 -0.137877 246 242 244
0.132812 -0.011719 -0.138016 246 242 244
0.136719 -0.011719 -0.137994 246 242 244
0.140625 -0.011719 -0.137830 246 242 244
0.144531 -0.011719 -0.137568 246 242 244
0.148438 -0.011719 -0.137230 246 242 244
0.152344 -0.011719 -0.136617 246 242 243
0.156250 -0.011719 -0.135767 245 241 243
