ply
    format ascii 1.0
    element vertex 56686
    property float x
    property float y
    property float z
    property uchar red
    property uchar green
    property uchar blue
    end_header
0.191406 0.113281 0.047564 132 154 175
0.195312 0.113281 0.038354 133 152 177
0.199219 0.113281 0.024268 110 121 142
0.203125 0.113281 -0.007287 86 71 68
0.207031 0.113281 -0.008390 144 117 99
0.210938 0.113281 -0.005686 181 142 112
0.214844 0.113281 -0.003420 202 153 115
0.218750 0.113281 -0.002725 215 164 128
0.222656 0.113281 -0.003683 223 170 136
0.226562 0.113281 -0.005574 227 172 139
0.230469 0.113281 -0.007972 224 172 140
0.234375 0.113281 -0.010106 212 162 132
0.238281 0.113281 -0.014132 189 150 134
-0.226562 0.109375 0.004052 139 107 111
-0.222656 0.109375 0.033755 198 154 128
-0.218750 0.109375 0.047276 203 144 116
-0.214844 0.109375 0.052091 221 162 130
-0.210938 0.109375 0.051919 228 171 137
-0.207031 0.109375 0.047545 229 172 139
-0.203125 0.109375 0.042944 228 172 140
-0.199219 0.109375 0.040578 222 162 134
-0.195312 0.109375 0.042781 215 155 132
-0.191406 0.109375 0.049991 179 112 104
-0.187500 0.109375 0.053691 174 122 123
-0.183594 0.109375 0.051759 195 168 160
0.003906 0.109375 0.106000 64 69 87
0.007812 0.109375 0.109075 107 109 124
0.011719 0.109375 0.116850 102 103 115
0.015625 0.109375 0.124385 93 93 105
0.019531 0.109375 0.127896 106 110 120
0.023438 0.109375 0.128443 111 121 129
0.027344 0.109375 0.128016 115 125 136
0.031250 0.109375 0.127465 117 130 142
0.035156 0.109375 0.126962 113 128 143
0.039062 0.109375 0.126739 110 125 140
0.042969 0.109375 0.126286 106 122 138
0.046875 0.109375 0.125688 104 121 137
0.050781 0.109375 0.125040 101 120 137
0.054688 0.109375 0.124372 101 119 136
0.058594 0.109375 0.123572 87 110 114
0.062500 0.109375 0.122584 90 112 118
0.066406 0.109375 0.121298 100 121 134
0.070312 0.109375 0.119634 117 138 159
0.074219 0.109375 0.117888 133 154 182
0.078125 0.109375 0.116138 139 159 195
0.082031 0.109375 0.114424 134 152 194
0.085938 0.109375 0.112871 123 144 190
0.089844 0.109375 0.111336 97 117 166
0.093750 0.109375 0.109790 88 109 156
0.097656 0.109375 0.108410 74 96 140
0.101562 0.109375 0.107205 60 84 121
0.105469 0.109375 0.106059 65 89 120
0.109375 0.109375 0.104870 94 119 144
0.113281 0.109375 0.103767 103 129 148
0.117188 0.109375 0.102866 84 110 127
0.121094 0.109375 0.102027 74 96 104
0.125000 0.109375 0.101209 151 172 180
0.128906 0.109375 0.100258 158 180 187
0.132812 0.109375 0.099030 148 169 177
0.136719 0.109375 0.097719 150 172 180
0.140625 0.109375 0.096410 130 153 161
0.144531 0.109375 0.095031 109 131 139
0.148438 0.109375 0.093667 87 110 118
0.152344 0.109375 0.092129 113 136 142
0.156250 0.109375 0.090401 121 144 150
0.160156 0.109375 0.088271 142 165 171
0.164062 0.109375 0.085269 138 161 167
0.167969 0.109375 0.082054 132 155 161
0.171875 0.109375 0.078559 129 152 158
0.175781 0.109375 0.074239 108 131 137
0.179688 0.109375 0.069149 102 125 131
0.183594 0.109375 0.062817 129 149 182
0.187500 0.109375 0.055780 125 145 178
0.191406 0.109375 0.048075 125 143 181
0.195312 0.109375 0.039138 124 142 181
0.199219 0.109375 0.026041 104 113 144
0.203125 0.109375 -0.006463 78 67 65
0.207031 0.109375 -0.009267 134 109 92
0.210938 0.109375 -0.005818 175 136 106
0.214844 0.109375 -0.003179 198 148 112
0.218750 0.109375 -0.002202 214 162 127
0.222656 0.109375 -0.003081 223 170 136
0.226562 0.109375 -0.004975 227 172 140
0.230469 0.109375 -0.007364 224 172 141
0.234375 0.109375 -0.009503 213 162 131
0.238281 0.109375 -0.013545 190 150 134
-0.226562 0.105469 0.015142 183 149 136
-0.222656 0.105469 0.042719 207 161 129
-0.218750 0.105469 0.051380 209 149 119
-0.214844 0.105469 0.054539 224 164 131
-0.210938 0.105469 0.052267 228 169 136
-0.207031 0.105469 0.045635 228 167 135
-0.203125 0.105469 0.038773 224 164 134
-0.199219 0.105469 0.034223 212 147 123
-0.195312 0.105469 0.033928 202 143 125
-0.191406 0.105469 0.041691 173 120 114
-0.187500 0.105469 0.046240 159 129 128
0.003906 0.105469 0.105447 64 66 88
0.007812 0.105469 0.108627 106 105 120
0.011719 0.105469 0.116609 90 88 99
0.015625 0.105469 0.124289 76 75 82
0.019531 0.105469 0.128074 99 100 104
0.023438 0.105469 0.128797 136 138 140
0.027344 0.105469 0.128502 156 160 163
0.031250 0.105469 0.128053 173 180 183
0.035156 0.105469 0.127633 181 187 193
0.039062 0.105469 0.127469 168 177 181
0.042969 0.105469 0.127079 141 150 157
0.046875 0.105469 0.126539 116 126 133
0.050781 0.105469 0.125940 110 120 126
0.054688 0.105469 0.125336 112 122 128
0.058594 0.105469 0.124568 116 133 128
0.062500 0.105469 0.123579 116 133 130
0.066406 0.105469 0.122265 111 128 130
0.070312 0.105469 0.120556 100 118 125
0.074219 0.105469 0.118751 91 108 123
0.078125 0.105469 0.116943 94 109 134
0.082031 0.105469 0.115166 108 123 153
0.085938 0.105469 0.113530 121 136 168
0.089844 0.105469 0.111901 144 159 192
0.093750 0.105469 0.110247 141 156 188
0.097656 0.105469 0.108783 136 154 184
0.101562 0.105469 0.107511 127 146 170
0.105469 0.105469 0.106307 123 143 160
0.109375 0.105469 0.105085 128 149 162
0.113281 0.105469 0.103950 113 135 143
0.117188 0.105469 0.103014 79 101 107
0.121094 0.105469 0.102144 97 115 119
0.125000 0.105469 0.101310 168 185 189
0.128906 0.105469 0.100366 159 177 180
0.132812 0.105469 0.099169 151 169 175
0.136719 0.105469 0.097928 154 173 178
0.140625 0.105469 0.096702 124 142 148
0.144531 0.105469 0.095403 111 130 136
0.148438 0.105469 0.094097 105 124 130
0.152344 0.105469 0.092606 95 114 120
0.156250 0.105469 0.090901 100 119 125
0.160156 0.105469 0.088765 123 142 148
0.164062 0.105469 0.085796 130 149 155
0.167969 0.105469 0.082651 137 156 162
0.171875 0.105469 0.079221 137 156 163
0.175781 0.105469 0.074966 106 125 132
0.179688 0.105469 0.069874 90 109 116
0.183594 0.105469 0.063433 120 137 181
0.187500 0.105469 0.056373 117 134 180
0.191406 0.105469 0.048381 120 133 182
0.195312 0.105469 0.039843 120 133 181
0.199219 0.105469 0.027076 101 109 149
0.203125 0.105469 -0.005070 71 64 64
0.207031 0.105469 -0.010400 122 101 85
0.210938 0.105469 -0.006033 168 129 101
0.214844 0.105469 -0.002920 195 145 110
0.218750 0.105469 -0.001560 213 161 127
0.222656 0.105469 -0.002338 223 170 136
0.226562 0.105469 -0.004280 228 173 140
0.230469 0.105469 -0.006676 225 173 141
0.234375 0.105469 -0.008820 214 163 131
0.238281 0.105469 -0.012870 191 151 135
-0.226562 0.101562 0.025630 189 153 133
-0.222656 0.101562 0.048788 210 161 126
-0.218750 0.101562 0.055163 214 152 120
-0.214844 0.101562 0.056732 226 165 131
-0.210938 0.101562 0.052701 228 167 133
-0.207031 0.101562 0.044470 225 161 129
-0.203125 0.101562 0.035805 218 154 124
-0.199219 0.101562 0.029270 195 127 104
-0.195312 0.101562 0.025949 187 132 115
-0.191406 0.101562 0.028934 186 158 143
-0.187500 0.101562 0.034522 158 153 135
0.003906 0.101562 0.104878 88 90 110
0.007812 0.101562 0.108266 143 141 150
0.011719 0.101562 0.116555 122 119 124
0.015625 0.101562 0.124425 93 91 93
0.019531 0.101562 0.128538 98 98 98
0.023438 0.101562 0.129480 119 119 119
0.027344 0.101562 0.129373 133 134 133
0.031250 0.101562 0.129075 145 146 146
0.035156 0.101562 0.128751 157 158 157
0.039062 0.101562 0.128626 168 171 170
0.042969 0.101562 0.128266 180 185 183
0.046875 0.101562 0.127752 186 189 189
0.050781 0.101562 0.127178 189 193 193
0.054688 0.101562 0.126610 186 189 190
0.058594 0.101562 0.125838 176 186 178
0.062500 0.101562 0.124821 174 185 178
0.066406 0.101562 0.123462 164 175 170
0.070312 0.101562 0.121696 143 155 156
0.074219 0.101562 0.119821 124 136 141
0.078125 0.101562 0.117938 114 125 136
0.082031 0.101562 0.116071 111 120 137
0.085938 0.101562 0.114332 110 120 139
0.089844 0.101562 0.112603 102 112 131
0.093750 0.101562 0.110844 114 124 143
0.097656 0.101562 0.109285 134 148 162
0.101562 0.101562 0.107939 147 161 173
0.105469 0.101562 0.106669 150 165 172
0.109375 0.101562 0.105399 158 175 177
0.113281 0.101562 0.104239 158 176 174
0.117188 0.101562 0.103281 143 160 157
0.121094 0.101562 0.102381 153 167 167
0.125000 0.101562 0.101533 187 201 201
0.128906 0.101562 0.100604 170 185 185
0.132812 0.101562 0.099443 165 180 180
0.136719 0.101562 0.098264 169 184 184
0.140625 0.101562 0.097110 148 163 165
0.144531 0.101562 0.095867 146 161 164
0.148438 0.101562 0.094569 148 162 165
0.152344 0.101562 0.093069 120 134 139
0.156250 0.101562 0.091348 107 122 127
0.160156 0.101562 0.089193 117 132 137
0.164062 0.101562 0.086252 126 141 148
0.167969 0.101562 0.083168 141 156 163
0.171875 0.101562 0.079830 144 159 166
0.175781 0.101562 0.075688 112 127 134
0.179688 0.101562 0.070641 95 110 117
0.183594 0.101562 0.064200 118 132 181
0.187500 0.101562 0.057264 119 131 182
0.191406 0.101562 0.049313 120 132 183
0.195312 0.101562 0.040978 120 128 182
0.199219 0.101562 0.028385 104 112 155
0.203125 0.101562 -0.002196 69 68 71
0.207031 0.101562 -0.011840 113 96 81
0.210938 0.101562 -0.006228 160 122 96
0.214844 0.101562 -0.002518 191 140 108
0.218750 0.101562 -0.000704 211 158 126
0.222656 0.101562 -0.001323 222 168 134
0.226562 0.101562 -0.003302 228 173 140
0.230469 0.101562 -0.005766 225 174 141
0.234375 0.101562 -0.007942 214 162 131
0.238281 0.101562 -0.012015 190 150 133
-0.226562 0.097656 0.032708 204 171 138
-0.222656 0.097656 0.052962 219 172 132
-0.218750 0.097656 0.058869 220 160 125
-0.214844 0.097656 0.058859 227 167 132
-0.210938 0.097656 0.053105 227 164 130
-0.207031 0.097656 0.043887 221 154 122
-0.203125 0.097656 0.033544 210 145 113
-0.199219 0.097656 0.025326 177 109 91
-0.195312 0.097656 0.021630 172 126 115
-0.191406 0.097656 0.020174 191 180 164
0.003906 0.097656 0.104222 91 89 102
0.007812 0.097656 0.107915 162 161 163
0.011719 0.097656 0.116528 146 144 144
0.015625 0.097656 0.124601 110 109 109
0.019531 0.097656 0.129016 112 111 109
0.023438 0.097656 0.130218 129 127 125
0.027344 0.097656 0.130344 145 145 143
0.031250 0.097656 0.130281 152 152 149
0.035156 0.097656 0.130151 152 153 149
0.039062 0.097656 0.130122 158 159 154
0.042969 0.097656 0.129825 167 167 163
0.046875 0.097656 0.129360 170 171 167
0.050781 0.097656 0.128833 168 169 165
0.054688 0.097656 0.128336 160 162 157
0.058594 0.097656 0.127590 159 162 155
0.062500 0.097656 0.126579 164 169 160
0.066406 0.097656 0.125203 168 173 167
0.070312 0.097656 0.123378 169 175 172
0.074219 0.097656 0.121431 170 174 175
0.078125 0.097656 0.119460 164 168 168
0.082031 0.097656 0.117486 151 156 157
0.085938 0.097656 0.115650 132 137 143
0.089844 0.097656 0.113823 119 123 130
0.093750 0.097656 0.111966 114 119 125
0.097656 0.097656 0.110306 117 123 129
0.101562 0.097656 0.108854 117 125 128
0.105469 0.097656 0.107499 110 119 119
0.109375 0.097656 0.106165 113 122 119
0.113281 0.097656 0.104973 121 131 126
0.117188 0.097656 0.103985 121 130 124
0.121094 0.097656 0.103059 127 135 132
0.125000 0.097656 0.102212 129 138 135
0.128906 0.097656 0.101283 124 134 132
0.132812 0.097656 0.100160 131 142 140
0.136719 0.097656 0.099038 145 156 154
0.140625 0.097656 0.097917 152 163 163
0.144531 0.097656 0.096678 151 163 163
0.148438 0.097656 0.095318 138 149 151
0.152344 0.097656 0.093757 139 150 152
0.156250 0.097656 0.092005 112 122 126
0.160156 0.097656 0.089848 107 118 122
0.164062 0.097656 0.086946 114 125 131
0.167969 0.097656 0.083924 131 141 147
0.171875 0.097656 0.080688 133 144 150
0.175781 0.097656 0.076671 104 114 123
0.179688 0.097656 0.071679 94 104 113
0.183594 0.097656 0.065237 122 133 177
0.187500 0.097656 0.058339 122 133 178
0.191406 0.097656 0.050456 122 132 179
0.195312 0.097656 0.042241 121 129 175
0.199219 0.097656 0.030461 108 113 154
0.203125 0.097656 0.002255 68 70 79
0.207031 0.097656 -0.013354 100 85 73
0.210938 0.097656 -0.006083 149 111 88
0.214844 0.097656 -0.001731 184 133 104
0.218750 0.097656 0.000503 207 154 123
0.222656 0.097656 0.000068 220 166 132
0.226562 0.097656 -0.002024 227 173 139
0.230469 0.097656 -0.004605 225 174 141
0.234375 0.097656 -0.006836 214 163 132
0.238281 0.097656 -0.010965 193 152 135
-0.230469 0.093750 -0.000500 171 146 121
-0.226562 0.093750 0.039713 205 167 131
-0.222656 0.093750 0.056689 218 170 130
-0.218750 0.093750 0.062082 221 162 127
-0.214844 0.093750 0.060712 226 166 133
-0.210938 0.093750 0.053729 224 160 128
-0.207031 0.093750 0.043807 215 145 117
-0.203125 0.093750 0.031900 204 139 110
-0.199219 0.093750 0.022849 171 107 92
-0.195312 0.093750 0.019482 158 121 116
-0.191406 0.093750 0.017981 154 149 133
0.007812 0.093750 0.107406 172 170 171
0.011719 0.093750 0.116397 161 158 156
0.015625 0.093750 0.124731 124 123 121
0.019531 0.093750 0.129490 131 131 128
0.023438 0.093750 0.131050 159 159 156
0.027344 0.093750 0.131513 169 169 164
0.031250 0.093750 0.131802 172 172 167
0.035156 0.093750 0.131977 170 170 166
0.039062 0.093750 0.132143 168 168 164
0.042969 0.093750 0.131979 168 169 163
0.046875 0.093750 0.131624 168 169 162
0.050781 0.093750 0.131203 169 170 164
0.054688 0.093750 0.130816 168 168 163
0.058594 0.093750 0.130112 163 165 156
0.062500 0.093750 0.129094 165 166 159
0.066406 0.093750 0.127616 161 161 156
0.070312 0.093750 0.125650 147 148 145
0.074219 0.093750 0.123587 128 129 128
0.078125 0.093750 0.121473 107 109 110
0.082031 0.093750 0.119321 87 88 88
0.085938 0.093750 0.117308 65 66 66
0.089844 0.093750 0.115305 50 51 51
0.093750 0.093750 0.113262 45 46 47
0.097656 0.093750 0.111460 51 52 53
0.101562 0.093750 0.109875 63 64 64
0.105469 0.093750 0.108406 73 75 75
0.109375 0.093750 0.107008 80 82 82
0.113281 0.093750 0.105788 80 84 81
0.117188 0.093750 0.104794 75 78 76
0.121094 0.093750 0.103865 78 80 80
0.125000 0.093750 0.103049 78 81 79
0.128906 0.093750 0.102159 85 88 86
0.132812 0.093750 0.101096 98 102 100
0.136719 0.093750 0.100044 115 120 118
0.140625 0.093750 0.098961 138 144 142
0.144531 0.093750 0.097711 143 150 150
0.148438 0.093750 0.096282 131 139 138
0.152344 0.093750 0.094653 132 139 141
0.156250 0.093750 0.092866 103 110 113
0.160156 0.093750 0.090699 97 104 107
0.164062 0.093750 0.087825 106 113 118
0.167969 0.093750 0.084865 125 132 138
0.171875 0.093750 0.081693 129 135 143
0.175781 0.093750 0.077742 106 113 121
0.179688 0.093750 0.072771 102 109 117
0.183594 0.093750 0.066406 124 133 163
0.187500 0.093750 0.059610 124 133 164
0.191406 0.093750 0.051853 123 130 163
0.195312 0.093750 0.043670 119 126 159
0.199219 0.093750 0.032600 109 113 144
0.203125 0.093750 0.006637 76 78 89
0.207031 0.093750 -0.014330 85 72 63
0.210938 0.093750 -0.005493 140 102 84
0.214844 0.093750 -0.000639 180 129 103
0.218750 0.093750 0.001915 204 151 121
0.222656 0.093750 0.001655 220 166 132
0.226562 0.093750 -0.000579 227 174 140
0.230469 0.093750 -0.003285 225 175 142
0.234375 0.093750 -0.005623 214 164 132
0.238281 0.093750 -0.009845 191 149 133
-0.230469 0.089844 0.004018 154 121 105
-0.226562 0.089844 0.045399 184 129 102
-0.222656 0.089844 0.059585 208 146 112
-0.218750 0.089844 0.064765 216 151 118
-0.214844 0.089844 0.062469 221 158 125
-0.210938 0.089844 0.054735 218 152 122
-0.207031 0.089844 0.044068 205 134 106
-0.203125 0.089844 0.030786 198 135 108
-0.199219 0.089844 0.021514 185 131 111
-0.195312 0.089844 0.017322 165 143 125
0.007812 0.089844 0.106683 169 169 169
0.011719 0.089844 0.116068 170 170 169
0.015625 0.089844 0.124707 133 133 132
0.019531 0.089844 0.129818 138 138 136
0.023438 0.089844 0.131816 167 167 164
0.027344 0.089844 0.132725 176 176 173
0.031250 0.089844 0.133413 173 173 169
0.035156 0.089844 0.133907 166 166 163
0.039062 0.089844 0.134313 159 160 157
0.042969 0.089844 0.134316 158 159 155
0.046875 0.089844 0.134115 159 160 156
0.050781 0.089844 0.133868 162 162 158
0.054688 0.089844 0.133560 164 165 161
0.058594 0.089844 0.132821 167 167 162
0.062500 0.089844 0.131660 169 169 163
0.066406 0.089844 0.129907 165 165 160
0.070312 0.089844 0.127728 152 152 150
0.074219 0.089844 0.125538 135 135 134
0.078125 0.089844 0.123219 119 119 119
0.082031 0.089844 0.120822 102 101 102
0.085938 0.089844 0.118675 81 81 81
0.089844 0.089844 0.116568 65 65 65
0.093750 0.089844 0.114393 59 59 59
0.097656 0.089844 0.112489 62 63 63
0.101562 0.089844 0.110770 68 69 69
0.105469 0.089844 0.109170 75 75 75
0.109375 0.089844 0.107709 81 82 81
0.113281 0.089844 0.106452 85 86 85
0.117188 0.089844 0.105445 86 87 85
0.121094 0.089844 0.104504 83 85 83
0.125000 0.089844 0.103674 82 84 82
0.128906 0.089844 0.102796 81 83 81
0.132812 0.089844 0.101764 86 88 86
0.136719 0.089844 0.100778 99 101 100
0.140625 0.089844 0.099795 114 117 115
0.144531 0.089844 0.098636 124 127 126
0.148438 0.089844 0.097185 135 139 139
0.152344 0.089844 0.095472 153 156 156
0.156250 0.089844 0.093644 166 169 170
0.160156 0.089844 0.091448 172 176 177
0.164062 0.089844 0.088595 179 182 182
0.167969 0.089844 0.085703 183 187 187
0.171875 0.089844 0.082574 182 185 190
0.175781 0.089844 0.078667 174 178 183
0.179688 0.089844 0.073752 166 170 177
0.183594 0.089844 0.067555 153 161 171
0.187500 0.089844 0.060894 143 150 164
0.191406 0.089844 0.053275 131 137 152
0.195312 0.089844 0.044904 118 124 140
0.199219 0.089844 0.034134 101 107 123
0.203125 0.089844 0.010587 73 78 79
0.207031 0.089844 -0.014457 76 64 55
0.210938 0.089844 -0.004715 130 93 76
0.214844 0.089844 0.000645 174 123 99
0.218750 0.089844 0.003464 201 147 118
0.222656 0.089844 0.003294 219 165 131
0.226562 0.089844 0.000957 227 174 141
0.230469 0.089844 -0.001787 226 177 144
0.234375 0.089844 -0.004307 216 167 135
0.238281 0.089844 -0.008690 191 147 132
-0.230469 0.085938 0.010001 197 161 133
-0.226562 0.085938 0.050014 208 150 113
-0.222656 0.085938 0.061490 219 156 118
-0.218750 0.085938 0.066702 220 153 117
-0.214844 0.085938 0.063968 218 149 115
-0.210938 0.085938 0.055688 212 141 113
-0.207031 0.085938 0.044105 190 119 92
-0.203125 0.085938 0.029005 188 132 102
-0.199219 0.085938 0.019588 195 157 128
-0.195312 0.085938 0.015366 151 139 102
0.007812 0.085938 0.105610 157 158 158
0.011719 0.085938 0.115473 174 175 175
0.015625 0.085938 0.124478 142 142 142
0.019531 0.085938 0.129881 148 148 148
0.023438 0.085938 0.132300 175 176 176
0.027344 0.085938 0.133543 183 184 182
0.031250 0.085938 0.134449 177 179 178
0.035156 0.085938 0.135038 170 172 170
0.039062 0.085938 0.135523 163 165 163
0.042969 0.085938 0.135588 162 163 161
0.046875 0.085938 0.135506 163 165 162
0.050781 0.085938 0.135457 167 169 167
0.054688 0.085938 0.135364 173 175 172
0.058594 0.085938 0.134775 179 179 176
0.062500 0.085938 0.133677 181 181 178
0.066406 0.085938 0.131940 178 178 176
0.070312 0.085938 0.129651 171 171 170
0.074219 0.085938 0.127346 168 167 168
0.078125 0.085938 0.124780 170 170 170
0.082031 0.085938 0.122127 173 173 173
0.085938 0.085938 0.119910 175 175 176
0.089844 0.085938 0.117640 177 177 177
0.093750 0.085938 0.115336 183 182 183
0.097656 0.085938 0.113314 191 190 191
0.101562 0.085938 0.111431 194 194 195
0.105469 0.085938 0.109718 196 197 197
0.109375 0.085938 0.108193 197 198 197
0.113281 0.085938 0.106901 198 199 198
0.117188 0.085938 0.105880 198 199 196
0.121094 0.085938 0.104934 192 196 191
0.125000 0.085938 0.104083 188 192 187
0.128906 0.085938 0.103202 180 184 180
0.132812 0.085938 0.102202 169 172 168
0.136719 0.085938 0.101301 155 159 156
0.140625 0.085938 0.100425 139 142 139
0.144531 0.085938 0.099362 122 124 123
0.148438 0.085938 0.097911 110 112 111
0.152344 0.085938 0.096138 111 113 113
0.156250 0.085938 0.094259 121 123 123
0.160156 0.085938 0.092007 127 129 129
0.164062 0.085938 0.089131 134 136 137
0.167969 0.085938 0.086233 140 142 142
0.171875 0.085938 0.083066 145 147 149
0.175781 0.085938 0.079120 150 152 157
0.179688 0.085938 0.074205 151 151 160
0.183594 0.085938 0.068131 155 157 162
0.187500 0.085938 0.061596 150 152 157
0.191406 0.085938 0.053969 139 145 146
0.195312 0.085938 0.045396 133 141 139
0.199219 0.085938 0.034874 131 138 136
0.203125 0.085938 0.011529 91 95 90
0.207031 0.085938 -0.014552 70 60 51
0.210938 0.085938 -0.003383 114 80 66
0.214844 0.085938 0.002154 161 113 92
0.218750 0.085938 0.005061 195 141 115
0.222656 0.085938 0.004955 218 164 130
0.226562 0.085938 0.002482 227 174 141
0.230469 0.085938 -0.000251 227 179 146
0.234375 0.085938 -0.002911 219 174 140
0.238281 0.085938 -0.007360 193 149 133
-0.230469 0.082031 0.022677 225 194 158
-0.226562 0.082031 0.054729 217 166 118
-0.222656 0.082031 0.063051 221 164 118
-0.218750 0.082031 0.068252 223 164 119
-0.214844 0.082031 0.065276 216 152 112
-0.210938 0.082031 0.056378 206 141 109
-0.207031 0.082031 0.043254 176 111 86
-0.203125 0.082031 0.026705 179 132 105
-0.199219 0.082031 0.017442 189 163 133
-0.195312 0.082031 0.013798 71 59 35
0.007812 0.082031 0.104304 144 146 146
0.011719 0.082031 0.114798 176 178 178
0.015625 0.082031 0.124448 149 151 151
0.019531 0.082031 0.130161 154 155 155
0.023438 0.082031 0.132885 178 180 180
0.027344 0.082031 0.134273 184 186 186
0.031250 0.082031 0.135110 179 181 181
0.035156 0.082031 0.135617 173 175 175
0.039062 0.082031 0.136147 168 170 170
0.042969 0.082031 0.136214 167 169 169
0.046875 0.082031 0.136240 171 174 174
0.050781 0.082031 0.136393 179 182 182
0.054688 0.082031 0.136441 187 190 190
0.058594 0.082031 0.135962 195 193 193
0.062500 0.082031 0.135040 195 194 194
0.066406 0.082031 0.133475 190 188 190
0.070312 0.082031 0.131201 181 180 181
0.074219 0.082031 0.128638 180 178 180
0.078125 0.082031 0.125681 186 184 186
0.082031 0.082031 0.122695 189 188 189
0.085938 0.082031 0.120141 193 193 193
0.089844 0.082031 0.117499 201 200 201
0.093750 0.082031 0.114958 211 211 212
0.097656 0.082031 0.112785 219 219 219
0.101562 0.082031 0.110822 222 222 222
0.105469 0.082031 0.109135 224 224 224
0.109375 0.082031 0.107630 224 224 224
0.113281 0.082031 0.106342 223 223 223
0.117188 0.082031 0.105320 221 221 221
0.121094 0.082031 0.104378 213 215 211
0.125000 0.082031 0.103537 209 211 207
0.128906 0.082031 0.102666 204 206 202
0.132812 0.082031 0.101672 198 200 198
0.136719 0.082031 0.100748 192 194 192
0.140625 0.082031 0.099679 181 183 181
0.144531 0.082031 0.098304 167 169 167
0.148438 0.082031 0.096624 150 151 150
0.152344 0.082031 0.094749 143 144 144
0.156250 0.082031 0.092769 148 149 149
0.160156 0.082031 0.090433 150 151 152
0.164062 0.082031 0.087572 152 153 154
0.167969 0.082031 0.084723 154 156 157
0.171875 0.082031 0.081662 155 156 158
0.175781 0.082031 0.077930 151 153 156
0.179688 0.082031 0.073325 144 145 150
0.183594 0.082031 0.067684 131 135 134
0.187500 0.082031 0.061578 122 125 125
0.191406 0.082031 0.054198 114 121 118
0.195312 0.082031 0.045664 114 122 119
0.199219 0.082031 0.035459 123 131 127
0.203125 0.082031 0.009318 98 103 94
0.207031 0.082031 -0.016006 70 60 51
0.210938 0.082031 -0.002952 103 72 60
0.214844 0.082031 0.003223 151 105 86
0.218750 0.082031 0.006389 189 137 111
0.222656 0.082031 0.006461 216 162 128
0.226562 0.082031 0.003955 226 173 140
0.230469 0.082031 0.001312 227 180 146
0.234375 0.082031 -0.001483 219 172 140
0.238281 0.082031 -0.005892 183 135 121
0.242188 0.082031 -0.014481 117 94 97
-0.230469 0.078125 0.036434 229 200 160
-0.226562 0.078125 0.058957 206 155 108
-0.222656 0.078125 0.065332 214 160 114
-0.218750 0.078125 0.069815 225 172 125
-0.214844 0.078125 0.066344 210 150 104
-0.210938 0.078125 0.056671 179 118 86
-0.207031 0.078125 0.042685 131 77 64
-0.203125 0.078125 0.024873 133 95 83
-0.199219 0.078125 0.014554 118 97 80
0.007812 0.078125 0.102938 141 142 142
0.011719 0.078125 0.113936 182 184 184
0.015625 0.078125 0.123939 158 160 160
0.019531 0.078125 0.129703 160 162 162
0.023438 0.078125 0.132540 179 181 181
0.027344 0.078125 0.133888 183 186 186
0.031250 0.078125 0.134356 182 184 184
0.035156 0.078125 0.135213 180 182 182
0.039062 0.078125 0.136557 177 179 179
0.042969 0.078125 0.137894 177 179 179
0.046875 0.078125 0.139516 180 183 183
0.050781 0.078125 0.140297 185 187 187
0.054688 0.078125 0.139729 188 190 190
0.058594 0.078125 0.138031 190 188 190
0.062500 0.078125 0.135173 186 185 187
0.066406 0.078125 0.130856 176 175 176
0.070312 0.078125 0.125811 166 165 166
0.074219 0.078125 0.120781 169 167 169
0.078125 0.078125 0.117246 173 172 173
0.082031 0.078125 0.115480 167 167 168
0.085938 0.078125 0.114710 164 165 166
0.089844 0.078125 0.114100 172 173 174
0.093750 0.078125 0.112720 185 186 187
0.097656 0.078125 0.111141 194 195 196
0.101562 0.078125 0.109486 195 197 197
0.105469 0.078125 0.107876 194 197 196
0.109375 0.078125 0.106378 193 195 195
0.113281 0.078125 0.104958 191 194 193
0.117188 0.078125 0.103650 187 190 189
0.121094 0.078125 0.102173 180 183 181
0.125000 0.078125 0.100633 177 180 178
0.128906 0.078125 0.098994 176 180 177
0.132812 0.078125 0.097412 181 186 182
0.136719 0.078125 0.095999 190 196 191
0.140625 0.078125 0.094384 194 198 195
0.144531 0.078125 0.092560 194 196 194
0.148438 0.078125 0.090944 184 185 184
0.152344 0.078125 0.089586 177 178 177
0.156250 0.078125 0.088172 180 181 180
0.160156 0.078125 0.086417 179 180 180
0.164062 0.078125 0.084001 177 179 178
0.167969 0.078125 0.081294 175 176 176
0.171875 0.078125 0.078282 171 173 173
0.175781 0.078125 0.074558 163 164 167
0.179688 0.078125 0.070268 149 150 155
0.183594 0.078125 0.065291 138 139 134
0.187500 0.078125 0.059816 126 130 125
0.191406 0.078125 0.052834 115 120 115
0.195312 0.078125 0.044103 110 115 112
0.199219 0.078125 0.034005 116 122 118
0.203125 0.078125 0.002111 95 99 90
0.207031 0.078125 -0.018107 62 54 45
0.210938 0.078125 -0.003365 90 62 52
0.214844 0.078125 0.004026 143 100 82
0.218750 0.078125 0.007554 184 134 108
0.222656 0.078125 0.007841 213 159 125
0.226562 0.078125 0.005375 225 172 138
0.230469 0.078125 0.002872 227 179 146
0.234375 0.078125 -0.000054 222 173 142
0.238281 0.078125 -0.004492 190 144 127
0.242188 0.078125 -0.012608 157 138 129
-0.234375 0.074219 0.005040 198 168 149
-0.230469 0.074219 0.047419 227 192 149
-0.226562 0.074219 0.061532 218 166 124
-0.222656 0.074219 0.067677 226 173 131
-0.218750 0.074219 0.071244 228 170 127
-0.214844 0.074219 0.067378 194 122 84
-0.210938 0.074219 0.057532 130 72 54
-0.207031 0.074219 0.044253 97 58 53
-0.203125 0.074219 0.024452 117 91 89
-0.199219 0.074219 0.010798 62 52 53
0.007812 0.074219 0.101806 126 128 128
0.011719 0.074219 0.113713 174 176 177
0.015625 0.074219 0.123928 157 159 159
0.019531 0.074219 0.129762 163 164 164
0.023438 0.074219 0.132874 180 180 180
0.027344 0.074219 0.134639 185 185 186
0.031250 0.074219 0.135302 186 186 187
0.035156 0.074219 0.134942 185 186 186
0.039062 0.074219 0.131599 180 181 181
0.042969 0.074219 0.124583 176 177 177
0.046875 0.074219 0.114409 171 172 172
0.050781 0.074219 0.104411 160 161 161
0.054688 0.074219 0.098683 142 143 143
0.058594 0.074219 0.095745 122 122 123
0.062500 0.074219 0.093898 104 104 104
0.066406 0.074219 0.092868 87 87 87
0.070312 0.074219 0.092544 81 81 81
0.074219 0.074219 0.092597 86 86 86
0.078125 0.074219 0.092788 83 85 85
0.082031 0.074219 0.093400 71 81 77
0.085938 0.074219 0.094325 70 99 86
0.089844 0.074219 0.095296 73 101 91
0.093750 0.074219 0.095889 78 106 96
0.097656 0.074219 0.096637 82 111 99
0.101562 0.074219 0.097085 81 111 98
0.105469 0.074219 0.096995 78 111 94
0.109375 0.074219 0.096505 74 106 89
0.113281 0.074219 0.095663 72 105 86
0.117188 0.074219 0.094760 71 105 85
0.121094 0.074219 0.093700 69 100 82
0.125000 0.074219 0.092683 72 103 85
0.128906 0.074219 0.091536 76 106 88
0.132812 0.074219 0.090296 84 114 91
0.136719 0.074219 0.088919 87 117 91
0.140625 0.074219 0.087347 90 104 92
0.144531 0.074219 0.085607 103 110 104
0.148438 0.074219 0.083801 105 112 106
0.152344 0.074219 0.082026 106 112 107
0.156250 0.074219 0.080249 112 117 113
0.160156 0.074219 0.078287 112 116 113
0.164062 0.074219 0.076076 110 115 112
0.167969 0.074219 0.074335 110 113 112
0.171875 0.074219 0.072482 106 109 110
0.175781 0.074219 0.069469 99 100 103
0.179688 0.074219 0.065607 85 86 90
0.183594 0.074219 0.061118 73 74 76
0.187500 0.074219 0.056478 65 68 68
0.191406 0.074219 0.050186 59 63 62
0.195312 0.074219 0.040853 56 60 59
0.199219 0.074219 0.029184 64 66 63
0.203125 0.074219 -0.010604 62 60 54
0.207031 0.074219 -0.020214 47 39 34
0.210938 0.074219 -0.003328 72 52 44
0.214844 0.074219 0.004891 134 94 78
0.218750 0.074219 0.008515 180 131 104
0.222656 0.074219 0.009074 210 156 122
0.226562 0.074219 0.006661 224 171 137
0.230469 0.074219 0.004244 228 179 145
0.234375 0.074219 0.001300 224 176 143
0.238281 0.074219 -0.003123 202 159 135
0.242188 0.074219 -0.010800 180 162 144
-0.234375 0.070312 0.016951 205 168 144
-0.230469 0.070312 0.054519 226 183 138
-0.226562 0.070312 0.063337 225 175 130
-0.222656 0.070312 0.068996 225 171 125
-0.218750 0.070312 0.071270 211 146 101
-0.214844 0.070312 0.067680 149 84 56
-0.210938 0.070312 0.058900 97 56 41
-0.207031 0.070312 0.047016 141 111 91
-0.203125 0.070312 0.025464 210 207 188
0.007812 0.070312 0.100527 99 99 99
0.011719 0.070312 0.112745 152 152 152
0.015625 0.070312 0.122016 140 140 140
0.019531 0.070312 0.127410 148 148 148
0.023438 0.070312 0.130845 160 160 160
0.027344 0.070312 0.130769 158 158 158
0.031250 0.070312 0.123915 147 147 147
0.035156 0.070312 0.108975 133 132 133
0.039062 0.070312 0.096521 113 113 113
0.042969 0.070312 0.091293 95 95 96
0.046875 0.070312 0.090570 77 78 78
0.050781 0.070312 0.091812 53 55 55
0.054688 0.070312 0.092690 32 35 34
0.058594 0.070312 0.093012 20 24 22
0.062500 0.070312 0.093065 14 18 16
0.066406 0.070312 0.092729 11 14 12
0.070312 0.070312 0.092407 11 14 12
0.074219 0.070312 0.092394 11 14 12
0.078125 0.070312 0.092391 10 13 11
0.082031 0.070312 0.092578 11 17 14
0.085938 0.070312 0.093036 15 22 19
0.089844 0.070312 0.093470 15 21 20
0.093750 0.070312 0.093617 17 22 22
0.097656 0.070312 0.093714 19 24 23
0.101562 0.070312 0.093813 21 25 24
0.105469 0.070312 0.093867 23 27 25
0.109375 0.070312 0.093784 23 27 24
0.113281 0.070312 0.093532 23 28 24
0.117188 0.070312 0.093164 23 28 25
0.121094 0.070312 0.092541 22 27 24
0.125000 0.070312 0.091772 23 28 25
0.128906 0.070312 0.090771 23 28 25
0.132812 0.070312 0.089606 21 28 23
0.136719 0.070312 0.088302 19 27 20
0.140625 0.070312 0.086931 14 22 15
0.144531 0.070312 0.085422 14 25 14
0.148438 0.070312 0.083617 17 31 18
0.152344 0.070312 0.081730 19 33 20
0.156250 0.070312 0.079840 21 34 22
0.160156 0.070312 0.077690 22 34 24
0.164062 0.070312 0.074821 24 35 26
0.167969 0.070312 0.071667 27 35 28
0.171875 0.070312 0.068726 28 33 31
0.175781 0.070312 0.065942 29 30 33
0.179688 0.070312 0.062279 28 28 33
0.183594 0.070312 0.057730 26 27 32
0.187500 0.070312 0.053492 25 28 30
0.191406 0.070312 0.047352 26 30 30
0.195312 0.070312 0.037750 28 33 30
0.199219 0.070312 0.025630 38 40 34
0.203125 0.070312 -0.015532 40 36 30
0.207031 0.070312 -0.022782 36 29 24
0.210938 0.070312 -0.003988 60 46 37
0.214844 0.070312 0.005501 123 85 71
0.218750 0.070312 0.009434 175 126 100
0.222656 0.070312 0.010217 207 153 120
0.226562 0.070312 0.007910 222 170 135
0.230469 0.070312 0.005605 227 177 142
0.234375 0.070312 0.002677 225 174 140
0.238281 0.070312 -0.001735 206 160 134
0.242188 0.070312 -0.009392 174 150 135
-0.234375 0.066406 0.028030 218 185 154
-0.230469 0.066406 0.058567 229 189 140
-0.226562 0.066406 0.065342 221 172 122
-0.222656 0.066406 0.069155 210 155 106
-0.218750 0.066406 0.070200 180 122 80
-0.214844 0.066406 0.067409 106 63 42
-0.210938 0.066406 0.060243 74 48 34
-0.207031 0.066406 0.049087 140 124 98
-0.203125 0.066406 0.024871 207 212 187
0.003906 0.066406 0.094015 4 4 4
0.007812 0.066406 0.099151 67 67 67
0.011719 0.066406 0.110314 110 110 109
0.015625 0.066406 0.116686 98 98 97
0.019531 0.066406 0.119496 98 98 98
0.023438 0.066406 0.115481 95 95 96
0.027344 0.066406 0.099811 75 75 76
0.031250 0.066406 0.090125 51 52 53
0.035156 0.066406 0.090211 33 33 35
0.039062 0.066406 0.092075 20 22 23
0.042969 0.066406 0.093018 14 17 17
0.046875 0.066406 0.093089 11 14 14
0.050781 0.066406 0.093033 9 12 11
0.054688 0.066406 0.093118 8 12 10
0.058594 0.066406 0.093240 8 12 10
0.062500 0.066406 0.093306 7 12 9
0.066406 0.066406 0.093227 8 12 9
0.070312 0.066406 0.093220 8 12 10
0.074219 0.066406 0.093362 10 14 10
0.078125 0.066406 0.093518 10 13 11
0.082031 0.066406 0.093699 11 14 12
0.085938 0.066406 0.094090 12 14 12
0.089844 0.066406 0.094523 14 15 14
0.093750 0.066406 0.094754 17 17 17
0.097656 0.066406 0.094920 18 17 17
0.101562 0.066406 0.095010 18 17 17
0.105469 0.066406 0.095032 20 18 17
0.109375 0.066406 0.094919 21 19 17
0.113281 0.066406 0.094664 22 20 18
0.117188 0.066406 0.094353 23 20 18
0.121094 0.066406 0.093865 23 20 18
0.125000 0.066406 0.093304 24 22 20
0.128906 0.066406 0.092518 24 23 21
0.132812 0.066406 0.091465 22 22 19
0.136719 0.066406 0.090285 21 23 19
0.140625 0.066406 0.089062 22 25 19
0.144531 0.066406 0.087648 23 29 19
0.148438 0.066406 0.085820 22 30 19
0.152344 0.066406 0.083836 19 27 18
0.156250 0.066406 0.081771 18 25 17
0.160156 0.066406 0.079391 19 26 18
0.164062 0.066406 0.076364 20 27 20
0.167969 0.066406 0.073136 23 28 22
0.171875 0.066406 0.069754 25 27 24
0.175781 0.066406 0.066202 25 25 27
0.179688 0.066406 0.061872 25 25 28
0.183594 0.066406 0.056827 23 25 27
0.187500 0.066406 0.052444 21 25 26
0.191406 0.066406 0.045483 22 26 25
0.195312 0.066406 0.036195 23 28 25
0.199219 0.066406 0.024536 25 28 23
0.203125 0.066406 -0.016844 24 22 18
0.207031 0.066406 -0.024924 31 26 20
0.210938 0.066406 -0.004365 59 46 36
0.214844 0.066406 0.005944 110 76 64
0.218750 0.066406 0.010384 169 120 96
0.222656 0.066406 0.011367 205 152 121
0.226562 0.066406 0.009150 222 169 135
0.230469 0.066406 0.006945 227 175 140
0.234375 0.066406 0.004017 226 174 140
0.238281 0.066406 -0.000382 215 171 142
0.242188 0.066406 -0.008302 196 170 148
-0.234375 0.062500 0.035445 213 178 146
-0.230469 0.062500 0.061275 225 182 137
-0.226562 0.062500 0.066313 214 160 114
-0.222656 0.062500 0.068705 199 141 98
-0.218750 0.062500 0.069100 171 113 78
-0.214844 0.062500 0.067207 102 58 43
-0.210938 0.062500 0.061478 69 44 34
-0.207031 0.062500 0.050989 87 75 64
-0.203125 0.062500 0.027212 83 79 65
0.003906 0.062500 0.091993 1 1 1
0.007812 0.062500 0.096983 23 23 23
0.011719 0.062500 0.105796 42 42 41
0.015625 0.062500 0.108124 32 32 32
0.019531 0.062500 0.103452 25 24 25
0.023438 0.062500 0.094644 18 17 19
0.027344 0.062500 0.091058 13 14 15
0.031250 0.062500 0.091484 13 15 15
0.035156 0.062500 0.091668 11 13 13
0.039062 0.062500 0.091722 11 13 13
0.042969 0.062500 0.091784 11 12 12
0.046875 0.062500 0.091947 10 12 11
0.050781 0.062500 0.092189 11 12 11
0.054688 0.062500 0.092658 11 13 12
0.058594 0.062500 0.092937 12 13 12
0.062500 0.062500 0.093101 12 14 13
0.066406 0.062500 0.093219 13 14 13
0.070312 0.062500 0.093379 14 15 13
0.074219 0.062500 0.093680 15 16 14
0.078125 0.062500 0.094024 16 17 15
0.082031 0.062500 0.094300 16 18 15
0.085938 0.062500 0.094702 18 19 16
0.089844 0.062500 0.095121 20 20 18
0.093750 0.062500 0.095382 22 22 19
0.097656 0.062500 0.095607 21 21 19
0.101562 0.062500 0.095727 22 21 18
0.105469 0.062500 0.095806 23 21 18
0.109375 0.062500 0.095773 25 22 19
0.113281 0.062500 0.095592 27 24 20
0.117188 0.062500 0.095347 26 23 19
0.121094 0.062500 0.094922 25 22 19
0.125000 0.062500 0.094458 25 22 19
0.128906 0.062500 0.093797 26 23 20
0.132812 0.062500 0.092827 25 23 20
0.136719 0.062500 0.091719 25 24 20
0.140625 0.062500 0.090541 27 25 21
0.144531 0.062500 0.089152 27 26 21
0.148438 0.062500 0.087364 26 26 21
0.152344 0.062500 0.085378 23 24 20
0.156250 0.062500 0.083237 21 22 19
0.160156 0.062500 0.080693 22 23 19
0.164062 0.062500 0.077566 22 23 20
0.167969 0.062500 0.074432 25 24 22
0.171875 0.062500 0.071136 26 25 24
0.175781 0.062500 0.067284 27 24 26
0.179688 0.062500 0.062752 28 25 28
0.183594 0.062500 0.057641 25 25 27
0.187500 0.062500 0.053093 23 25 26
0.191406 0.062500 0.045682 23 26 25
0.195312 0.062500 0.036443 24 28 24
0.199219 0.062500 0.025649 25 27 22
0.203125 0.062500 -0.015408 23 21 17
0.207031 0.062500 -0.026533 39 32 23
0.210938 0.062500 -0.005139 65 51 39
0.214844 0.062500 0.006401 96 66 56
0.218750 0.062500 0.011284 160 113 89
0.222656 0.062500 0.012399 205 152 122
0.226562 0.062500 0.010340 222 170 137
0.230469 0.062500 0.008274 227 176 141
0.234375 0.062500 0.005375 227 173 140
0.238281 0.062500 0.000970 218 171 140
0.242188 0.062500 -0.007095 197 166 140
-0.234375 0.058594 0.038693 207 167 137
-0.230469 0.058594 0.062774 218 168 127
-0.226562 0.058594 0.066864 203 144 105
-0.222656 0.058594 0.067958 182 123 88
-0.218750 0.058594 0.067735 162 105 75
-0.214844 0.058594 0.066248 103 60 46
-0.210938 0.058594 0.061733 79 54 43
-0.207031 0.058594 0.052333 95 79 69
-0.203125 0.058594 0.031852 53 44 34
0.003906 0.058594 0.088798 0 0 1
0.007812 0.058594 0.092240 5 5 6
0.011719 0.058594 0.095380 8 8 8
0.015625 0.058594 0.093871 4 4 5
0.019531 0.058594 0.091226 5 4 6
0.023438 0.058594 0.090277 9 9 10
0.027344 0.058594 0.090432 12 13 13
0.031250 0.058594 0.090271 15 17 15
0.035156 0.058594 0.090120 15 16 14
0.039062 0.058594 0.090404 14 15 13
0.042969 0.058594 0.090671 14 14 13
0.046875 0.058594 0.091000 14 14 13
0.050781 0.058594 0.091491 14 15 13
0.054688 0.058594 0.092054 15 16 14
0.058594 0.058594 0.092380 16 17 15
0.062500 0.058594 0.092624 17 17 16
0.066406 0.058594 0.092813 18 19 16
0.070312 0.058594 0.093043 18 18 16
0.074219 0.058594 0.093463 16 17 15
0.078125 0.058594 0.093894 15 16 14
0.082031 0.058594 0.094283 14 14 13
0.085938 0.058594 0.094809 13 14 13
0.089844 0.058594 0.095312 13 13 13
0.093750 0.058594 0.095655 13 14 13
0.097656 0.058594 0.096045 14 14 13
0.101562 0.058594 0.096324 15 14 13
0.105469 0.058594 0.096510 16 15 13
0.109375 0.058594 0.096577 18 16 14
0.113281 0.058594 0.096484 19 17 15
0.117188 0.058594 0.096309 18 16 14
0.121094 0.058594 0.095923 17 16 14
0.125000 0.058594 0.095440 17 15 14
0.128906 0.058594 0.094742 18 16 15
0.132812 0.058594 0.093730 18 16 15
0.136719 0.058594 0.092575 19 16 15
0.140625 0.058594 0.091389 21 19 17
0.144531 0.058594 0.090006 23 20 18
0.148438 0.058594 0.088217 26 23 20
0.152344 0.058594 0.086189 27 24 21
0.156250 0.058594 0.084055 25 24 21
0.160156 0.058594 0.081578 25 24 21
0.164062 0.058594 0.078599 24 23 20
0.167969 0.058594 0.075405 25 23 21
0.171875 0.058594 0.071924 26 23 23
0.175781 0.058594 0.068037 27 23 24
0.179688 0.058594 0.063605 28 24 26
0.183594 0.058594 0.058685 27 24 27
0.187500 0.058594 0.053927 26 26 27
0.191406 0.058594 0.046586 23 25 24
0.195312 0.058594 0.037478 24 26 23
0.199219 0.058594 0.027441 27 28 22
0.203125 0.058594 -0.011846 26 22 18
0.207031 0.058594 -0.028692 44 34 25
0.210938 0.058594 -0.006709 65 50 38
0.214844 0.058594 0.007044 85 60 49
0.218750 0.058594 0.012365 153 107 84
0.222656 0.058594 0.013410 203 151 120
0.226562 0.058594 0.011486 222 171 137
0.230469 0.058594 0.009581 228 177 142
0.234375 0.058594 0.006643 228 173 139
0.238281 0.058594 0.002220 219 169 137
0.242188 0.058594 -0.006045 194 158 131
-0.238281 0.054688 -0.006761 210 185 162
-0.234375 0.054688 0.045147 212 171 140
-0.230469 0.054688 0.062823 214 161 120
-0.226562 0.054688 0.066613 198 141 102
-0.222656 0.054688 0.067179 172 117 86
-0.218750 0.054688 0.066643 160 105 77
-0.214844 0.054688 0.065458 103 63 48
-0.210938 0.054688 0.061748 85 60 47
-0.207031 0.054688 0.053159 119 95 84
0.003906 0.054688 0.085154 1 1 2
0.007812 0.054688 0.087480 1 1 2
0.011719 0.054688 0.089167 2 2 3
0.015625 0.054688 0.089029 3 3 4
0.019531 0.054688 0.089161 10 10 11
0.023438 0.054688 0.088633 17 18 16
0.027344 0.054688 0.088042 16 17 15
0.031250 0.054688 0.088005 19 19 16
0.035156 0.054688 0.088242 19 19 16
0.039062 0.054688 0.088602 18 19 16
0.042969 0.054688 0.089012 18 18 16
0.046875 0.054688 0.089449 17 18 16
0.050781 0.054688 0.090022 17 18 16
0.054688 0.054688 0.090612 18 18 16
0.058594 0.054688 0.091011 18 18 16
0.062500 0.054688 0.091403 18 18 16
0.066406 0.054688 0.091750 19 19 17
0.070312 0.054688 0.092103 19 19 17
0.074219 0.054688 0.092641 18 19 16
0.078125 0.054688 0.093178 17 18 16
0.082031 0.054688 0.093705 16 17 15
0.085938 0.054688 0.094281 16 16 15
0.089844 0.054688 0.094892 17 17 15
0.093750 0.054688 0.095393 17 17 15
0.097656 0.054688 0.095945 18 18 16
0.101562 0.054688 0.096372 19 18 16
0.105469 0.054688 0.096674 19 18 16
0.109375 0.054688 0.096857 21 19 16
0.113281 0.054688 0.096873 22 20 17
0.117188 0.054688 0.096786 22 20 17
0.121094 0.054688 0.096464 22 20 17
0.125000 0.054688 0.096004 23 21 18
0.128906 0.054688 0.095310 24 22 19
0.132812 0.054688 0.094265 23 21 19
0.136719 0.054688 0.093069 22 19 17
0.140625 0.054688 0.091855 22 19 17
0.144531 0.054688 0.090432 22 19 17
0.148438 0.054688 0.088616 23 21 18
0.152344 0.054688 0.086591 24 22 19
0.156250 0.054688 0.084527 24 22 20
0.160156 0.054688 0.082043 23 23 20
0.164062 0.054688 0.078869 23 22 20
0.167969 0.054688 0.075577 24 22 20
0.171875 0.054688 0.072074 25 22 21
0.175781 0.054688 0.068251 25 21 22
0.179688 0.054688 0.063906 26 22 24
0.183594 0.054688 0.059136 25 23 25
0.187500 0.054688 0.054379 25 25 26
0.191406 0.054688 0.047354 22 25 24
0.195312 0.054688 0.038518 22 25 22
0.199219 0.054688 0.029061 26 27 21
0.203125 0.054688 -0.008424 25 22 17
0.210938 0.054688 -0.008469 58 44 33
0.214844 0.054688 0.007923 85 61 49
0.218750 0.054688 0.013425 153 109 85
0.222656 0.054688 0.014446 204 153 122
0.226562 0.054688 0.012600 223 175 141
0.230469 0.054688 0.010727 229 178 143
0.234375 0.054688 0.007761 228 172 138
0.238281 0.054688 0.003402 221 170 136
0.242188 0.054688 -0.004844 199 161 131
-0.238281 0.050781 0.003246 226 203 178
-0.234375 0.050781 0.050256 212 168 134
-0.230469 0.050781 0.061415 206 149 109
-0.226562 0.050781 0.065729 195 138 100
-0.222656 0.050781 0.065677 169 117 87
-0.218750 0.050781 0.065272 160 108 81
-0.214844 0.050781 0.064371 107 65 51
-0.210938 0.050781 0.060894 94 65 52
-0.207031 0.050781 0.053411 128 101 92
0.003906 0.050781 0.081433 1 0 1
0.007812 0.050781 0.083392 1 1 2
0.011719 0.050781 0.085427 7 7 8
0.015625 0.050781 0.086207 12 13 12
0.019531 0.050781 0.086520 17 18 16
0.023438 0.050781 0.085778 19 20 17
0.027344 0.050781 0.085413 15 16 13
0.031250 0.050781 0.085511 16 16 14
0.035156 0.050781 0.085772 16 15 14
0.039062 0.050781 0.086153 16 15 13
0.042969 0.050781 0.086655 16 16 14
0.046875 0.050781 0.087211 15 15 14
0.050781 0.050781 0.087800 16 15 14
0.054688 0.050781 0.088422 16 16 14
0.058594 0.050781 0.088921 17 17 15
0.062500 0.050781 0.089432 17 17 15
0.066406 0.050781 0.089933 18 18 16
0.070312 0.050781 0.090429 17 17 15
0.074219 0.050781 0.091088 17 17 15
0.078125 0.050781 0.091722 17 17 15
0.082031 0.050781 0.092368 16 16 14
0.085938 0.050781 0.093084 16 16 14
0.089844 0.050781 0.093788 16 16 14
0.093750 0.050781 0.094366 16 16 14
0.097656 0.050781 0.094959 17 17 14
0.101562 0.050781 0.095452 17 17 14
0.105469 0.050781 0.095854 17 17 14
0.109375 0.050781 0.096146 19 18 15
0.113281 0.050781 0.096273 19 18 15
0.117188 0.050781 0.096288 19 18 15
0.121094 0.050781 0.096065 20 18 16
0.125000 0.050781 0.095686 20 19 17
0.128906 0.050781 0.095052 21 20 17
0.132812 0.050781 0.094050 21 19 17
0.136719 0.050781 0.092910 20 19 17
0.140625 0.050781 0.091712 20 18 16
0.144531 0.050781 0.090241 20 18 16
0.148438 0.050781 0.088393 21 19 17
0.152344 0.050781 0.086361 22 20 18
0.156250 0.050781 0.084244 23 22 20
0.160156 0.050781 0.081712 23 23 20
0.164062 0.050781 0.078589 23 23 20
0.167969 0.050781 0.075350 24 23 21
0.171875 0.050781 0.071879 25 22 21
0.175781 0.050781 0.068131 26 21 22
0.179688 0.050781 0.063856 27 22 23
0.183594 0.050781 0.059187 25 22 23
0.187500 0.050781 0.054520 25 25 25
0.191406 0.050781 0.047878 23 26 24
0.195312 0.050781 0.039432 22 25 21
0.199219 0.050781 0.030722 25 27 20
0.203125 0.050781 -0.005869 23 21 15
0.210938 0.050781 -0.011386 55 41 30
0.214844 0.050781 0.008871 87 63 48
0.218750 0.050781 0.014377 151 109 83
0.222656 0.050781 0.015324 201 150 119
0.226562 0.050781 0.013646 222 173 138
0.230469 0.050781 0.011800 228 175 139
0.234375 0.050781 0.008826 229 170 135
0.238281 0.050781 0.004512 225 174 140
0.242188 0.050781 -0.003405 207 169 139
-0.238281 0.046875 0.013898 226 200 168
-0.234375 0.046875 0.052303 210 159 122
-0.230469 0.046875 0.060729 200 137 99
-0.226562 0.046875 0.064538 191 133 98
-0.222656 0.046875 0.063793 168 117 89
-0.218750 0.046875 0.063600 158 107 83
-0.214844 0.046875 0.062830 113 70 56
-0.210938 0.046875 0.058989 104 72 58
-0.207031 0.046875 0.051874 115 87 81
0.003906 0.046875 0.077832 1 1 2
0.007812 0.046875 0.079660 3 3 4
0.011719 0.046875 0.081871 19 19 17
0.015625 0.046875 0.082943 21 22 18
0.019531 0.046875 0.083070 18 18 16
0.023438 0.046875 0.082575 18 18 16
0.027344 0.046875 0.082360 14 14 13
0.031250 0.046875 0.082451 14 14 13
0.035156 0.046875 0.082713 14 14 12
0.039062 0.046875 0.083142 14 14 13
0.042969 0.046875 0.083731 15 14 13
0.046875 0.046875 0.084433 14 14 13
0.050781 0.046875 0.085107 15 14 13
0.054688 0.046875 0.085776 15 15 14
0.058594 0.046875 0.086489 16 16 14
0.062500 0.046875 0.087381 16 16 14
0.066406 0.046875 0.088262 16 16 14
0.070312 0.046875 0.089086 16 16 14
0.074219 0.046875 0.089845 16 16 14
0.078125 0.046875 0.090440 15 15 14
0.082031 0.046875 0.090993 14 14 13
0.085938 0.046875 0.091649 14 14 13
0.089844 0.046875 0.092340 14 14 13
0.093750 0.046875 0.092973 14 14 13
0.097656 0.046875 0.093640 14 14 13
0.101562 0.046875 0.094231 15 15 13
0.105469 0.046875 0.094753 15 15 13
0.109375 0.046875 0.095146 16 15 14
0.113281 0.046875 0.095362 17 15 14
0.117188 0.046875 0.095451 17 16 14
0.121094 0.046875 0.095288 18 17 15
0.125000 0.046875 0.094943 19 17 16
0.128906 0.046875 0.094346 19 18 16
0.132812 0.046875 0.093410 19 18 16
0.136719 0.046875 0.092345 19 18 16
0.140625 0.046875 0.091218 20 18 16
0.144531 0.046875 0.089798 20 18 17
0.148438 0.046875 0.087967 21 19 17
0.152344 0.046875 0.085958 22 21 19
0.156250 0.046875 0.083860 22 22 20
0.160156 0.046875 0.081337 22 22 20
0.164062 0.046875 0.078255 21 22 20
0.167969 0.046875 0.075011 22 22 20
0.171875 0.046875 0.071521 23 21 20
0.175781 0.046875 0.067823 25 20 20
0.179688 0.046875 0.063628 26 21 21
0.183594 0.046875 0.059078 24 22 22
0.187500 0.046875 0.054563 25 25 24
0.191406 0.046875 0.048217 23 25 22
0.195312 0.046875 0.040209 21 24 20
0.199219 0.046875 0.032398 23 25 19
0.203125 0.046875 -0.003324 21 20 15
0.210938 0.046875 -0.014668 52 40 29
0.214844 0.046875 0.009107 85 63 48
0.218750 0.046875 0.015146 142 103 80
0.222656 0.046875 0.016082 192 141 113
0.226562 0.046875 0.014504 219 165 134
0.230469 0.046875 0.012853 227 170 137
0.234375 0.046875 0.009880 230 171 137
0.238281 0.046875 0.005351 230 179 150
0.242188 0.046875 -0.002457 212 171 145
-0.238281 0.042969 0.024234 217 182 147
-0.234375 0.042969 0.053737 213 158 119
-0.230469 0.042969 0.060009 204 140 101
-0.226562 0.042969 0.062838 195 138 103
-0.222656 0.042969 0.062083 173 123 95
-0.218750 0.042969 0.062295 161 112 88
-0.214844 0.042969 0.061859 124 82 64
-0.210938 0.042969 0.057473 102 70 57
-0.207031 0.042969 0.049815 75 50 54
0.003906 0.042969 0.074808 3 2 3
0.007812 0.042969 0.076417 9 9 9
0.011719 0.042969 0.078598 29 29 23
0.015625 0.042969 0.079667 23 23 19
0.019531 0.042969 0.079667 17 17 15
0.023438 0.042969 0.079192 16 16 15
0.027344 0.042969 0.079042 14 14 13
0.031250 0.042969 0.079160 14 14 13
0.035156 0.042969 0.079459 14 14 13
0.039062 0.042969 0.079916 14 14 13
0.042969 0.042969 0.080438 15 15 14
0.046875 0.042969 0.081238 15 14 13
0.050781 0.042969 0.082260 15 14 13
0.054688 0.042969 0.083498 15 14 13
0.058594 0.042969 0.084842 15 14 13
0.062500 0.042969 0.085917 15 14 13
0.066406 0.042969 0.086733 15 14 13
0.070312 0.042969 0.087483 14 14 13
0.074219 0.042969 0.088258 15 15 13
0.078125 0.042969 0.088902 15 15 13
0.082031 0.042969 0.089555 15 15 13
0.085938 0.042969 0.090327 15 15 14
0.089844 0.042969 0.091124 16 16 14
0.093750 0.042969 0.091866 16 16 14
0.097656 0.042969 0.092623 16 16 14
0.101562 0.042969 0.093299 16 16 14
0.105469 0.042969 0.093893 16 16 14
0.109375 0.042969 0.094346 16 16 14
0.113281 0.042969 0.094605 17 16 14
0.117188 0.042969 0.094723 17 16 15
0.121094 0.042969 0.094585 19 18 16
0.125000 0.042969 0.094254 20 19 17
0.128906 0.042969 0.093664 20 19 17
0.132812 0.042969 0.092722 20 19 17
0.136719 0.042969 0.091653 20 19 18
