ply
    format ascii 1.0
    element vertex 34570
    property float x
    property float y
    property float z
    property uchar red
    property uchar green
    property uchar blue
    end_header
-0.093750 -0.414062 -0.019379 44 42 41
-0.089844 -0.414062 -0.014475 38 36 36
-0.085938 -0.414062 -0.007223 38 37 35
-0.082031 -0.414062 -0.001822 34 34 33
-0.078125 -0.414062 0.011660 51 51 48
-0.031250 -0.414062 -0.078216 26 24 30
-0.027344 -0.414062 -0.097295 39 38 37
-0.023438 -0.414062 -0.102175 32 29 29
-0.019531 -0.414062 -0.106657 36 33 33
-0.015625 -0.414062 -0.109439 38 35 35
-0.011719 -0.414062 -0.111312 40 37 36
-0.007812 -0.414062 -0.112789 42 39 38
-0.003906 -0.414062 -0.114083 44 41 41
0.000000 -0.414062 -0.115073 44 42 41
0.003906 -0.414062 -0.115388 43 41 41
0.007812 -0.414062 -0.115050 44 41 40
0.011719 -0.414062 -0.114888 44 40 40
0.015625 -0.414062 -0.114595 45 42 42
0.019531 -0.414062 -0.113740 48 45 46
0.023438 -0.414062 -0.111860 52 49 49
0.027344 -0.414062 -0.110214 56 53 52
0.031250 -0.414062 -0.107906 53 49 49
0.035156 -0.414062 -0.105123 44 41 42
0.039062 -0.414062 -0.100239 43 40 42
0.042969 -0.414062 -0.096633 45 42 43
0.046875 -0.414062 -0.089733 50 47 45
0.050781 -0.414062 -0.082556 52 50 49
-0.167969 -0.417969 0.004437 26 25 24
-0.164062 -0.417969 -0.005010 29 26 24
-0.160156 -0.417969 -0.011039 30 27 25
-0.156250 -0.417969 -0.014594 26 25 24
-0.152344 -0.417969 -0.018871 28 27 26
-0.148438 -0.417969 -0.022417 33 32 31
-0.144531 -0.417969 -0.025180 35 34 33
-0.140625 -0.417969 -0.027344 38 36 35
-0.136719 -0.417969 -0.028685 40 38 37
-0.132812 -0.417969 -0.029080 42 40 39
-0.128906 -0.417969 -0.029762 47 44 42
-0.125000 -0.417969 -0.030405 46 44 43
-0.121094 -0.417969 -0.030541 45 43 42
-0.117188 -0.417969 -0.030134 44 42 40
-0.113281 -0.417969 -0.029968 42 40 39
-0.109375 -0.417969 -0.029750 44 42 41
-0.105469 -0.417969 -0.028118 47 45 43
-0.101562 -0.417969 -0.025390 47 45 43
-0.097656 -0.417969 -0.022422 45 44 42
-0.093750 -0.417969 -0.019466 42 40 39
-0.089844 -0.417969 -0.014630 36 35 34
-0.085938 -0.417969 -0.007486 37 36 35
-0.082031 -0.417969 -0.001742 35 35 34
-0.078125 -0.417969 0.014800 48 48 47
-0.031250 -0.417969 -0.061721 37 35 41
-0.027344 -0.417969 -0.098066 41 40 39
-0.023438 -0.417969 -0.101851 31 28 28
-0.019531 -0.417969 -0.106589 35 32 33
-0.015625 -0.417969 -0.109478 37 35 35
-0.011719 -0.417969 -0.111405 41 38 37
-0.007812 -0.417969 -0.112910 43 40 38
-0.003906 -0.417969 -0.114218 44 42 41
0.000000 -0.417969 -0.115191 46 43 42
0.003906 -0.417969 -0.115489 46 43 42
0.007812 -0.417969 -0.115161 44 41 41
0.011719 -0.417969 -0.114996 42 39 38
0.015625 -0.417969 -0.114689 44 41 40
0.019531 -0.417969 -0.113841 48 45 44
0.023438 -0.417969 -0.111967 51 49 48
0.027344 -0.417969 -0.110345 57 54 53
0.031250 -0.417969 -0.108082 55 52 51
0.035156 -0.417969 -0.105382 47 43 44
0.039062 -0.417969 -0.100461 44 41 42
0.042969 -0.417969 -0.096941 44 40 42
0.046875 -0.417969 -0.089793 48 45 44
0.050781 -0.417969 -0.082606 51 48 47
-0.167969 -0.421875 0.003336 27 25 25
-0.164062 -0.421875 -0.006246 29 26 25
-0.160156 -0.421875 -0.012087 32 30 28
-0.156250 -0.421875 -0.015716 27 25 25
-0.152344 -0.421875 -0.019928 27 25 25
-0.148438 -0.421875 -0.023442 33 31 30
-0.144531 -0.421875 -0.026166 35 33 32
-0.140625 -0.421875 -0.028228 35 34 33
-0.136719 -0.421875 -0.029484 39 37 37
-0.132812 -0.421875 -0.029772 43 41 40
-0.128906 -0.421875 -0.030375 46 43 42
-0.125000 -0.421875 -0.030933 44 42 41
-0.121094 -0.421875 -0.030994 43 41 40
-0.117188 -0.421875 -0.030533 44 41 40
-0.113281 -0.421875 -0.030316 43 40 39
-0.109375 -0.421875 -0.030062 45 43 41
-0.105469 -0.421875 -0.028366 48 46 44
-0.101562 -0.421875 -0.025583 48 46 44
-0.097656 -0.421875 -0.022556 44 42 40
-0.093750 -0.421875 -0.019442 38 36 36
-0.089844 -0.421875 -0.014755 34 33 33
-0.085938 -0.421875 -0.007576 38 37 36
-0.082031 -0.421875 -0.000164 38 39 38
-0.078125 -0.421875 0.014753 41 41 43
-0.031250 -0.421875 -0.036766 22 21 27
-0.027344 -0.421875 -0.098935 37 37 37
-0.023438 -0.421875 -0.101721 29 26 27
-0.019531 -0.421875 -0.106653 35 32 33
-0.015625 -0.421875 -0.109530 37 35 34
-0.011719 -0.421875 -0.111521 41 38 37
-0.007812 -0.421875 -0.113030 42 39 37
-0.003906 -0.421875 -0.114345 43 41 39
0.000000 -0.421875 -0.115300 46 43 42
0.003906 -0.421875 -0.115588 47 44 43
0.007812 -0.421875 -0.115265 46 43 42
0.011719 -0.421875 -0.115098 43 40 39
0.015625 -0.421875 -0.114786 43 40 39
0.019531 -0.421875 -0.113935 45 42 42
0.023438 -0.421875 -0.112056 47 44 44
0.027344 -0.421875 -0.110443 51 48 47
0.031250 -0.421875 -0.108191 52 48 48
0.035156 -0.421875 -0.105539 48 44 45
0.039062 -0.421875 -0.100652 46 42 43
0.042969 -0.421875 -0.097153 44 40 42
0.046875 -0.421875 -0.090061 47 44 43
0.050781 -0.421875 -0.083067 51 48 48
-0.167969 -0.425781 0.002315 29 27 27
-0.164062 -0.425781 -0.007377 30 27 26
-0.160156 -0.425781 -0.013087 36 34 31
-0.156250 -0.425781 -0.016797 29 27 27
-0.152344 -0.425781 -0.020927 25 24 24
-0.148438 -0.425781 -0.024401 32 30 29
-0.144531 -0.425781 -0.027073 36 34 33
-0.140625 -0.425781 -0.029059 36 34 34
-0.136719 -0.425781 -0.030252 40 38 37
-0.132812 -0.425781 -0.030423 44 41 40
-0.128906 -0.425781 -0.030931 44 41 41
-0.125000 -0.425781 -0.031416 42 40 40
-0.121094 -0.425781 -0.031407 43 41 40
-0.117188 -0.425781 -0.030884 42 40 39
-0.113281 -0.425781 -0.030608 40 38 37
-0.109375 -0.425781 -0.030307 42 40 39
-0.105469 -0.425781 -0.028537 46 45 42
-0.101562 -0.425781 -0.025690 47 44 42
-0.097656 -0.425781 -0.022578 43 40 39
-0.093750 -0.425781 -0.019272 37 36 35
-0.089844 -0.425781 -0.014704 36 34 34
-0.085938 -0.425781 -0.007775 41 40 38
-0.082031 -0.425781 0.000727 43 45 43
-0.078125 -0.425781 0.011974 43 44 46
-0.027344 -0.425781 -0.098462 37 36 37
-0.023438 -0.425781 -0.101832 31 27 28
-0.019531 -0.425781 -0.106765 36 33 34
-0.015625 -0.425781 -0.109561 37 35 34
-0.011719 -0.425781 -0.111642 40 37 35
-0.007812 -0.425781 -0.113174 39 36 35
-0.003906 -0.425781 -0.114466 41 38 37
0.000000 -0.425781 -0.115376 43 40 39
0.003906 -0.425781 -0.115661 45 42 41
0.007812 -0.425781 -0.115344 46 43 42
0.011719 -0.425781 -0.115184 45 42 41
0.015625 -0.425781 -0.114873 44 41 40
0.019531 -0.425781 -0.114019 45 42 41
0.023438 -0.425781 -0.112134 45 42 42
0.027344 -0.425781 -0.110543 46 43 43
0.031250 -0.425781 -0.108301 50 46 46
0.035156 -0.425781 -0.105671 48 45 45
0.039062 -0.425781 -0.100840 45 41 43
0.042969 -0.425781 -0.097304 44 40 42
0.046875 -0.425781 -0.090354 48 45 44
0.050781 -0.425781 -0.083200 53 51 50
-0.167969 -0.429688 0.001313 32 30 29
-0.164062 -0.429688 -0.008190 30 27 26
-0.160156 -0.429688 -0.013910 40 37 35
-0.156250 -0.429688 -0.017740 32 30 29
-0.152344 -0.429688 -0.021801 25 23 23
-0.148438 -0.429688 -0.025272 31 29 28
-0.144531 -0.429688 -0.027905 37 35 34
-0.140625 -0.429688 -0.029817 37 35 35
-0.136719 -0.429688 -0.030964 39 37 36
-0.132812 -0.429688 -0.031055 40 38 37
-0.128906 -0.429688 -0.031480 40 38 38
-0.125000 -0.429688 -0.031893 42 41 40
-0.121094 -0.429688 -0.031811 44 42 42
-0.117188 -0.429688 -0.031215 43 41 40
-0.113281 -0.429688 -0.030867 41 39 38
-0.109375 -0.429688 -0.030496 42 41 39
-0.105469 -0.429688 -0.028648 45 43 41
-0.101562 -0.429688 -0.025760 43 41 39
-0.097656 -0.429688 -0.022559 38 36 35
-0.093750 -0.429688 -0.019060 36 34 34
-0.089844 -0.429688 -0.014478 38 36 36
-0.085938 -0.429688 -0.007846 41 40 39
-0.082031 -0.429688 0.001494 42 45 43
-0.078125 -0.429688 0.008931 44 46 47
-0.027344 -0.429688 -0.097923 47 47 46
-0.023438 -0.429688 -0.101919 36 32 32
-0.019531 -0.429688 -0.106724 35 33 34
-0.015625 -0.429688 -0.109692 36 33 33
-0.011719 -0.429688 -0.111782 38 34 33
-0.007812 -0.429688 -0.113322 38 35 33
-0.003906 -0.429688 -0.114600 40 37 36
0.000000 -0.429688 -0.115481 41 38 37
0.003906 -0.429688 -0.115750 43 40 39
0.007812 -0.429688 -0.115426 44 41 40
0.011719 -0.429688 -0.115275 46 42 42
0.015625 -0.429688 -0.114961 46 43 43
0.019531 -0.429688 -0.114099 47 44 44
0.023438 -0.429688 -0.112221 47 44 44
0.027344 -0.429688 -0.110640 46 43 43
0.031250 -0.429688 -0.108401 51 47 47
0.035156 -0.429688 -0.105773 49 46 46
0.039062 -0.429688 -0.100956 44 41 43
0.042969 -0.429688 -0.097379 44 41 43
0.046875 -0.429688 -0.090459 50 48 47
0.050781 -0.429688 -0.083295 57 54 53
-0.167969 -0.433594 0.000321 34 32 31
-0.164062 -0.433594 -0.008801 28 25 26
-0.160156 -0.433594 -0.014647 40 38 36
-0.156250 -0.433594 -0.018598 34 32 31
-0.152344 -0.433594 -0.022569 25 24 24
-0.148438 -0.433594 -0.026017 29 28 27
-0.144531 -0.433594 -0.028628 37 35 34
-0.140625 -0.433594 -0.030493 38 36 35
-0.136719 -0.433594 -0.031597 39 37 36
-0.132812 -0.433594 -0.031620 38 37 36
-0.128906 -0.433594 -0.031978 40 38 37
-0.125000 -0.433594 -0.032317 44 42 42
-0.121094 -0.433594 -0.032176 46 44 43
-0.117188 -0.433594 -0.031530 43 42 41
-0.113281 -0.433594 -0.031126 42 40 39
-0.109375 -0.433594 -0.030672 43 41 40
-0.105469 -0.433594 -0.028718 45 43 41
-0.101562 -0.433594 -0.025758 41 39 38
-0.097656 -0.433594 -0.022464 37 35 34
-0.093750 -0.433594 -0.018862 37 35 35
-0.089844 -0.433594 -0.014111 41 39 38
-0.085938 -0.433594 -0.007532 43 42 40
-0.082031 -0.433594 0.002211 41 43 41
-0.078125 -0.433594 0.006604 41 43 44
-0.027344 -0.433594 -0.097779 40 39 39
-0.023438 -0.433594 -0.102301 35 31 31
-0.019531 -0.433594 -0.106671 35 32 33
-0.015625 -0.433594 -0.109813 35 32 32
-0.011719 -0.433594 -0.111857 36 32 31
-0.007812 -0.433594 -0.113396 37 33 32
-0.003906 -0.433594 -0.114665 41 37 35
0.000000 -0.433594 -0.115535 41 38 36
0.003906 -0.433594 -0.115806 41 38 37
0.007812 -0.433594 -0.115488 42 39 38
0.011719 -0.433594 -0.115349 44 41 41
0.015625 -0.433594 -0.115028 45 42 43
0.019531 -0.433594 -0.114160 47 44 44
0.023438 -0.433594 -0.112299 46 43 44
0.027344 -0.433594 -0.110736 44 41 42
0.031250 -0.433594 -0.108495 48 45 45
0.035156 -0.433594 -0.105843 49 45 46
0.039062 -0.433594 -0.101030 46 43 45
0.042969 -0.433594 -0.097501 48 45 46
0.046875 -0.433594 -0.090638 53 51 49
0.050781 -0.433594 -0.083597 55 53 52
-0.167969 -0.437500 -0.000595 39 37 35
-0.164062 -0.437500 -0.009350 30 27 27
-0.160156 -0.437500 -0.015262 43 41 38
-0.156250 -0.437500 -0.019267 39 37 35
-0.152344 -0.437500 -0.023192 27 25 25
-0.148438 -0.437500 -0.026632 27 26 26
-0.144531 -0.437500 -0.029227 35 33 32
-0.140625 -0.437500 -0.031095 38 36 34
-0.136719 -0.437500 -0.032204 38 37 36
-0.132812 -0.437500 -0.032174 38 37 36
-0.128906 -0.437500 -0.032486 39 38 37
-0.125000 -0.437500 -0.032772 44 43 42
-0.121094 -0.437500 -0.032570 46 45 43
-0.117188 -0.437500 -0.031859 44 42 41
-0.113281 -0.437500 -0.031399 42 40 39
-0.109375 -0.437500 -0.030828 41 39 38
-0.105469 -0.437500 -0.028761 41 39 38
-0.101562 -0.437500 -0.025710 39 37 36
-0.097656 -0.437500 -0.022274 38 36 35
-0.093750 -0.437500 -0.018548 41 40 39
-0.089844 -0.437500 -0.013664 45 43 42
-0.085938 -0.437500 -0.006885 45 43 40
-0.082031 -0.437500 0.003230 41 42 39
-0.078125 -0.437500 0.007381 43 44 45
-0.027344 -0.437500 -0.098141 45 43 42
-0.023438 -0.437500 -0.102921 38 34 32
-0.019531 -0.437500 -0.106592 38 35 35
-0.015625 -0.437500 -0.109919 38 35 34
-0.011719 -0.437500 -0.111940 36 32 31
-0.007812 -0.437500 -0.113485 36 32 31
-0.003906 -0.437500 -0.114714 41 36 34
0.000000 -0.437500 -0.115545 41 37 36
0.003906 -0.437500 -0.115844 40 37 36
0.007812 -0.437500 -0.115561 42 39 39
0.011719 -0.437500 -0.115435 46 43 43
0.015625 -0.437500 -0.115112 47 44 45
0.019531 -0.437500 -0.114243 48 45 46
0.023438 -0.437500 -0.112380 48 45 46
0.027344 -0.437500 -0.110825 44 41 42
0.031250 -0.437500 -0.108605 45 42 43
0.035156 -0.437500 -0.105947 48 45 46
0.039062 -0.437500 -0.101187 51 48 49
0.042969 -0.437500 -0.097596 53 50 51
0.046875 -0.437500 -0.090947 54 52 51
0.050781 -0.437500 -0.084501 54 52 51
-0.167969 -0.441406 -0.000921 42 39 37
-0.164062 -0.441406 -0.009533 29 27 27
-0.160156 -0.441406 -0.015691 44 42 38
-0.156250 -0.441406 -0.019809 42 39 37
-0.152344 -0.441406 -0.023672 28 27 26
-0.148438 -0.441406 -0.027116 26 25 25
-0.144531 -0.441406 -0.029726 33 31 30
-0.140625 -0.441406 -0.031634 37 35 33
-0.136719 -0.441406 -0.032758 38 36 35
-0.132812 -0.441406 -0.032690 39 38 37
-0.128906 -0.441406 -0.032990 40 39 38
-0.125000 -0.441406 -0.033253 44 43 41
-0.121094 -0.441406 -0.032988 45 44 42
-0.117188 -0.441406 -0.032193 43 41 40
-0.113281 -0.441406 -0.031666 43 41 40
-0.109375 -0.441406 -0.030945 42 40 39
-0.105469 -0.441406 -0.028792 40 38 37
-0.101562 -0.441406 -0.025651 37 35 34
-0.097656 -0.441406 -0.022063 38 36 36
-0.093750 -0.441406 -0.018179 45 43 42
-0.089844 -0.441406 -0.013113 46 44 42
-0.085938 -0.441406 -0.005767 43 41 38
-0.082031 -0.441406 0.005444 39 40 38
-0.078125 -0.441406 0.011163 44 46 47
-0.027344 -0.441406 -0.095830 44 41 40
-0.023438 -0.441406 -0.102391 35 31 29
-0.019531 -0.441406 -0.106681 39 36 34
-0.015625 -0.441406 -0.110075 42 39 36
-0.011719 -0.441406 -0.111906 38 34 33
-0.007812 -0.441406 -0.113445 36 31 30
-0.003906 -0.441406 -0.114673 39 34 33
0.000000 -0.441406 -0.115504 42 37 35
0.003906 -0.441406 -0.115838 42 38 37
0.007812 -0.441406 -0.115611 43 40 39
0.011719 -0.441406 -0.115514 47 44 43
0.015625 -0.441406 -0.115196 46 43 43
0.019531 -0.441406 -0.114340 47 44 44
0.023438 -0.441406 -0.112477 48 45 45
0.027344 -0.441406 -0.110916 44 41 42
0.031250 -0.441406 -0.108723 44 41 43
0.035156 -0.441406 -0.106059 48 45 46
0.039062 -0.441406 -0.101351 53 50 51
0.042969 -0.441406 -0.097668 54 51 52
0.046875 -0.441406 -0.091210 54 52 51
0.050781 -0.441406 -0.084677 57 55 54
-0.167969 -0.445312 -0.001164 42 39 36
-0.164062 -0.445312 -0.009828 27 24 25
-0.160156 -0.445312 -0.016060 42 40 37
-0.156250 -0.445312 -0.020191 42 39 36
-0.152344 -0.445312 -0.024054 29 27 27
-0.148438 -0.445312 -0.027521 27 26 25
-0.144531 -0.445312 -0.030172 34 32 30
-0.140625 -0.445312 -0.032129 38 36 33
-0.136719 -0.445312 -0.033279 40 38 36
-0.132812 -0.445312 -0.033205 42 41 39
-0.128906 -0.445312 -0.033508 43 42 41
-0.125000 -0.445312 -0.033743 45 44 42
-0.121094 -0.445312 -0.033425 43 42 40
-0.117188 -0.445312 -0.032555 39 38 37
-0.113281 -0.445312 -0.031962 40 39 38
-0.109375 -0.445312 -0.031100 41 39 38
-0.105469 -0.445312 -0.028832 40 38 37
-0.101562 -0.445312 -0.025556 38 36 36
-0.097656 -0.445312 -0.021824 41 39 38
-0.093750 -0.445312 -0.017789 48 45 44
-0.089844 -0.445312 -0.012520 47 44 42
-0.085938 -0.445312 -0.004885 43 41 38
-0.082031 -0.445312 0.006693 35 34 34
-0.078125 -0.445312 0.013601 41 43 44
-0.027344 -0.445312 -0.094308 38 34 33
-0.023438 -0.445312 -0.101795 32 27 25
-0.019531 -0.445312 -0.106494 38 35 33
-0.015625 -0.445312 -0.110117 43 39 37
-0.011719 -0.445312 -0.111976 40 36 34
-0.007812 -0.445312 -0.113304 37 33 31
-0.003906 -0.445312 -0.114555 37 32 31
0.000000 -0.445312 -0.115440 40 35 33
0.003906 -0.445312 -0.115837 42 37 36
0.007812 -0.445312 -0.115669 42 38 38
0.011719 -0.445312 -0.115609 43 40 40
0.015625 -0.445312 -0.115303 42 39 40
0.019531 -0.445312 -0.114458 43 40 41
0.023438 -0.445312 -0.112604 46 42 43
0.027344 -0.445312 -0.111041 44 40 41
0.031250 -0.445312 -0.108861 44 41 42
0.035156 -0.445312 -0.106181 48 45 46
0.039062 -0.445312 -0.101553 54 50 51
0.042969 -0.445312 -0.097853 53 51 51
0.046875 -0.445312 -0.091543 54 52 51
0.050781 -0.445312 -0.085099 57 55 54
-0.167969 -0.449219 -0.001034 45 42 38
-0.164062 -0.449219 -0.010048 28 26 27
-0.160156 -0.449219 -0.016368 45 43 40
-0.156250 -0.449219 -0.020549 45 42 38
-0.152344 -0.449219 -0.024405 31 29 28
-0.148438 -0.449219 -0.027868 29 27 26
-0.144531 -0.449219 -0.030558 34 31 29
-0.140625 -0.449219 -0.032593 37 35 32
-0.136719 -0.449219 -0.033813 39 38 36
-0.132812 -0.449219 -0.033754 40 39 38
-0.128906 -0.449219 -0.034049 41 41 39
-0.125000 -0.449219 -0.034235 43 43 41
-0.121094 -0.449219 -0.033868 41 41 39
-0.117188 -0.449219 -0.032937 38 37 36
-0.113281 -0.449219 -0.032279 40 39 38
-0.109375 -0.449219 -0.031278 41 39 39
-0.105469 -0.449219 -0.028868 40 38 37
-0.101562 -0.449219 -0.025456 40 38 37
-0.097656 -0.449219 -0.021557 42 41 39
-0.093750 -0.449219 -0.017323 46 43 42
-0.089844 -0.449219 -0.011813 44 41 40
-0.085938 -0.449219 -0.003827 45 42 39
-0.082031 -0.449219 0.008159 38 37 38
-0.078125 -0.449219 0.014829 43 44 45
-0.027344 -0.449219 -0.098447 39 36 33
-0.023438 -0.449219 -0.101127 31 27 25
-0.019531 -0.449219 -0.106890 37 35 32
-0.015625 -0.449219 -0.109778 41 37 34
-0.011719 -0.449219 -0.112027 40 36 34
-0.007812 -0.449219 -0.113142 40 35 33
-0.003906 -0.449219 -0.114395 37 32 30
0.000000 -0.449219 -0.115356 38 34 32
0.003906 -0.449219 -0.115845 42 38 37
0.007812 -0.449219 -0.115740 43 40 38
0.011719 -0.449219 -0.115713 43 40 40
0.015625 -0.449219 -0.115426 42 39 39
0.019531 -0.449219 -0.114597 43 40 40
0.023438 -0.449219 -0.112757 46 42 42
0.027344 -0.449219 -0.111202 45 41 42
0.031250 -0.449219 -0.109014 45 41 42
0.035156 -0.449219 -0.106339 46 42 44
0.039062 -0.449219 -0.101837 50 46 48
0.042969 -0.449219 -0.098082 50 48 49
0.046875 -0.449219 -0.091956 51 49 49
0.050781 -0.449219 -0.086147 55 53 53
-0.167969 -0.453125 -0.000429 48 45 42
-0.164062 -0.453125 -0.010243 28 26 27
-0.160156 -0.453125 -0.016665 45 43 41
-0.156250 -0.453125 -0.020884 48 45 42
-0.152344 -0.453125 -0.024758 34 32 31
-0.148438 -0.453125 -0.028234 28 26 25
-0.144531 -0.453125 -0.030964 30 28 26
-0.140625 -0.453125 -0.033085 36 33 31
-0.136719 -0.453125 -0.034388 40 38 36
-0.132812 -0.453125 -0.034345 40 40 38
-0.128906 -0.453125 -0.034637 40 40 38
-0.125000 -0.453125 -0.034798 42 41 39
-0.121094 -0.453125 -0.034380 42 41 39
-0.117188 -0.453125 -0.033386 41 40 38
-0.113281 -0.453125 -0.032618 42 41 39
-0.109375 -0.453125 -0.031479 42 40 39
-0.105469 -0.453125 -0.028895 41 39 39
-0.101562 -0.453125 -0.025365 43 41 40
-0.097656 -0.453125 -0.021345 46 44 43
-0.093750 -0.453125 -0.016957 47 44 43
-0.089844 -0.453125 -0.011091 42 39 38
-0.085938 -0.453125 -0.002605 42 38 36
-0.082031 -0.453125 0.009838 40 39 39
-0.078125 -0.453125 0.015263 42 39 38
-0.027344 -0.453125 -0.098105 44 41 40
-0.023438 -0.453125 -0.101471 31 26 24
-0.019531 -0.453125 -0.106968 38 35 32
-0.015625 -0.453125 -0.109237 39 35 33
-0.011719 -0.453125 -0.111891 39 34 33
-0.007812 -0.453125 -0.112870 41 36 34
-0.003906 -0.453125 -0.114177 38 33 32
0.000000 -0.453125 -0.115280 39 35 33
0.003906 -0.453125 -0.115859 44 40 38
0.007812 -0.453125 -0.115817 44 41 39
0.011719 -0.453125 -0.115829 43 40 39
0.015625 -0.453125 -0.115572 41 38 38
0.019531 -0.453125 -0.114764 43 40 40
0.023438 -0.453125 -0.112932 47 43 43
0.027344 -0.453125 -0.111368 47 44 44
0.031250 -0.453125 -0.109186 47 43 44
0.035156 -0.453125 -0.106526 45 42 43
0.039062 -0.453125 -0.102114 47 44 46
0.042969 -0.453125 -0.098295 48 46 47
0.046875 -0.453125 -0.092351 49 47 47
0.050781 -0.453125 -0.086496 53 51 50
-0.167969 -0.457031 0.000232 51 48 45
-0.164062 -0.457031 -0.010546 28 26 27
-0.160156 -0.457031 -0.016971 45 43 41
-0.156250 -0.457031 -0.021236 51 48 45
-0.152344 -0.457031 -0.025189 39 37 36
-0.148438 -0.457031 -0.028666 30 28 27
-0.144531 -0.457031 -0.031440 29 26 24
-0.140625 -0.457031 -0.033656 35 33 30
-0.136719 -0.457031 -0.035020 40 38 36
-0.132812 -0.457031 -0.034977 40 39 37
-0.128906 -0.457031 -0.035261 39 38 38
-0.125000 -0.457031 -0.035422 40 39 38
-0.121094 -0.457031 -0.034966 42 41 39
-0.117188 -0.457031 -0.033912 42 41 39
-0.113281 -0.457031 -0.032962 40 39 38
-0.109375 -0.457031 -0.031746 40 38 38
-0.105469 -0.457031 -0.029000 40 39 38
-0.101562 -0.457031 -0.025361 44 42 41
-0.097656 -0.457031 -0.021190 49 46 46
-0.093750 -0.457031 -0.016677 50 47 46
-0.089844 -0.457031 -0.010412 43 40 39
-0.085938 -0.457031 -0.001702 41 37 34
-0.082031 -0.457031 0.011142 44 42 41
-0.078125 -0.457031 0.013899 43 40 39
-0.027344 -0.457031 -0.077993 38 34 33
-0.023438 -0.457031 -0.102812 31 26 24
-0.019531 -0.457031 -0.106515 40 36 33
-0.015625 -0.457031 -0.108877 39 35 33
-0.011719 -0.457031 -0.111638 38 34 33
-0.007812 -0.457031 -0.112647 41 36 35
-0.003906 -0.457031 -0.113991 39 35 33
0.000000 -0.457031 -0.115246 38 34 33
0.003906 -0.457031 -0.115912 41 37 36
0.007812 -0.457031 -0.115924 43 39 39
0.011719 -0.457031 -0.115982 42 40 39
0.015625 -0.457031 -0.115762 41 39 39
0.019531 -0.457031 -0.114968 44 41 41
0.023438 -0.457031 -0.113125 47 44 44
0.027344 -0.457031 -0.111543 48 45 45
0.031250 -0.457031 -0.109399 48 44 45
0.035156 -0.457031 -0.106745 46 42 44
0.039062 -0.457031 -0.102458 47 44 46
0.042969 -0.457031 -0.098582 49 46 47
0.046875 -0.457031 -0.092973 49 47 47
0.050781 -0.457031 -0.087407 49 48 48
-0.167969 -0.460938 0.000264 50 48 45
-0.164062 -0.460938 -0.011310 29 27 28
-0.160156 -0.460938 -0.017451 44 41 40
-0.156250 -0.460938 -0.021715 50 48 45
-0.152344 -0.460938 -0.025745 43 42 40
-0.148438 -0.460938 -0.029205 32 31 29
-0.144531 -0.460938 -0.032038 28 26 24
-0.140625 -0.460938 -0.034365 33 31 29
-0.136719 -0.460938 -0.035783 37 36 34
-0.132812 -0.460938 -0.035796 38 37 35
-0.128906 -0.460938 -0.036058 39 38 37
-0.125000 -0.460938 -0.036227 40 39 38
-0.121094 -0.460938 -0.035771 42 40 39
-0.117188 -0.460938 -0.034589 42 41 39
-0.113281 -0.460938 -0.033484 40 39 38
-0.109375 -0.460938 -0.032165 40 38 38
-0.105469 -0.460938 -0.029237 40 39 38
-0.101562 -0.460938 -0.025429 42 40 40
-0.097656 -0.460938 -0.021176 45 42 43
-0.093750 -0.460938 -0.016590 46 43 43
-0.089844 -0.460938 -0.009660 45 42 40
-0.085938 -0.460938 -0.000875 49 45 40
-0.082031 -0.460938 0.013022 65 62 58
-0.078125 -0.460938 0.008776 45 42 40
-0.027344 -0.460938 -0.027790 39 36 33
-0.023438 -0.460938 -0.102384 32 27 26
-0.019531 -0.460938 -0.106326 44 40 36
-0.015625 -0.460938 -0.108977 43 39 36
-0.011719 -0.460938 -0.111053 40 36 35
-0.007812 -0.460938 -0.112409 40 36 35
-0.003906 -0.460938 -0.113788 40 35 34
0.000000 -0.460938 -0.115201 38 35 34
0.003906 -0.460938 -0.115982 39 35 35
0.007812 -0.460938 -0.116071 42 39 39
0.011719 -0.460938 -0.116192 45 42 42
0.015625 -0.460938 -0.116029 43 40 40
0.019531 -0.460938 -0.115251 43 41 41
0.023438 -0.460938 -0.113387 45 42 43
0.027344 -0.460938 -0.111792 45 43 44
0.031250 -0.460938 -0.109662 45 42 43
0.035156 -0.460938 -0.106989 43 40 41
0.039062 -0.460938 -0.102831 44 41 43
0.042969 -0.460938 -0.098840 47 44 45
0.046875 -0.460938 -0.093641 50 48 48
0.050781 -0.460938 -0.088215 49 48 48
-0.164062 -0.464844 -0.011945 29 26 28
-0.160156 -0.464844 -0.018161 41 39 38
-0.156250 -0.464844 -0.022358 48 46 44
-0.152344 -0.464844 -0.026432 44 44 43
-0.148438 -0.464844 -0.029914 34 33 32
-0.144531 -0.464844 -0.032790 29 26 25
-0.140625 -0.464844 -0.035211 33 31 28
-0.136719 -0.464844 -0.036673 39 37 34
-0.132812 -0.464844 -0.036770 40 39 37
-0.128906 -0.464844 -0.037083 42 41 41
-0.125000 -0.464844 -0.037252 44 43 42
-0.121094 -0.464844 -0.036720 43 43 41
-0.117188 -0.464844 -0.035386 41 41 39
-0.113281 -0.464844 -0.034179 40 39 38
-0.109375 -0.464844 -0.032707 40 39 38
-0.105469 -0.464844 -0.029585 41 39 39
-0.101562 -0.464844 -0.025642 42 40 40
-0.097656 -0.464844 -0.021271 42 40 41
-0.093750 -0.464844 -0.016224 41 39 40
-0.089844 -0.464844 -0.009170 41 39 37
-0.085938 -0.464844 -0.000489 44 41 36
-0.082031 -0.464844 0.015193 40 37 39
-0.078125 -0.464844 -0.001585 41 39 37
-0.023438 -0.464844 -0.101779 34 30 31
-0.019531 -0.464844 -0.105724 47 43 40
-0.015625 -0.464844 -0.109108 47 42 39
-0.011719 -0.464844 -0.110596 40 36 36
-0.007812 -0.464844 -0.112068 36 32 32
-0.003906 -0.464844 -0.113557 40 35 34
0.000000 -0.464844 -0.115172 41 37 36
0.003906 -0.464844 -0.116084 39 36 36
0.007812 -0.464844 -0.116253 43 40 40
0.011719 -0.464844 -0.116449 47 44 44
0.015625 -0.464844 -0.116335 44 41 42
0.019531 -0.464844 -0.115557 43 40 41
0.023438 -0.464844 -0.113687 45 42 43
0.027344 -0.464844 -0.112083 47 44 45
0.031250 -0.464844 -0.109964 46 43 44
0.035156 -0.464844 -0.107283 43 40 41
0.039062 -0.464844 -0.103151 43 40 42
0.042969 -0.464844 -0.099016 45 42 43
0.046875 -0.464844 -0.094316 49 46 46
0.050781 -0.464844 -0.087948 50 47 48
-0.164062 -0.468750 -0.012020 30 27 28
-0.160156 -0.468750 -0.019142 42 39 38
-0.156250 -0.468750 -0.023374 49 47 46
-0.152344 -0.468750 -0.027337 50 49 47
-0.148438 -0.468750 -0.030833 40 39 37
-0.144531 -0.468750 -0.033731 31 28 27
-0.140625 -0.468750 -0.036243 32 29 27
-0.136719 -0.468750 -0.037747 37 35 33
-0.132812 -0.468750 -0.037895 39 38 36
-0.128906 -0.468750 -0.038285 40 40 39
-0.125000 -0.468750 -0.038430 42 41 40
-0.121094 -0.468750 -0.037877 41 41 40
-0.117188 -0.468750 -0.036465 40 39 38
-0.113281 -0.468750 -0.035087 39 38 37
-0.109375 -0.468750 -0.033418 40 39 38
-0.105469 -0.468750 -0.030118 42 40 39
-0.101562 -0.468750 -0.025999 43 41 41
-0.097656 -0.468750 -0.021540 42 40 41
-0.093750 -0.468750 -0.016127 41 40 40
-0.089844 -0.468750 -0.009554 41 40 37
-0.085938 -0.468750 0.000656 45 41 37
-0.082031 -0.468750 0.021592 35 34 36
-0.023438 -0.468750 -0.102128 30 28 29
-0.019531 -0.468750 -0.105344 46 43 38
-0.015625 -0.468750 -0.108665 48 44 40
-0.011719 -0.468750 -0.110307 42 39 39
-0.007812 -0.468750 -0.111757 35 32 32
-0.003906 -0.468750 -0.113334 40 35 34
0.000000 -0.468750 -0.115140 44 39 38
0.003906 -0.468750 -0.116192 42 39 38
0.007812 -0.468750 -0.116453 44 41 41
0.011719 -0.468750 -0.116723 45 42 43
0.015625 -0.468750 -0.116641 42 39 40
0.019531 -0.468750 -0.115866 42 39 40
0.023438 -0.468750 -0.114007 45 42 43
0.027344 -0.468750 -0.112405 48 46 46
0.031250 -0.468750 -0.110293 47 44 45
0.035156 -0.468750 -0.107618 44 41 42
0.039062 -0.468750 -0.103521 44 40 42
0.042969 -0.468750 -0.099433 43 40 42
0.046875 -0.468750 -0.095054 44 42 42
0.050781 -0.468750 -0.088447 49 47 47
0.054688 -0.468750 -0.061363 43 40 42
-0.164062 -0.472656 -0.012421 30 27 28
-0.160156 -0.472656 -0.020373 38 36 36
-0.156250 -0.472656 -0.024569 46 44 43
-0.152344 -0.472656 -0.028417 51 49 47
-0.148438 -0.472656 -0.031948 46 44 40
-0.144531 -0.472656 -0.034907 34 32 30
-0.140625 -0.472656 -0.037487 31 29 27
-0.136719 -0.472656 -0.039047 36 34 32
-0.132812 -0.472656 -0.039267 39 38 36
-0.128906 -0.472656 -0.039723 40 40 39
-0.125000 -0.472656 -0.039888 41 40 40
-0.121094 -0.472656 -0.039299 41 40 40
-0.117188 -0.472656 -0.037781 40 39 38
-0.113281 -0.472656 -0.036201 40 38 37
-0.109375 -0.472656 -0.034314 40 39 38
-0.105469 -0.472656 -0.030778 42 41 40
-0.101562 -0.472656 -0.026395 43 41 41
-0.097656 -0.472656 -0.022052 41 39 40
-0.093750 -0.472656 -0.016328 44 42 42
-0.089844 -0.472656 -0.009539 44 42 40
-0.085938 -0.472656 0.003186 52 47 43
-0.082031 -0.472656 0.020320 49 47 46
-0.023438 -0.472656 -0.101550 27 27 28
-0.019531 -0.472656 -0.104775 44 42 36
-0.015625 -0.472656 -0.108195 47 43 39
-0.011719 -0.472656 -0.110064 46 43 43
-0.007812 -0.472656 -0.111450 37 34 35
-0.003906 -0.472656 -0.113090 37 32 31
0.000000 -0.472656 -0.115044 42 37 35
0.003906 -0.472656 -0.116267 43 40 39
0.007812 -0.472656 -0.116630 43 41 41
0.011719 -0.472656 -0.116968 42 40 41
0.015625 -0.472656 -0.116939 40 38 40
0.019531 -0.472656 -0.116194 41 38 40
0.023438 -0.472656 -0.114342 42 40 41
0.027344 -0.472656 -0.112735 45 42 43
0.031250 -0.472656 -0.110628 45 42 43
0.035156 -0.472656 -0.107969 44 41 42
0.039062 -0.472656 -0.103928 44 41 43
0.042969 -0.472656 -0.099955 43 40 41
0.046875 -0.472656 -0.095485 43 41 41
0.050781 -0.472656 -0.090181 50 48 47
0.054688 -0.472656 -0.061747 43 40 41
-0.164062 -0.476562 -0.013461 31 28 29
-0.160156 -0.476562 -0.021603 37 35 34
-0.156250 -0.476562 -0.025935 44 42 40
-0.152344 -0.476562 -0.029797 48 46 44
-0.148438 -0.476562 -0.033241 47 45 42
-0.144531 -0.476562 -0.036234 39 37 35
-0.140625 -0.476562 -0.038914 34 33 31
-0.136719 -0.476562 -0.040528 39 37 34
-0.132812 -0.476562 -0.040811 43 42 40
-0.128906 -0.476562 -0.041347 43 43 41
-0.125000 -0.476562 -0.041529 41 41 40
-0.121094 -0.476562 -0.040877 40 39 38
-0.117188 -0.476562 -0.039266 39 37 37
-0.113281 -0.476562 -0.037503 40 39 37
-0.109375 -0.476562 -0.035398 41 40 39
-0.105469 -0.476562 -0.031730 43 41 40
-0.101562 -0.476562 -0.027254 43 41 41
-0.097656 -0.476562 -0.022652 40 39 40
-0.093750 -0.476562 -0.016527 45 44 44
-0.089844 -0.476562 -0.009899 45 43 41
-0.085938 -0.476562 0.004252 46 41 40
-0.082031 -0.476562 0.008905 40 37 39
-0.023438 -0.476562 -0.100302 30 29 30
-0.019531 -0.476562 -0.104342 44 41 36
-0.015625 -0.476562 -0.107737 44 40 37
-0.011719 -0.476562 -0.109705 47 46 45
-0.007812 -0.476562 -0.111127 40 37 37
-0.003906 -0.476562 -0.112859 34 30 30
0.000000 -0.476562 -0.114934 37 32 32
0.003906 -0.476562 -0.116299 41 37 36
0.007812 -0.476562 -0.116761 43 40 40
0.011719 -0.476562 -0.117172 44 43 44
0.015625 -0.476562 -0.117205 45 43 44
0.019531 -0.476562 -0.116486 45 42 43
0.023438 -0.476562 -0.114650 43 40 42
0.027344 -0.476562 -0.113047 44 41 42
0.031250 -0.476562 -0.110969 44 41 42
0.035156 -0.476562 -0.108327 44 41 43
0.039062 -0.476562 -0.104294 44 41 43
0.042969 -0.476562 -0.100359 43 40 42
0.046875 -0.476562 -0.095936 44 41 41
0.050781 -0.476562 -0.090579 51 49 47
0.054688 -0.476562 -0.067147 65 63 61
-0.164062 -0.480469 -0.015263 33 30 30
-0.160156 -0.480469 -0.023156 39 36 34
-0.156250 -0.480469 -0.027485 46 43 41
-0.152344 -0.480469 -0.031397 47 44 43
-0.148438 -0.480469 -0.034702 47 45 43
-0.144531 -0.480469 -0.037735 43 42 39
-0.140625 -0.480469 -0.040555 36 35 34
-0.136719 -0.480469 -0.042226 36 35 33
-0.132812 -0.480469 -0.042562 40 40 38
-0.128906 -0.480469 -0.043160 41 41 40
-0.125000 -0.480469 -0.043349 39 38 37
-0.121094 -0.480469 -0.042663 36 35 35
-0.117188 -0.480469 -0.040964 37 36 35
-0.113281 -0.480469 -0.038969 41 40 38
-0.109375 -0.480469 -0.036622 43 42 40
-0.105469 -0.480469 -0.032833 42 41 40
-0.101562 -0.480469 -0.028316 43 42 41
-0.097656 -0.480469 -0.023536 42 41 41
-0.093750 -0.480469 -0.017470 47 46 45
-0.089844 -0.480469 -0.009711 50 49 46
-0.085938 -0.480469 0.008891 50 47 46
-0.023438 -0.480469 -0.099330 30 28 29
-0.019531 -0.480469 -0.104041 43 39 33
-0.015625 -0.480469 -0.107181 43 39 36
-0.011719 -0.480469 -0.109187 51 49 49
-0.007812 -0.480469 -0.110724 47 44 44
-0.003906 -0.480469 -0.112540 36 33 32
0.000000 -0.480469 -0.114713 35 31 31
0.003906 -0.480469 -0.116183 40 35 35
0.007812 -0.480469 -0.116759 43 40 39
0.011719 -0.480469 -0.117286 45 43 44
0.015625 -0.480469 -0.117407 45 43 44
0.019531 -0.480469 -0.116740 43 41 41
0.023438 -0.480469 -0.114970 42 40 41
0.027344 -0.480469 -0.113394 43 39 40
0.031250 -0.480469 -0.111360 44 41 42
0.035156 -0.480469 -0.108704 46 43 45
0.039062 -0.480469 -0.104676 46 43 45
0.042969 -0.480469 -0.100740 45 42 44
0.046875 -0.480469 -0.096558 44 42 43
0.050781 -0.480469 -0.090198 54 54 52
0.054688 -0.480469 -0.074463 59 57 53
-0.164062 -0.484375 -0.017284 33 30 30
-0.160156 -0.484375 -0.024624 34 31 30
-0.156250 -0.484375 -0.028978 40 37 36
-0.152344 -0.484375 -0.033034 40 38 37
-0.148438 -0.484375 -0.036284 44 43 41
-0.144531 -0.484375 -0.039404 46 46 44
-0.140625 -0.484375 -0.042285 40 40 38
-0.136719 -0.484375 -0.043989 36 36 35
-0.132812 -0.484375 -0.044389 38 37 36
-0.128906 -0.484375 -0.045045 40 39 38
-0.125000 -0.484375 -0.045298 38 37 36
-0.121094 -0.484375 -0.044590 37 36 35
-0.117188 -0.484375 -0.042750 39 38 37
-0.113281 -0.484375 -0.040556 44 43 41
-0.109375 -0.484375 -0.038030 44 42 41
-0.105469 -0.484375 -0.034211 41 40 39
-0.101562 -0.484375 -0.029700 44 43 42
-0.097656 -0.484375 -0.024778 46 45 45
-0.093750 -0.484375 -0.018614 47 46 45
-0.089844 -0.484375 -0.008492 47 48 46
-0.085938 -0.484375 0.011915 47 46 49
-0.023438 -0.484375 -0.099186 27 27 28
-0.019531 -0.484375 -0.103427 34 30 25
-0.015625 -0.484375 -0.106521 38 34 32
-0.011719 -0.484375 -0.108665 49 48 48
-0.007812 -0.484375 -0.110227 51 49 48
-0.003906 -0.484375 -0.112136 39 36 36
0.000000 -0.484375 -0.114421 35 31 31
0.003906 -0.484375 -0.116006 39 35 34
0.007812 -0.484375 -0.116684 43 39 39
0.011719 -0.484375 -0.117319 44 43 43
0.015625 -0.484375 -0.117553 43 41 42
0.019531 -0.484375 -0.116984 40 38 39
0.023438 -0.484375 -0.115286 41 38 39
0.027344 -0.484375 -0.113728 41 38 39
0.031250 -0.484375 -0.111744 44 41 42
0.035156 -0.484375 -0.109077 50 48 48
0.039062 -0.484375 -0.105009 52 50 51
0.042969 -0.484375 -0.101004 51 49 50
0.046875 -0.484375 -0.096963 49 48 48
0.050781 -0.484375 -0.090013 58 58 56
0.054688 -0.484375 -0.080580 50 48 45
-0.164062 -0.488281 -0.019450 36 33 32
-0.160156 -0.488281 -0.026095 33 30 30
-0.156250 -0.488281 -0.030616 38 35 35
-0.152344 -0.488281 -0.034894 37 35 35
-0.148438 -0.488281 -0.038019 40 39 38
-0.144531 -0.488281 -0.041194 47 46 44
-0.140625 -0.488281 -0.044165 46 45 43
-0.136719 -0.488281 -0.045908 42 41 40
-0.132812 -0.488281 -0.046373 39 38 37
-0.128906 -0.488281 -0.047098 38 38 37
-0.125000 -0.488281 -0.047424 37 37 36
-0.121094 -0.488281 -0.046683 38 37 37
-0.117188 -0.488281 -0.044686 41 41 40
-0.113281 -0.488281 -0.042321 45 44 42
-0.109375 -0.488281 -0.039646 45 44 42
-0.105469 -0.488281 -0.035908 43 42 41
-0.101562 -0.488281 -0.031287 47 46 45
-0.097656 -0.488281 -0.026342 51 50 49
-0.093750 -0.488281 -0.020103 50 49 47
-0.089844 -0.488281 -0.008528 51 52 51
-0.085938 -0.488281 0.009796 46 41 40
-0.023438 -0.488281 -0.098787 30 29 30
-0.019531 -0.488281 -0.102884 31 26 22
-0.015625 -0.488281 -0.105765 37 33 30
-0.011719 -0.488281 -0.107952 50 48 48
-0.007812 -0.488281 -0.109610 55 54 53
-0.003906 -0.488281 -0.111630 44 42 42
0.000000 -0.488281 -0.114028 36 33 33
0.003906 -0.488281 -0.115709 38 33 33
0.007812 -0.488281 -0.116517 41 38 37
0.011719 -0.488281 -0.117299 45 43 44
0.015625 -0.488281 -0.117656 45 43 43
0.019531 -0.488281 -0.117177 42 40 40
0.023438 -0.488281 -0.115553 41 38 39
0.027344 -0.488281 -0.114023 39 36 37
0.031250 -0.488281 -0.112076 41 38 39
0.035156 -0.488281 -0.109397 47 44 45
0.039062 -0.488281 -0.105285 51 49 49
0.042969 -0.488281 -0.101256 52 51 50
0.046875 -0.488281 -0.097446 51 50 50
0.050781 -0.488281 -0.089770 59 59 56
0.054688 -0.488281 -0.082068 65 63 61
-0.164062 -0.492188 -0.021305 39 35 35
-0.160156 -0.492188 -0.027896 37 33 32
-0.156250 -0.492188 -0.032430 44 40 39
-0.152344 -0.492188 -0.036790 37 36 36
-0.148438 -0.492188 -0.039848 33 32 32
-0.144531 -0.492188 -0.043064 37 36 34
-0.140625 -0.492188 -0.046111 41 39 37
-0.136719 -0.492188 -0.047893 41 39 38
-0.132812 -0.492188 -0.048435 38 37 36
-0.128906 -0.492188 -0.049235 37 37 36
-0.125000 -0.492188 -0.049615 38 38 37
-0.121094 -0.492188 -0.048850 41 40 39
-0.117188 -0.492188 -0.046751 43 42 41
-0.113281 -0.492188 -0.044245 44 43 41
-0.109375 -0.492188 -0.041414 44 43 42
-0.105469 -0.492188 -0.037639 43 42 41
-0.101562 -0.492188 -0.032888 45 44 44
-0.097656 -0.492188 -0.028098 47 45 44
-0.093750 -0.492188 -0.021200 49 47 45
-0.089844 -0.492188 -0.002511 45 44 48
-0.023438 -0.492188 -0.098411 48 47 47
-0.019531 -0.492188 -0.101999 28 22 19
-0.015625 -0.492188 -0.104886 37 32 29
-0.011719 -0.492188 -0.107152 48 47 47
-0.007812 -0.492188 -0.108838 58 57 56
-0.003906 -0.492188 -0.110927 50 48 48
0.000000 -0.492188 -0.113477 39 36 37
0.003906 -0.492188 -0.115286 36 32 32
0.007812 -0.492188 -0.116218 38 35 35
0.011719 -0.492188 -0.117148 44 42 42
0.015625 -0.492188 -0.117652 46 44 45
0.019531 -0.492188 -0.117259 43 42 42
0.023438 -0.492188 -0.115744 41 39 39
0.027344 -0.492188 -0.114309 38 36 36
0.031250 -0.492188 -0.112423 39 37 37
0.035156 -0.492188 -0.109730 41 40 40
0.039062 -0.492188 -0.105527 45 43 43
0.042969 -0.492188 -0.101458 49 47 46
0.046875 -0.492188 -0.097653 51 51 49
0.050781 -0.492188 -0.091113 56 56 52
0.054688 -0.492188 -0.080538 59 57 53
-0.164062 -0.496094 -0.023185 39 35 35
-0.160156 -0.496094 -0.029636 37 33 32
-0.156250 -0.496094 -0.034114 46 42 40
-0.152344 -0.496094 -0.038606 42 41 40
-0.148438 -0.496094 -0.041716 34 34 33
-0.144531 -0.496094 -0.045013 33 31 30
-0.140625 -0.496094 -0.048092 34 32 30
-0.136719 -0.496094 -0.049903 35 33 32
-0.132812 -0.496094 -0.050527 36 34 33
-0.128906 -0.496094 -0.051412 38 37 35
-0.125000 -0.496094 -0.051855 40 39 38
-0.121094 -0.496094 -0.051050 41 40 39
-0.117188 -0.496094 -0.048835 40 40 39
-0.113281 -0.496094 -0.046194 42 41 40
-0.109375 -0.496094 -0.043250 45 44 42
-0.105469 -0.496094 -0.039540 44 42 42
-0.101562 -0.496094 -0.034586 43 41 42
-0.097656 -0.496094 -0.030001 41 39 38
-0.093750 -0.496094 -0.021286 47 44 43
-0.089844 -0.496094 0.005799 34 32 39
-0.023438 -0.496094 -0.097892 44 43 43
-0.019531 -0.496094 -0.101158 24 19 18
-0.015625 -0.496094 -0.103959 36 30 28
-0.011719 -0.496094 -0.106279 44 43 43
-0.007812 -0.496094 -0.108090 54 54 53
-0.003906 -0.496094 -0.110227 51 50 49
0.000000 -0.496094 -0.112892 39 37 38
0.003906 -0.496094 -0.114831 35 31 32
0.007812 -0.496094 -0.115861 36 33 34
0.011719 -0.496094 -0.116881 45 42 42
0.015625 -0.496094 -0.117527 48 45 46
0.019531 -0.496094 -0.117279 45 43 44
0.023438 -0.496094 -0.115883 44 41 41
0.027344 -0.496094 -0.114541 41 39 39
0.031250 -0.496094 -0.112730 42 39 39
0.035156 -0.496094 -0.110033 41 40 40
0.039062 -0.496094 -0.105733 41 40 40
0.042969 -0.496094 -0.101624 44 41 42
0.046875 -0.496094 -0.097482 50 48 47
0.050781 -0.496094 -0.092358 54 51 48
0.054688 -0.496094 -0.082422 50 48 45
-0.164062 -0.500000 -0.024838 37 33 33
-0.160156 -0.500000 -0.031478 34 30 30
-0.156250 -0.500000 -0.035708 41 38 37
-0.152344 -0.500000 -0.040358 46 44 44
-0.148438 -0.500000 -0.043546 43 41 40
-0.144531 -0.500000 -0.046949 37 35 33
-0.140625 -0.500000 -0.050058 32 30 29
-0.136719 -0.500000 -0.051876 32 29 27
-0.132812 -0.500000 -0.052609 33 31 30
-0.128906 -0.500000 -0.053596 39 37 35
-0.125000 -0.500000 -0.054068 41 40 39
-0.121094 -0.500000 -0.053257 39 39 38
-0.117188 -0.500000 -0.050954 38 38 37
-0.113281 -0.500000 -0.048157 42 41 40
-0.109375 -0.500000 -0.045115 47 46 45
-0.105469 -0.500000 -0.041452 47 45 44
-0.101562 -0.500000 -0.036184 45 44 44
-0.097656 -0.500000 -0.031670 40 37 38
-0.093750 -0.500000 -0.021978 51 47 46
-0.089844 -0.500000 0.005507 37 34 40
-0.023438 -0.500000 -0.097113 42 40 41
-0.019531 -0.500000 -0.100324 29 24 22
-0.015625 -0.500000 -0.102965 37 31 29
-0.011719 -0.500000 -0.105330 42 40 41
-0.007812 -0.500000 -0.107280 51 50 50
-0.003906 -0.500000 -0.109458 53 51 51
0.000000 -0.500000 -0.112236 43 41 42
0.003906 -0.500000 -0.114294 36 33 34
0.007812 -0.500000 -0.115449 35 32 33
0.011719 -0.500000 -0.116593 42 39 39
0.015625 -0.500000 -0.117350 44 41 41
0.019531 -0.500000 -0.117231 39 37 38
0.023438 -0.500000 -0.115956 39 37 38
0.027344 -0.500000 -0.114685 41 38 38
0.031250 -0.500000 -0.112959 44 41 41
0.035156 -0.500000 -0.110299 44 42 42
0.039062 -0.500000 -0.105932 42 39 40
0.042969 -0.500000 -0.101771 39 37 38
0.046875 -0.500000 -0.097218 43 41 41
0.050781 -0.500000 -0.092337 47 45 43
0.054688 -0.500000 -0.084268 51 50 47
-0.164062 -0.503906 -0.026243 38 34 33
-0.160156 -0.503906 -0.033506 33 29 29
-0.156250 -0.503906 -0.037305 37 34 34
-0.152344 -0.503906 -0.042043 46 44 43
-0.148438 -0.503906 -0.045304 47 47 45
-0.144531 -0.503906 -0.048858 43 42 40
-0.140625 -0.503906 -0.051967 36 34 33
-0.136719 -0.503906 -0.053794 31 29 27
-0.132812 -0.503906 -0.054638 31 29 28
-0.128906 -0.503906 -0.055706 38 36 33
-0.125000 -0.503906 -0.056198 42 40 38
-0.121094 -0.503906 -0.055333 39 39 38
-0.117188 -0.503906 -0.052943 39 38 38
-0.113281 -0.503906 -0.050081 44 43 41
-0.109375 -0.503906 -0.046961 47 46 44
-0.105469 -0.503906 -0.043216 46 45 44
-0.101562 -0.503906 -0.037980 46 45 45
-0.097656 -0.503906 -0.033102 38 37 37
-0.093750 -0.503906 -0.023688 49 47 45
-0.089844 -0.503906 0.003641 33 32 38
-0.023438 -0.503906 -0.095969 38 36 37
-0.019531 -0.503906 -0.099343 33 28 25
-0.015625 -0.503906 -0.101994 34 29 28
-0.011719 -0.503906 -0.104437 38 36 37
-0.007812 -0.503906 -0.106485 47 46 46
-0.003906 -0.503906 -0.108668 55 53 53
0.000000 -0.503906 -0.111566 47 44 45
0.003906 -0.503906 -0.113777 37 34 36
0.007812 -0.503906 -0.115050 34 31 33
0.011719 -0.503906 -0.116318 43 39 39
0.015625 -0.503906 -0.117178 46 43 43
0.019531 -0.503906 -0.117158 39 37 39
0.023438 -0.503906 -0.116006 37 35 37
0.027344 -0.503906 -0.114818 39 36 38
0.031250 -0.503906 -0.113154 43 40 41
0.035156 -0.503906 -0.110560 45 42 43
0.039062 -0.503906 -0.106160 43 41 42
0.042969 -0.503906 -0.101934 40 38 39
0.046875 -0.503906 -0.097164 42 40 41
0.050781 -0.503906 -0.092170 44 42 41
0.054688 -0.503906 -0.085045 49 49 46
-0.164062 -0.507812 -0.027915 38 34 34
-0.160156 -0.507812 -0.035385 34 30 29
-0.156250 -0.507812 -0.038763 37 34 33
-0.152344 -0.507812 -0.043703 48 46 45
-0.148438 -0.507812 -0.046968 53 53 50
-0.144531 -0.507812 -0.050547 53 52 49
-0.140625 -0.507812 -0.053710 46 44 42
-0.136719 -0.507812 -0.055621 36 33 32
-0.132812 -0.507812 -0.056575 31 29 28
-0.128906 -0.507812 -0.057709 34 31 30
-0.125000 -0.507812 -0.058249 37 36 34
-0.121094 -0.507812 -0.057331 38 37 36
-0.117188 -0.507812 -0.054889 39 39 38
-0.113281 -0.507812 -0.051957 43 42 40
-0.109375 -0.507812 -0.048719 44 43 41
-0.105469 -0.507812 -0.044882 45 44 43
-0.101562 -0.507812 -0.039763 47 45 46
-0.097656 -0.507812 -0.034570 37 36 36
-0.093750 -0.507812 -0.025357 49 47 44
-0.089844 -0.507812 0.002975 39 40 43
-0.023438 -0.507812 -0.094595 36 33 35
-0.019531 -0.507812 -0.098485 33 28 25
-0.015625 -0.507812 -0.101140 34 29 28
-0.011719 -0.507812 -0.103562 36 33 35
-0.007812 -0.507812 -0.105705 41 39 40
-0.003906 -0.507812 -0.107989 53 49 49
0.000000 -0.507812 -0.110948 48 45 46
0.003906 -0.507812 -0.113229 39 37 38
0.007812 -0.507812 -0.114621 35 33 34
0.011719 -0.507812 -0.116000 43 39 39
0.015625 -0.507812 -0.116952 53 50 49
0.019531 -0.507812 -0.117056 50 49 49
0.023438 -0.507812 -0.116024 44 43 44
0.027344 -0.507812 -0.114896 41 39 40
0.031250 -0.507812 -0.113260 40 37 39
0.035156 -0.507812 -0.110701 41 39 40
0.039062 -0.507812 -0.106330 43 41 43
0.042969 -0.507812 -0.102142 45 44 45
0.046875 -0.507812 -0.097357 50 48 48
0.050781 -0.507812 -0.092310 50 48 47
0.054688 -0.507812 -0.084723 53 53 50
-0.164062 -0.511719 -0.029489 38 35 35
-0.160156 -0.511719 -0.037204 34 30 29
-0.156250 -0.511719 -0.040232 35 32 31
-0.152344 -0.511719 -0.045275 43 41 40
-0.148438 -0.511719 -0.048482 50 49 48
-0.144531 -0.511719 -0.051979 52 52 50
-0.140625 -0.511719 -0.055224 48 48 46
-0.136719 -0.511719 -0.057204 41 40 39
-0.132812 -0.511719 -0.058240 35 33 32
-0.128906 -0.511719 -0.059419 33 30 29
-0.125000 -0.511719 -0.059998 35 33 31
-0.121094 -0.511719 -0.059132 38 37 36
-0.117188 -0.511719 -0.056716 42 41 40
-0.113281 -0.511719 -0.053700 43 42 40
-0.109375 -0.511719 -0.050367 43 42 41
-0.105469 -0.511719 -0.046413 46 45 45
-0.101562 -0.511719 -0.041202 48 46 46
-0.097656 -0.511719 -0.035909 36 35 35
-0.093750 -0.511719 -0.027220 46 42 41
-0.089844 -0.511719 0.002238 43 42 46
-0.023438 -0.511719 -0.093751 38 35 36
-0.019531 -0.511719 -0.097330 35 30 27
-0.015625 -0.511719 -0.100273 37 32 30
-0.011719 -0.511719 -0.102831 38 35 36
-0.007812 -0.511719 -0.104904 37 36 37
-0.003906 -0.511719 -0.107316 47 44 44
0.000000 -0.511719 -0.110420 50 47 47
0.003906 -0.511719 -0.112743 45 43 43
0.007812 -0.511719 -0.114206 37 34 36
0.011719 -0.511719 -0.115681 37 33 34
0.015625 -0.511719 -0.116716 47 44 44
0.019531 -0.511719 -0.116930 53 52 52
0.023438 -0.511719 -0.116011 49 48 49
0.027344 -0.511719 -0.114962 43 41 43
0.031250 -0.511719 -0.113378 39 38 39
0.035156 -0.511719 -0.110838 41 39 41
0.039062 -0.511719 -0.106490 46 45 46
0.042969 -0.511719 -0.102343 49 48 48
0.046875 -0.511719 -0.097495 51 49 49
0.050781 -0.511719 -0.092599 49 48 46
0.054688 -0.511719 -0.084326 54 54 50
-0.164062 -0.515625 -0.031350 42 39 39
-0.160156 -0.515625 -0.038932 35 31 31
-0.156250 -0.515625 -0.041913 33 30 30
-0.152344 -0.515625 -0.046901 37 34 34
-0.148438 -0.515625 -0.049980 44 43 42
-0.144531 -0.515625 -0.053439 49 49 48
-0.140625 -0.515625 -0.056685 48 49 48
-0.136719 -0.515625 -0.058688 48 47 46
-0.132812 -0.515625 -0.059740 41 40 38
-0.128906 -0.515625 -0.060918 35 33 31
-0.125000 -0.515625 -0.061461 35 33 32
-0.121094 -0.515625 -0.060610 40 38 36
-0.117188 -0.515625 -0.058230 43 41 40
-0.113281 -0.515625 -0.055259 42 41 39
-0.109375 -0.515625 -0.051837 41 41 39
-0.105469 -0.515625 -0.047843 45 44 42
-0.101562 -0.515625 -0.042692 46 44 44
-0.097656 -0.515625 -0.037207 36 35 35
-0.093750 -0.515625 -0.028644 40 38 38
-0.089844 -0.515625 0.002303 33 32 38
-0.023438 -0.515625 -0.092916 40 37 37
-0.019531 -0.515625 -0.096401 36 31 28
-0.015625 -0.515625 -0.099369 37 32 31
-0.011719 -0.515625 -0.102075 40 37 37
-0.007812 -0.515625 -0.104191 38 37 37
-0.003906 -0.515625 -0.106656 44 41 41
0.000000 -0.515625 -0.109893 51 48 47
0.003906 -0.515625 -0.112330 52 50 49
0.007812 -0.515625 -0.113867 42 39 40
0.011719 -0.515625 -0.115405 35 32 34
0.015625 -0.515625 -0.116512 41 39 40
0.019531 -0.515625 -0.116789 52 50 50
0.023438 -0.515625 -0.115945 53 52 52
0.027344 -0.515625 -0.114989 48 47 48
0.031250 -0.515625 -0.113464 45 44 45
0.035156 -0.515625 -0.110950 47 46 47
0.039062 -0.515625 -0.106648 52 50 50
0.042969 -0.515625 -0.102550 50 49 49
0.046875 -0.515625 -0.097707 47 45 45
0.050781 -0.515625 -0.092758 46 45 43
0.054688 -0.515625 -0.084732 55 53 49
-0.164062 -0.519531 -0.033252 45 43 43
-0.160156 -0.519531 -0.040300 40 37 36
-0.156250 -0.519531 -0.043475 35 32 32
-0.152344 -0.519531 -0.048448 34 31 31
-0.148438 -0.519531 -0.051322 41 39 38
-0.144531 -0.519531 -0.054641 51 49 48
-0.140625 -0.519531 -0.057867 51 51 49
-0.136719 -0.519531 -0.059869 51 50 49
-0.132812 -0.519531 -0.060963 46 44 42
-0.128906 -0.519531 -0.062171 40 38 36
-0.125000 -0.519531 -0.062687 39 37 36
-0.121094 -0.519531 -0.061911 39 38 37
-0.117188 -0.519531 -0.059654 41 41 39
-0.113281 -0.519531 -0.056766 42 42 40
-0.109375 -0.519531 -0.053310 43 42 41
-0.105469 -0.519531 -0.049354 43 42 41
-0.101562 -0.519531 -0.044236 44 42 42
-0.097656 -0.519531 -0.038451 37 35 36
-0.093750 -0.519531 -0.029788 40 39 39
-0.089844 -0.519531 0.002155 39 40 43
-0.023438 -0.519531 -0.092108 41 38 38
-0.019531 -0.519531 -0.095580 40 35 32
-0.015625 -0.519531 -0.098417 37 33 31
-0.011719 -0.519531 -0.101268 41 38 38
-0.007812 -0.519531 -0.103490 42 40 39
-0.003906 -0.519531 -0.106055 41 39 38
0.000000 -0.519531 -0.109380 48 45 44
0.003906 -0.519531 -0.111884 56 53 52
0.007812 -0.519531 -0.113515 50 47 46
0.011719 -0.519531 -0.115161 39 37 38
0.015625 -0.519531 -0.116322 39 37 38
0.019531 -0.519531 -0.116614 48 45 46
0.023438 -0.519531 -0.115817 53 51 51
0.027344 -0.519531 -0.114930 52 51 51
0.031250 -0.519531 -0.113482 51 50 50
0.035156 -0.519531 -0.111032 53 52 51
0.039062 -0.519531 -0.106799 55 53 53
0.042969 -0.519531 -0.102763 48 47 47
0.046875 -0.519531 -0.097991 44 42 43
0.050781 -0.519531 -0.092973 49 47 45
0.054688 -0.519531 -0.085110 60 58 52
-0.164062 -0.523438 -0.034581 44 42 44
-0.160156 -0.523438 -0.041689 46 42 41
-0.156250 -0.523438 -0.045074 42 39 38
-0.152344 -0.523438 -0.049860 33 31 31
-0.148438 -0.523438 -0.052642 36 34 33
-0.144531 -0.523438 -0.055874 47 45 44
-0.140625 -0.523438 -0.059063 50 49 47
-0.136719 -0.523438 -0.061043 49 49 47
-0.132812 -0.523438 -0.062157 47 46 44
-0.128906 -0.523438 -0.063337 45 43 41
-0.125000 -0.523438 -0.063812 44 43 41
-0.121094 -0.523438 -0.063151 43 42 41
-0.117188 -0.523438 -0.061010 44 44 42
-0.113281 -0.523438 -0.058150 46 45 43
-0.109375 -0.523438 -0.054706 47 45 44
-0.105469 -0.523438 -0.050821 44 43 42
-0.101562 -0.523438 -0.045714 44 42 42
-0.097656 -0.523438 -0.039770 37 35 36
-0.093750 -0.523438 -0.030940 40 39 40
-0.089844 -0.523438 0.002498 43 42 46
-0.023438 -0.523438 -0.091678 41 38 38
-0.019531 -0.523438 -0.094616 44 39 35
-0.015625 -0.523438 -0.097485 39 34 33
-0.011719 -0.523438 -0.100528 41 38 38
-0.007812 -0.523438 -0.102801 44 41 41
-0.003906 -0.523438 -0.105479 38 36 36
0.000000 -0.523438 -0.108975 42 40 39
0.003906 -0.523438 -0.111535 53 50 48
0.007812 -0.523438 -0.113215 52 49 48
0.011719 -0.523438 -0.114939 44 42 42
0.015625 -0.523438 -0.116176 38 37 37
0.019531 -0.523438 -0.116513 40 38 39
0.023438 -0.523438 -0.115764 46 45 45
0.027344 -0.523438 -0.114912 51 49 49
0.031250 -0.523438 -0.113516 52 51 50
0.035156 -0.523438 -0.111118 54 52 51
0.039062 -0.523438 -0.106945 54 51 51
0.042969 -0.523438 -0.102981 44 42 43
0.046875 -0.523438 -0.098299 42 41 41
0.050781 -0.523438 -0.093179 53 51 49
0.054688 -0.523438 -0.085376 63 60 55
-0.164062 -0.527344 -0.035731 39 38 40
