ply
    format ascii 1.0
    element vertex 85282
    property float x
    property float y
    property float z
    property uchar red
    property uchar green
    property uchar blue
    end_header
-0.078125 -0.503906 -0.017861 9 5 5
-0.074219 -0.503906 -0.043386 127 97 81
-0.070312 -0.503906 -0.030030 164 126 103
-0.066406 -0.503906 -0.020796 179 132 103
-0.062500 -0.503906 -0.014239 191 142 110
-0.058594 -0.503906 -0.009850 197 151 118
-0.054688 -0.503906 -0.007268 199 155 121
-0.050781 -0.503906 -0.005062 200 156 121
-0.046875 -0.503906 -0.002643 200 155 120
-0.042969 -0.503906 -0.000846 199 154 119
-0.039062 -0.503906 0.000182 196 149 116
-0.035156 -0.503906 0.000875 191 143 111
-0.031250 -0.503906 0.001499 185 137 106
-0.027344 -0.503906 0.001368 176 128 98
-0.023438 -0.503906 0.000476 170 123 93
-0.019531 -0.503906 -0.000625 166 119 90
-0.015625 -0.503906 -0.001749 162 115 87
-0.011719 -0.503906 -0.003373 155 110 83
-0.007812 -0.503906 -0.005723 146 103 78
-0.003906 -0.503906 -0.008309 135 95 71
0.000000 -0.503906 -0.010973 125 88 64
0.003906 -0.503906 -0.014314 119 84 60
0.007812 -0.503906 -0.018492 115 81 59
0.011719 -0.503906 -0.023073 114 81 59
0.015625 -0.503906 -0.027865 112 80 59
0.019531 -0.503906 -0.032854 110 78 58
0.023438 -0.503906 -0.039125 109 79 59
0.027344 -0.503906 -0.045711 120 94 70
0.230469 -0.503906 0.024636 209 186 159
0.234375 -0.503906 0.032409 194 142 112
0.238281 -0.503906 0.039474 225 184 150
0.242188 -0.503906 0.045406 227 183 150
0.246094 -0.503906 0.049792 232 193 161
0.250000 -0.503906 0.053490 232 192 163
0.253906 -0.503906 0.056404 234 196 169
0.257812 -0.503906 0.058750 235 198 170
0.261719 -0.503906 0.060991 236 197 170
0.265625 -0.503906 0.063125 236 197 170
0.269531 -0.503906 0.064868 235 194 166
0.273438 -0.503906 0.066061 235 192 163
0.277344 -0.503906 0.067080 234 190 161
0.281250 -0.503906 0.068105 233 187 158
0.285156 -0.503906 0.068890 230 182 153
0.289062 -0.503906 0.069492 228 178 148
0.292969 -0.503906 0.070031 225 175 144
0.296875 -0.503906 0.070553 222 174 142
0.300781 -0.503906 0.070881 219 172 140
0.304688 -0.503906 0.070999 216 168 136
0.308594 -0.503906 0.071026 213 166 135
0.312500 -0.503906 0.070811 212 163 133
0.316406 -0.503906 0.070356 209 160 131
0.320312 -0.503906 0.069514 207 160 132
0.324219 -0.503906 0.068532 202 156 125
0.328125 -0.503906 0.067297 197 150 117
0.332031 -0.503906 0.065086 195 149 116
0.335938 -0.503906 0.061663 187 141 109
0.339844 -0.503906 0.057029 181 133 103
0.343750 -0.503906 0.051315 172 121 94
0.347656 -0.503906 0.045133 153 104 79
0.351562 -0.503906 0.036282 147 100 77
0.355469 -0.503906 0.026418 121 87 70
0.359375 -0.503906 0.015530 125 103 85
0.363281 -0.503906 -0.000002 41 32 40
-0.078125 -0.507812 -0.019777 9 5 5
-0.074219 -0.507812 -0.043810 128 98 83
-0.070312 -0.507812 -0.031025 165 128 105
-0.066406 -0.507812 -0.021786 179 134 104
-0.062500 -0.507812 -0.015287 190 142 110
-0.058594 -0.507812 -0.010926 196 151 118
-0.054688 -0.507812 -0.008282 199 155 121
-0.050781 -0.507812 -0.006051 201 157 121
-0.046875 -0.507812 -0.003617 201 156 121
-0.042969 -0.507812 -0.001791 200 155 120
-0.039062 -0.507812 -0.000758 197 151 117
-0.035156 -0.507812 -0.000070 192 144 112
-0.031250 -0.507812 0.000568 185 137 106
-0.027344 -0.507812 0.000476 178 130 99
-0.023438 -0.507812 -0.000361 172 125 95
-0.019531 -0.507812 -0.001415 166 120 91
-0.015625 -0.507812 -0.002489 162 116 88
-0.011719 -0.507812 -0.004049 154 110 84
-0.007812 -0.507812 -0.006321 145 103 78
-0.003906 -0.507812 -0.008814 136 96 72
0.000000 -0.507812 -0.011385 126 89 65
0.003906 -0.507812 -0.014589 118 82 59
0.007812 -0.507812 -0.018608 114 80 57
0.011719 -0.507812 -0.022963 115 82 59
0.015625 -0.507812 -0.027477 116 83 60
0.019531 -0.507812 -0.032339 113 80 58
0.023438 -0.507812 -0.038642 114 81 59
0.027344 -0.507812 -0.045413 120 90 66
0.230469 -0.507812 0.018314 183 159 137
0.234375 -0.507812 0.028423 196 149 122
0.238281 -0.507812 0.036076 220 178 144
0.242188 -0.507812 0.043047 223 175 143
0.246094 -0.507812 0.047752 230 188 156
0.250000 -0.507812 0.051492 231 190 161
0.253906 -0.507812 0.054464 233 195 167
0.257812 -0.507812 0.056906 234 196 168
0.261719 -0.507812 0.059169 236 197 170
0.265625 -0.507812 0.061329 236 198 170
0.269531 -0.507812 0.063137 235 194 166
0.273438 -0.507812 0.064399 235 192 164
0.277344 -0.507812 0.065482 234 190 161
0.281250 -0.507812 0.066565 233 187 158
0.285156 -0.507812 0.067426 230 182 153
0.289062 -0.507812 0.068137 228 178 148
0.292969 -0.507812 0.068804 225 175 144
0.296875 -0.507812 0.069471 223 175 143
0.300781 -0.507812 0.069935 220 173 140
0.304688 -0.507812 0.070175 216 169 136
0.308594 -0.507812 0.070325 215 167 135
0.312500 -0.507812 0.070229 213 164 134
0.316406 -0.507812 0.069864 210 162 132
0.320312 -0.507812 0.069088 208 162 133
0.324219 -0.507812 0.068157 203 157 125
0.328125 -0.507812 0.066903 199 152 119
0.332031 -0.507812 0.064756 198 152 118
0.335938 -0.507812 0.061473 190 143 111
0.339844 -0.507812 0.057231 183 134 104
0.343750 -0.507812 0.052152 176 125 98
0.347656 -0.507812 0.046614 159 110 85
0.351562 -0.507812 0.037727 151 105 83
0.355469 -0.507812 0.027669 132 96 76
0.359375 -0.507812 0.017616 137 110 86
0.363281 -0.507812 0.005019 92 70 71
-0.078125 -0.511719 -0.021231 9 5 5
-0.074219 -0.511719 -0.044954 129 100 84
-0.070312 -0.511719 -0.032250 163 126 104
-0.066406 -0.511719 -0.022988 176 131 103
-0.062500 -0.511719 -0.016537 188 141 109
-0.058594 -0.511719 -0.012112 196 151 118
-0.054688 -0.511719 -0.009425 199 154 120
-0.050781 -0.511719 -0.007128 201 157 121
-0.046875 -0.511719 -0.004645 201 156 120
-0.042969 -0.511719 -0.002776 199 154 119
-0.039062 -0.511719 -0.001734 196 150 116
-0.035156 -0.511719 -0.001048 192 144 111
-0.031250 -0.511719 -0.000395 185 137 105
-0.027344 -0.511719 -0.000447 179 131 100
-0.023438 -0.511719 -0.001228 173 126 95
-0.019531 -0.511719 -0.002236 166 120 90
-0.015625 -0.511719 -0.003244 162 117 88
-0.011719 -0.511719 -0.004713 154 110 83
-0.007812 -0.511719 -0.006880 144 102 77
-0.003906 -0.511719 -0.009265 137 97 72
0.000000 -0.511719 -0.011750 128 89 65
0.003906 -0.511719 -0.014845 118 82 59
0.007812 -0.511719 -0.018721 115 81 57
0.011719 -0.511719 -0.022901 117 83 59
0.015625 -0.511719 -0.027245 120 86 61
0.019531 -0.511719 -0.032152 117 83 59
0.023438 -0.511719 -0.038242 119 84 60
0.027344 -0.511719 -0.046114 115 82 60
0.031250 -0.511719 -0.054581 82 58 47
0.234375 -0.511719 0.024190 213 182 156
0.238281 -0.511719 0.032746 214 174 142
0.242188 -0.511719 0.040184 218 169 137
0.246094 -0.511719 0.045665 228 185 152
0.250000 -0.511719 0.049635 230 188 158
0.253906 -0.511719 0.052602 233 194 166
0.257812 -0.511719 0.055077 233 193 166
0.261719 -0.511719 0.057363 235 197 169
0.265625 -0.511719 0.059574 236 197 169
0.269531 -0.511719 0.061457 235 195 166
0.273438 -0.511719 0.062786 234 193 164
0.277344 -0.511719 0.063928 233 189 160
0.281250 -0.511719 0.065063 232 186 156
0.285156 -0.511719 0.065987 230 182 151
0.289062 -0.511719 0.066787 227 178 147
0.292969 -0.511719 0.067558 225 176 144
0.296875 -0.511719 0.068350 224 176 144
0.300781 -0.511719 0.068938 221 174 141
0.304688 -0.511719 0.069282 217 169 136
0.308594 -0.511719 0.069537 215 166 134
0.312500 -0.511719 0.069556 213 165 133
0.316406 -0.511719 0.069272 211 163 132
0.320312 -0.511719 0.068580 209 164 134
0.324219 -0.511719 0.067689 203 158 126
0.328125 -0.511719 0.066456 199 155 120
0.332031 -0.511719 0.064426 200 154 121
0.335938 -0.511719 0.061337 192 144 113
0.339844 -0.511719 0.057446 187 137 108
0.343750 -0.511719 0.053045 180 129 102
0.347656 -0.511719 0.047939 161 112 88
0.351562 -0.511719 0.039177 150 104 82
0.355469 -0.511719 0.028866 132 93 72
0.359375 -0.511719 0.018983 119 88 66
0.363281 -0.511719 0.008548 112 83 73
-0.078125 -0.515625 -0.017825 8 5 4
-0.074219 -0.515625 -0.047573 127 99 81
-0.070312 -0.515625 -0.034001 158 122 99
-0.066406 -0.515625 -0.024588 171 126 99
-0.062500 -0.515625 -0.018012 186 139 108
-0.058594 -0.515625 -0.013433 195 150 117
-0.054688 -0.515625 -0.010637 198 153 119
-0.050781 -0.515625 -0.008242 199 155 119
-0.046875 -0.515625 -0.005709 200 155 119
-0.042969 -0.515625 -0.003798 198 152 117
-0.039062 -0.515625 -0.002758 194 147 114
-0.035156 -0.515625 -0.002088 189 141 109
-0.031250 -0.515625 -0.001429 182 133 102
-0.027344 -0.515625 -0.001448 176 129 98
-0.023438 -0.515625 -0.002159 170 124 94
-0.019531 -0.515625 -0.003085 163 117 88
-0.015625 -0.515625 -0.004001 161 115 87
-0.011719 -0.515625 -0.005361 154 110 83
-0.007812 -0.515625 -0.007419 145 102 77
-0.003906 -0.515625 -0.009702 138 98 73
0.000000 -0.515625 -0.012099 128 90 65
0.003906 -0.515625 -0.015078 120 83 59
0.007812 -0.515625 -0.018839 117 82 57
0.011719 -0.515625 -0.022914 117 82 58
0.015625 -0.515625 -0.027085 121 85 60
0.019531 -0.515625 -0.032013 119 84 59
0.023438 -0.515625 -0.038098 118 83 59
0.027344 -0.515625 -0.046207 111 78 58
0.031250 -0.515625 -0.053796 111 86 67
0.234375 -0.515625 0.017312 221 206 184
0.238281 -0.515625 0.029167 203 163 131
0.242188 -0.515625 0.037255 210 159 127
0.246094 -0.515625 0.043471 228 186 154
0.250000 -0.515625 0.047687 230 187 159
0.253906 -0.515625 0.050739 232 192 165
0.257812 -0.515625 0.053292 232 191 164
0.261719 -0.515625 0.055606 235 195 168
0.265625 -0.515625 0.057876 235 196 168
0.269531 -0.515625 0.059833 235 195 166
0.273438 -0.515625 0.061225 235 194 165
0.277344 -0.515625 0.062440 233 190 160
0.281250 -0.515625 0.063635 231 185 155
0.285156 -0.515625 0.064627 229 182 151
0.289062 -0.515625 0.065514 227 179 148
0.292969 -0.515625 0.066370 225 176 144
0.296875 -0.515625 0.067257 224 176 143
0.300781 -0.515625 0.067948 222 175 141
0.304688 -0.515625 0.068380 218 170 136
0.308594 -0.515625 0.068712 215 167 134
0.312500 -0.515625 0.068825 214 165 133
0.316406 -0.515625 0.068607 211 163 132
0.320312 -0.515625 0.067995 210 165 135
0.324219 -0.515625 0.067150 204 160 127
0.328125 -0.515625 0.065957 201 158 122
0.332031 -0.515625 0.064045 200 155 122
0.335938 -0.515625 0.061182 192 144 115
0.339844 -0.515625 0.057678 189 140 112
0.343750 -0.515625 0.053863 184 135 107
0.347656 -0.515625 0.049044 166 117 92
0.351562 -0.515625 0.040387 150 104 81
0.355469 -0.515625 0.029875 137 96 74
0.359375 -0.515625 0.020162 125 92 68
0.363281 -0.515625 0.011336 125 92 73
0.367188 -0.515625 0.001300 123 100 88
-0.074219 -0.519531 -0.051628 123 95 78
-0.070312 -0.519531 -0.036086 155 119 96
-0.066406 -0.519531 -0.026362 169 124 96
-0.062500 -0.519531 -0.019520 184 136 106
-0.058594 -0.519531 -0.014791 193 148 115
-0.054688 -0.519531 -0.011851 196 151 117
-0.050781 -0.519531 -0.009364 198 153 118
-0.046875 -0.519531 -0.006780 199 154 118
-0.042969 -0.519531 -0.004838 197 151 116
-0.039062 -0.519531 -0.003815 193 146 112
-0.035156 -0.519531 -0.003180 187 138 107
-0.031250 -0.519531 -0.002528 178 129 99
-0.027344 -0.519531 -0.002515 173 125 95
-0.023438 -0.519531 -0.003141 169 123 93
-0.019531 -0.519531 -0.003954 162 117 88
-0.015625 -0.519531 -0.004761 160 115 86
-0.011719 -0.519531 -0.006005 155 111 83
-0.007812 -0.519531 -0.007950 147 104 78
-0.003906 -0.519531 -0.010137 139 99 73
0.000000 -0.519531 -0.012464 127 89 65
0.003906 -0.519531 -0.015356 121 84 60
0.007812 -0.519531 -0.019055 119 83 58
0.011719 -0.519531 -0.023085 117 82 57
0.015625 -0.519531 -0.027254 120 85 60
0.019531 -0.519531 -0.032292 120 84 59
0.023438 -0.519531 -0.038335 115 82 58
0.027344 -0.519531 -0.045836 102 73 54
0.031250 -0.519531 -0.055092 114 91 70
0.238281 -0.519531 0.024260 204 167 135
0.242188 -0.519531 0.033929 202 146 115
0.246094 -0.519531 0.040805 226 182 152
0.250000 -0.519531 0.045471 229 186 158
0.253906 -0.519531 0.048747 231 190 163
0.257812 -0.519531 0.051448 232 190 163
0.261719 -0.519531 0.053829 234 195 167
0.265625 -0.519531 0.056169 235 196 167
0.269531 -0.519531 0.058215 235 195 167
0.273438 -0.519531 0.059682 234 194 165
0.277344 -0.519531 0.060992 232 190 160
0.281250 -0.519531 0.062270 231 186 156
0.285156 -0.519531 0.063345 229 183 153
0.289062 -0.519531 0.064323 228 181 150
0.292969 -0.519531 0.065254 225 178 146
0.296875 -0.519531 0.066218 223 176 142
0.300781 -0.519531 0.066996 222 175 141
0.304688 -0.519531 0.067502 219 171 137
0.308594 -0.519531 0.067892 216 168 136
0.312500 -0.519531 0.068075 214 166 134
0.316406 -0.519531 0.067934 211 163 132
0.320312 -0.519531 0.067388 211 165 135
0.324219 -0.519531 0.066596 206 162 128
0.328125 -0.519531 0.065464 203 159 124
0.332031 -0.519531 0.063718 198 152 121
0.335938 -0.519531 0.061081 189 142 114
0.339844 -0.519531 0.057933 193 147 117
0.343750 -0.519531 0.054635 191 144 114
0.347656 -0.519531 0.050129 175 125 99
0.351562 -0.519531 0.041425 153 106 83
0.355469 -0.519531 0.030676 137 94 73
0.359375 -0.519531 0.021271 134 96 74
0.363281 -0.519531 0.013053 122 87 68
0.367188 -0.519531 0.004657 134 106 87
-0.074219 -0.523438 -0.055310 130 103 84
-0.070312 -0.523438 -0.038843 156 120 97
-0.066406 -0.523438 -0.028398 170 125 97
-0.062500 -0.523438 -0.021095 183 135 105
-0.058594 -0.523438 -0.016237 192 146 114
-0.054688 -0.523438 -0.013158 196 152 118
-0.050781 -0.523438 -0.010535 197 153 118
-0.046875 -0.523438 -0.007848 198 153 117
-0.042969 -0.523438 -0.005863 196 150 115
-0.039062 -0.523438 -0.004847 192 144 112
-0.035156 -0.523438 -0.004235 185 136 105
-0.031250 -0.523438 -0.003576 176 128 98
-0.027344 -0.523438 -0.003517 171 125 95
-0.023438 -0.523438 -0.004067 169 123 93
-0.019531 -0.523438 -0.004795 163 118 89
-0.015625 -0.523438 -0.005516 161 115 86
-0.011719 -0.523438 -0.006666 156 111 83
-0.007812 -0.523438 -0.008505 149 106 79
-0.003906 -0.523438 -0.010589 140 100 74
0.000000 -0.523438 -0.012841 127 89 65
0.003906 -0.523438 -0.015664 121 85 60
0.007812 -0.523438 -0.019311 120 85 59
0.011719 -0.523438 -0.023275 119 83 58
0.015625 -0.523438 -0.027410 121 85 60
0.019531 -0.523438 -0.032521 120 85 60
0.023438 -0.523438 -0.038538 115 82 58
0.027344 -0.523438 -0.045415 101 73 54
0.031250 -0.523438 -0.054506 101 79 60
0.238281 -0.523438 0.018248 211 183 161
0.242188 -0.523438 0.029985 195 143 118
0.246094 -0.523438 0.037944 221 177 149
0.250000 -0.523438 0.043269 227 183 155
0.253906 -0.523438 0.046679 230 188 160
0.257812 -0.523438 0.049463 232 190 163
0.261719 -0.523438 0.051959 234 195 167
0.265625 -0.523438 0.054434 235 195 167
0.269531 -0.523438 0.056582 235 195 167
0.273438 -0.523438 0.058129 234 194 165
0.277344 -0.523438 0.059543 232 190 160
0.281250 -0.523438 0.060915 231 187 156
0.285156 -0.523438 0.062083 229 184 153
0.289062 -0.523438 0.063159 228 183 152
0.292969 -0.523438 0.064176 226 180 147
0.296875 -0.523438 0.065224 224 177 143
0.300781 -0.523438 0.066081 222 175 141
0.304688 -0.523438 0.066643 219 172 139
0.308594 -0.523438 0.067071 217 170 137
0.312500 -0.523438 0.067307 215 167 135
0.316406 -0.523438 0.067245 212 164 133
0.320312 -0.523438 0.066762 211 166 134
0.324219 -0.523438 0.066037 205 160 128
0.328125 -0.523438 0.064979 201 157 124
0.332031 -0.523438 0.063404 195 149 117
0.335938 -0.523438 0.061020 190 143 112
0.339844 -0.523438 0.058174 198 155 123
0.343750 -0.523438 0.055204 197 152 122
0.347656 -0.523438 0.050884 181 133 106
0.351562 -0.523438 0.042305 159 111 87
0.355469 -0.523438 0.031528 144 99 77
0.359375 -0.523438 0.022236 146 104 81
0.363281 -0.523438 0.014234 132 94 72
0.367188 -0.523438 0.005836 128 97 70
-0.074219 -0.527344 -0.058192 123 97 80
-0.070312 -0.527344 -0.041261 151 117 95
-0.066406 -0.527344 -0.030584 168 124 95
-0.062500 -0.527344 -0.022923 181 134 103
-0.058594 -0.527344 -0.017861 190 144 112
-0.054688 -0.527344 -0.014556 196 152 118
-0.050781 -0.527344 -0.011755 197 154 118
-0.046875 -0.527344 -0.008933 197 153 118
-0.042969 -0.527344 -0.006876 196 151 116
-0.039062 -0.527344 -0.005842 191 144 112
-0.035156 -0.527344 -0.005224 183 136 105
-0.031250 -0.527344 -0.004537 176 129 99
-0.027344 -0.527344 -0.004431 172 126 97
-0.023438 -0.527344 -0.004927 167 122 93
-0.019531 -0.527344 -0.005610 161 116 87
-0.015625 -0.527344 -0.006264 159 114 85
-0.011719 -0.527344 -0.007326 156 111 83
-0.007812 -0.527344 -0.009068 150 106 79
-0.003906 -0.527344 -0.011042 143 102 76
0.000000 -0.527344 -0.013215 130 92 68
0.003906 -0.527344 -0.015975 122 85 60
0.007812 -0.527344 -0.019566 121 84 59
0.011719 -0.527344 -0.023475 120 85 60
0.015625 -0.527344 -0.027509 124 88 63
0.019531 -0.527344 -0.032517 120 85 61
0.023438 -0.527344 -0.038657 113 81 58
0.027344 -0.527344 -0.045752 104 76 55
0.031250 -0.527344 -0.053620 103 80 60
0.238281 -0.527344 0.010326 182 160 135
0.242188 -0.527344 0.026612 195 151 128
0.246094 -0.527344 0.035033 215 171 143
0.250000 -0.527344 0.040660 223 175 147
0.253906 -0.527344 0.044380 229 185 156
0.257812 -0.527344 0.047363 232 189 161
0.261719 -0.527344 0.049956 234 193 165
0.265625 -0.527344 0.052590 234 193 164
0.269531 -0.527344 0.054860 234 194 166
0.273438 -0.527344 0.056513 234 194 165
0.277344 -0.527344 0.058060 232 190 160
0.281250 -0.527344 0.059551 230 187 156
0.285156 -0.527344 0.060842 229 184 153
0.289062 -0.527344 0.062033 228 184 152
0.292969 -0.527344 0.063144 227 181 148
0.296875 -0.527344 0.064276 225 178 144
0.300781 -0.527344 0.065202 223 177 143
0.304688 -0.527344 0.065803 220 174 140
0.308594 -0.527344 0.066256 218 171 138
0.312500 -0.527344 0.066538 215 167 135
0.316406 -0.527344 0.066551 213 165 133
0.320312 -0.527344 0.066143 213 166 134
0.324219 -0.527344 0.065492 205 159 127
0.328125 -0.527344 0.064507 199 155 123
0.332031 -0.527344 0.063057 195 150 116
0.335938 -0.527344 0.060898 195 149 114
0.339844 -0.527344 0.058332 203 157 127
0.343750 -0.527344 0.055652 200 156 127
0.347656 -0.527344 0.051457 188 143 114
0.351562 -0.527344 0.043108 169 122 95
0.355469 -0.527344 0.032377 151 105 81
0.359375 -0.527344 0.023056 145 100 78
0.363281 -0.527344 0.015120 130 90 68
0.367188 -0.527344 0.006762 99 71 50
0.371094 -0.527344 -0.003850 105 80 59
-0.074219 -0.531250 -0.057242 137 115 99
-0.070312 -0.531250 -0.043449 153 122 99
-0.066406 -0.531250 -0.032706 162 120 90
-0.062500 -0.531250 -0.025000 175 128 97
-0.058594 -0.531250 -0.019625 184 138 107
-0.054688 -0.531250 -0.016051 193 149 115
-0.050781 -0.531250 -0.013056 196 152 117
-0.046875 -0.531250 -0.010098 196 153 118
-0.042969 -0.531250 -0.007958 195 151 116
-0.039062 -0.531250 -0.006880 190 144 111
-0.035156 -0.531250 -0.006207 183 136 105
-0.031250 -0.531250 -0.005462 177 131 101
-0.027344 -0.531250 -0.005311 173 127 98
-0.023438 -0.531250 -0.005746 167 122 93
-0.019531 -0.531250 -0.006375 159 114 86
-0.015625 -0.531250 -0.006966 157 111 83
-0.011719 -0.531250 -0.007952 154 110 81
-0.007812 -0.531250 -0.009623 147 105 77
-0.003906 -0.531250 -0.011523 144 103 76
0.000000 -0.531250 -0.013619 134 97 72
0.003906 -0.531250 -0.016292 123 89 65
0.007812 -0.531250 -0.019812 120 85 61
0.011719 -0.531250 -0.023644 120 84 60
0.015625 -0.531250 -0.027625 125 89 65
0.019531 -0.531250 -0.032601 122 87 64
0.023438 -0.531250 -0.038729 113 81 59
0.027344 -0.531250 -0.046049 104 74 54
0.031250 -0.531250 -0.053757 99 74 56
0.242188 -0.531250 0.021962 205 169 157
0.246094 -0.531250 0.032044 213 169 139
0.250000 -0.531250 0.038067 217 166 134
0.253906 -0.531250 0.041865 226 181 149
0.257812 -0.531250 0.045021 230 186 156
0.261719 -0.531250 0.047807 232 190 162
0.265625 -0.531250 0.050638 232 189 160
0.269531 -0.531250 0.053056 234 193 164
0.273438 -0.531250 0.054836 234 194 165
0.277344 -0.531250 0.056538 232 191 160
0.281250 -0.531250 0.058166 230 187 156
0.285156 -0.531250 0.059594 228 184 153
0.289062 -0.531250 0.060915 228 184 152
0.292969 -0.531250 0.062121 226 181 148
0.296875 -0.531250 0.063321 225 178 144
0.300781 -0.531250 0.064295 223 177 143
0.304688 -0.531250 0.064929 221 174 141
0.308594 -0.531250 0.065418 218 171 138
0.312500 -0.531250 0.065751 215 166 135
0.316406 -0.531250 0.065820 213 164 132
0.320312 -0.531250 0.065486 213 166 133
0.324219 -0.531250 0.064923 208 161 128
0.328125 -0.531250 0.064022 203 157 125
0.332031 -0.531250 0.062669 199 153 119
0.335938 -0.531250 0.060676 200 153 116
0.339844 -0.531250 0.058316 203 157 122
0.343750 -0.531250 0.055875 200 155 123
0.347656 -0.531250 0.051787 195 151 119
0.351562 -0.531250 0.043771 182 135 106
0.355469 -0.531250 0.033259 158 111 86
0.359375 -0.531250 0.023847 140 95 74
0.363281 -0.531250 0.015978 133 91 69
0.367188 -0.531250 0.008002 119 87 61
0.371094 -0.531250 -0.001623 152 126 90
-0.074219 -0.535156 -0.038573 143 125 108
-0.070312 -0.535156 -0.046141 159 131 108
-0.066406 -0.535156 -0.035121 163 120 90
-0.062500 -0.535156 -0.027193 173 126 96
-0.058594 -0.535156 -0.021469 182 137 105
-0.054688 -0.535156 -0.017596 192 148 114
-0.050781 -0.535156 -0.014407 195 151 117
-0.046875 -0.535156 -0.011299 194 150 116
-0.042969 -0.535156 -0.009081 192 147 113
-0.039062 -0.535156 -0.007945 186 140 108
-0.035156 -0.535156 -0.007184 181 135 104
-0.031250 -0.535156 -0.006354 177 130 100
-0.027344 -0.535156 -0.006140 171 126 96
-0.023438 -0.535156 -0.006496 167 122 93
-0.019531 -0.535156 -0.007053 160 116 87
-0.015625 -0.535156 -0.007593 157 112 83
-0.011719 -0.535156 -0.008533 153 109 81
-0.007812 -0.535156 -0.010169 144 102 76
-0.003906 -0.535156 -0.012032 140 100 74
0.000000 -0.535156 -0.014043 132 95 71
0.003906 -0.535156 -0.016590 123 90 68
0.007812 -0.535156 -0.020019 119 86 64
0.011719 -0.535156 -0.023778 117 82 59
0.015625 -0.535156 -0.027669 122 86 63
0.019531 -0.535156 -0.032580 124 87 65
0.023438 -0.535156 -0.038716 116 81 59
0.027344 -0.535156 -0.046051 108 74 55
0.031250 -0.535156 -0.054002 104 76 57
0.242188 -0.535156 0.017220 162 126 135
0.246094 -0.535156 0.028521 204 158 124
0.250000 -0.535156 0.035021 209 154 117
0.253906 -0.535156 0.039181 224 177 144
0.257812 -0.535156 0.042588 229 183 152
0.261719 -0.535156 0.045624 231 190 160
0.265625 -0.535156 0.048624 231 188 159
0.269531 -0.535156 0.051201 233 192 163
0.273438 -0.535156 0.053139 233 193 164
0.277344 -0.535156 0.055009 232 191 160
0.281250 -0.535156 0.056785 230 188 157
0.285156 -0.535156 0.058362 229 185 154
0.289062 -0.535156 0.059816 229 185 153
0.292969 -0.535156 0.061125 227 181 148
0.296875 -0.535156 0.062390 225 178 144
0.300781 -0.535156 0.063398 223 176 142
0.304688 -0.535156 0.064057 221 174 140
0.308594 -0.535156 0.064572 219 172 139
0.312500 -0.535156 0.064951 217 169 136
0.316406 -0.535156 0.065058 214 165 133
0.320312 -0.535156 0.064782 213 164 132
0.324219 -0.535156 0.064297 210 162 130
0.328125 -0.535156 0.063497 208 160 129
0.332031 -0.535156 0.062241 205 156 123
0.335938 -0.535156 0.060369 203 153 118
0.339844 -0.535156 0.058180 202 153 118
0.343750 -0.535156 0.055874 198 149 117
0.347656 -0.535156 0.051809 192 144 114
0.351562 -0.535156 0.044186 184 136 108
0.355469 -0.535156 0.034244 163 118 92
0.359375 -0.535156 0.024928 139 96 74
0.363281 -0.535156 0.016996 132 91 68
0.367188 -0.535156 0.009207 121 85 60
0.371094 -0.535156 -0.000002 118 86 65
-0.074219 -0.539062 -0.026771 39 28 31
-0.070312 -0.539062 -0.048991 133 104 92
-0.066406 -0.539062 -0.037546 162 118 90
-0.062500 -0.539062 -0.029374 174 127 97
-0.058594 -0.539062 -0.023260 184 139 107
-0.054688 -0.539062 -0.019130 192 148 115
-0.050781 -0.539062 -0.015756 195 151 117
-0.046875 -0.539062 -0.012486 193 148 114
-0.042969 -0.539062 -0.010180 189 144 111
-0.039062 -0.539062 -0.008986 184 138 106
-0.035156 -0.539062 -0.008158 180 134 103
-0.031250 -0.539062 -0.007244 174 128 98
-0.027344 -0.539062 -0.006946 168 123 94
-0.023438 -0.539062 -0.007226 166 122 93
-0.019531 -0.539062 -0.007724 160 116 87
-0.015625 -0.539062 -0.008218 157 113 83
-0.011719 -0.539062 -0.009120 155 109 83
-0.007812 -0.539062 -0.010723 149 103 81
-0.003906 -0.539062 -0.012546 142 101 76
0.000000 -0.539062 -0.014482 133 96 70
0.003906 -0.539062 -0.016919 131 95 71
0.007812 -0.539062 -0.020250 134 96 72
0.011719 -0.539062 -0.023933 128 88 66
0.015625 -0.539062 -0.027772 126 87 67
0.019531 -0.539062 -0.032603 123 86 65
0.023438 -0.539062 -0.038697 114 79 59
0.027344 -0.539062 -0.046120 107 74 56
0.031250 -0.539062 -0.054209 116 87 67
0.242188 -0.539062 0.011874 140 126 132
0.246094 -0.539062 0.024670 215 183 150
0.250000 -0.539062 0.031322 206 151 116
0.253906 -0.539062 0.036158 225 180 146
0.257812 -0.539062 0.039989 229 183 151
0.261719 -0.539062 0.043351 231 190 159
0.265625 -0.539062 0.046566 231 189 160
0.269531 -0.539062 0.049312 232 191 162
0.273438 -0.539062 0.051436 232 192 163
0.277344 -0.539062 0.053498 232 191 161
0.281250 -0.539062 0.055426 231 189 158
0.285156 -0.539062 0.057147 230 186 154
0.289062 -0.539062 0.058724 230 186 154
0.292969 -0.539062 0.060132 228 183 150
0.296875 -0.539062 0.061467 226 180 147
0.300781 -0.539062 0.062509 224 178 144
0.304688 -0.539062 0.063171 221 175 141
0.308594 -0.539062 0.063694 220 173 139
0.312500 -0.539062 0.064112 219 171 138
0.316406 -0.539062 0.064255 216 167 134
0.320312 -0.539062 0.064029 214 164 131
0.324219 -0.539062 0.063612 212 163 130
0.328125 -0.539062 0.062899 210 162 129
0.332031 -0.539062 0.061724 209 159 127
0.335938 -0.539062 0.059952 206 155 124
0.339844 -0.539062 0.057899 201 152 121
0.343750 -0.539062 0.055685 197 147 116
0.347656 -0.539062 0.051744 185 135 104
0.351562 -0.539062 0.044613 177 130 100
0.355469 -0.539062 0.035482 167 121 92
0.359375 -0.539062 0.026363 146 101 78
0.363281 -0.539062 0.018371 136 94 71
0.367188 -0.539062 0.010899 125 88 62
0.371094 -0.539062 0.002368 121 87 69
-0.074219 -0.542969 -0.025331 8 5 7
-0.070312 -0.542969 -0.050866 120 95 85
-0.066406 -0.542969 -0.039488 164 120 91
-0.062500 -0.542969 -0.031335 173 126 96
-0.058594 -0.542969 -0.024918 183 139 107
-0.054688 -0.542969 -0.020609 189 145 111
-0.050781 -0.542969 -0.017054 192 149 115
-0.046875 -0.542969 -0.013648 192 148 115
-0.042969 -0.542969 -0.011244 191 146 113
-0.039062 -0.542969 -0.009988 184 139 107
-0.035156 -0.542969 -0.009109 180 134 102
-0.031250 -0.542969 -0.008114 174 128 98
-0.027344 -0.542969 -0.007736 168 123 94
-0.023438 -0.542969 -0.007955 165 121 93
-0.019531 -0.542969 -0.008412 158 114 86
-0.015625 -0.542969 -0.008862 155 112 82
-0.011719 -0.542969 -0.009728 155 109 85
-0.007812 -0.542969 -0.011298 152 107 85
-0.003906 -0.542969 -0.013081 147 108 79
0.000000 -0.542969 -0.014953 138 104 72
0.003906 -0.542969 -0.017305 142 108 76
0.007812 -0.542969 -0.020535 147 111 81
0.011719 -0.542969 -0.024111 139 101 76
0.015625 -0.542969 -0.027872 131 93 72
0.019531 -0.542969 -0.032654 123 87 66
0.023438 -0.542969 -0.038755 114 81 61
0.027344 -0.542969 -0.046141 108 78 60
0.031250 -0.542969 -0.054558 118 91 71
0.246094 -0.542969 0.021115 212 185 158
0.250000 -0.542969 0.027660 197 140 111
0.253906 -0.542969 0.032914 220 170 137
0.257812 -0.542969 0.037207 225 176 143
0.261719 -0.542969 0.040981 228 185 153
0.265625 -0.542969 0.044435 229 188 158
0.269531 -0.542969 0.047349 231 191 161
0.273438 -0.542969 0.049668 232 191 162
0.277344 -0.542969 0.051931 232 191 162
0.281250 -0.542969 0.054028 232 189 158
0.285156 -0.542969 0.055910 230 186 155
0.289062 -0.542969 0.057615 230 187 155
0.292969 -0.542969 0.059130 229 184 152
0.296875 -0.542969 0.060530 228 182 150
0.300781 -0.542969 0.061593 226 180 147
0.304688 -0.542969 0.062257 223 176 142
0.308594 -0.542969 0.062787 221 173 139
0.312500 -0.542969 0.063249 220 173 139
0.316406 -0.542969 0.063422 218 169 135
0.320312 -0.542969 0.063236 215 165 131
0.324219 -0.542969 0.062881 214 165 131
0.328125 -0.542969 0.062247 211 162 129
0.332031 -0.542969 0.061153 210 161 129
0.335938 -0.542969 0.059491 208 158 126
0.339844 -0.542969 0.057570 203 154 121
0.343750 -0.542969 0.055424 199 148 115
0.347656 -0.542969 0.051675 184 134 100
0.351562 -0.542969 0.045226 177 129 95
0.355469 -0.542969 0.037145 169 121 91
0.359375 -0.542969 0.028403 154 106 83
0.363281 -0.542969 0.020410 143 100 76
0.367188 -0.542969 0.012894 121 86 61
0.371094 -0.542969 0.004799 124 91 71
0.375000 -0.542969 -0.007059 165 143 118
-0.074219 -0.546875 -0.022390 5 3 4
-0.070312 -0.546875 -0.052839 127 100 88
-0.066406 -0.546875 -0.041375 163 119 89
-0.062500 -0.546875 -0.033115 170 123 93
-0.058594 -0.546875 -0.026582 181 137 105
-0.054688 -0.546875 -0.022060 186 141 108
-0.050781 -0.546875 -0.018323 191 147 114
-0.046875 -0.546875 -0.014800 192 149 116
-0.042969 -0.546875 -0.012311 192 148 115
-0.039062 -0.546875 -0.010982 185 139 107
-0.035156 -0.546875 -0.010024 179 133 102
-0.031250 -0.546875 -0.008926 174 129 98
-0.027344 -0.546875 -0.008468 168 123 94
-0.023438 -0.546875 -0.008630 163 118 91
-0.019531 -0.546875 -0.009061 156 112 85
-0.015625 -0.546875 -0.009485 154 111 82
-0.011719 -0.546875 -0.010328 151 107 83
-0.007812 -0.546875 -0.011877 147 104 82
-0.003906 -0.546875 -0.013620 144 106 77
0.000000 -0.546875 -0.015425 139 105 72
0.003906 -0.546875 -0.017698 144 111 76
0.007812 -0.546875 -0.020847 147 113 80
0.011719 -0.546875 -0.024339 136 102 73
0.015625 -0.546875 -0.028004 129 93 68
0.019531 -0.546875 -0.032681 120 86 63
0.023438 -0.546875 -0.038834 115 81 61
0.027344 -0.546875 -0.046346 111 79 61
0.031250 -0.546875 -0.054593 113 85 66
0.246094 -0.546875 0.017256 148 114 108
0.250000 -0.546875 0.024024 191 137 120
0.253906 -0.546875 0.029609 211 159 124
0.257812 -0.546875 0.034287 218 166 132
0.261719 -0.546875 0.038438 224 181 147
0.265625 -0.546875 0.042161 228 187 155
0.269531 -0.546875 0.045266 230 190 160
0.273438 -0.546875 0.047839 231 190 160
0.277344 -0.546875 0.050315 232 191 162
0.281250 -0.546875 0.052596 232 190 159
0.285156 -0.546875 0.054648 231 187 155
0.289062 -0.546875 0.056469 231 187 155
0.292969 -0.546875 0.058085 230 185 153
0.296875 -0.546875 0.059548 229 184 152
0.300781 -0.546875 0.060631 226 180 147
0.304688 -0.546875 0.061314 223 175 141
0.308594 -0.546875 0.061869 221 173 139
0.312500 -0.546875 0.062382 222 175 140
0.316406 -0.546875 0.062600 220 171 137
0.320312 -0.546875 0.062452 216 166 132
0.324219 -0.546875 0.062137 215 165 131
0.328125 -0.546875 0.061564 212 162 129
0.332031 -0.546875 0.060544 211 160 128
0.335938 -0.546875 0.058973 209 157 126
0.339844 -0.546875 0.057164 205 154 122
0.343750 -0.546875 0.055123 201 150 118
0.347656 -0.546875 0.051673 186 135 104
0.351562 -0.546875 0.045915 181 133 101
0.355469 -0.546875 0.038759 171 124 93
0.359375 -0.546875 0.030743 160 115 86
0.363281 -0.546875 0.022862 153 109 82
0.367188 -0.546875 0.015045 124 86 64
0.371094 -0.546875 0.007073 96 67 53
0.375000 -0.546875 -0.002047 94 78 65
-0.074219 -0.550781 -0.019667 3 1 2
-0.070312 -0.550781 -0.055308 120 91 85
-0.066406 -0.550781 -0.043229 152 111 84
-0.062500 -0.550781 -0.034674 162 118 89
-0.058594 -0.550781 -0.028154 178 135 104
-0.054688 -0.550781 -0.023472 184 140 107
-0.050781 -0.550781 -0.019552 190 146 113
-0.046875 -0.550781 -0.015925 191 147 114
-0.042969 -0.550781 -0.013385 190 146 113
-0.039062 -0.550781 -0.011976 183 137 105
-0.035156 -0.550781 -0.010921 177 131 100
-0.031250 -0.550781 -0.009701 173 128 97
-0.027344 -0.550781 -0.009130 168 123 94
-0.023438 -0.550781 -0.009230 162 117 90
-0.019531 -0.550781 -0.009645 156 112 85
-0.015625 -0.550781 -0.010055 154 110 82
-0.011719 -0.550781 -0.010890 148 103 80
-0.007812 -0.550781 -0.012421 142 100 77
-0.003906 -0.550781 -0.014131 144 105 76
0.000000 -0.550781 -0.015874 144 105 74
0.003906 -0.550781 -0.018065 148 110 77
0.007812 -0.550781 -0.021145 147 111 78
0.011719 -0.550781 -0.024576 135 99 71
0.015625 -0.550781 -0.028158 128 92 66
0.019531 -0.550781 -0.032717 120 84 61
0.023438 -0.550781 -0.038893 115 80 60
0.027344 -0.550781 -0.046627 112 78 60
0.031250 -0.550781 -0.054619 112 83 64
0.246094 -0.550781 0.012160 91 69 63
0.250000 -0.550781 0.019936 209 174 156
0.253906 -0.550781 0.025788 216 175 136
0.257812 -0.550781 0.031083 216 166 132
0.261719 -0.550781 0.035845 222 177 144
0.265625 -0.550781 0.039859 225 183 151
0.269531 -0.550781 0.043063 229 189 158
0.273438 -0.550781 0.045829 229 188 157
0.277344 -0.550781 0.048556 232 190 160
0.281250 -0.550781 0.051077 232 190 159
0.285156 -0.550781 0.053308 231 187 155
0.289062 -0.550781 0.055240 230 186 154
0.292969 -0.550781 0.056968 230 185 153
0.296875 -0.550781 0.058515 229 184 152
0.300781 -0.550781 0.059647 226 179 147
0.304688 -0.550781 0.060370 223 175 141
0.308594 -0.550781 0.060962 222 174 140
0.312500 -0.550781 0.061514 223 176 142
0.316406 -0.550781 0.061764 221 173 139
0.320312 -0.550781 0.061648 218 168 133
0.324219 -0.550781 0.061370 217 167 133
0.328125 -0.550781 0.060837 213 163 130
0.332031 -0.550781 0.059885 211 160 128
0.335938 -0.550781 0.058405 209 158 127
0.339844 -0.550781 0.056692 205 154 124
0.343750 -0.550781 0.054766 201 151 121
0.347656 -0.550781 0.051622 190 140 111
0.351562 -0.550781 0.046533 186 138 108
0.355469 -0.550781 0.040234 175 128 96
0.359375 -0.550781 0.033021 165 119 88
0.363281 -0.550781 0.025517 154 109 83
0.367188 -0.550781 0.017742 140 99 78
0.371094 -0.550781 0.009458 121 88 69
0.375000 -0.550781 0.000970 132 112 84
0.378906 -0.550781 -0.011679 112 107 99
-0.074219 -0.554688 -0.019220 3 1 2
-0.070312 -0.554688 -0.058181 131 103 95
-0.066406 -0.554688 -0.045054 155 116 89
-0.062500 -0.554688 -0.036066 161 118 90
-0.058594 -0.554688 -0.029671 176 134 103
-0.054688 -0.554688 -0.024795 183 139 106
-0.050781 -0.554688 -0.020678 188 144 111
-0.046875 -0.554688 -0.017000 189 145 112
-0.042969 -0.554688 -0.014403 188 143 110
-0.039062 -0.554688 -0.012906 181 135 103
-0.035156 -0.554688 -0.011744 176 129 99
-0.031250 -0.554688 -0.010400 173 128 97
-0.027344 -0.554688 -0.009729 170 125 96
-0.023438 -0.554688 -0.009783 164 120 92
-0.019531 -0.554688 -0.010190 157 113 86
-0.015625 -0.554688 -0.010590 155 111 84
-0.011719 -0.554688 -0.011417 149 103 80
-0.007812 -0.554688 -0.012939 143 99 76
-0.003906 -0.554688 -0.014633 146 105 76
0.000000 -0.554688 -0.016327 145 105 75
0.003906 -0.554688 -0.018429 145 106 76
0.007812 -0.554688 -0.021427 141 104 74
0.011719 -0.554688 -0.024784 131 96 69
0.015625 -0.554688 -0.028284 127 91 66
0.019531 -0.554688 -0.032800 119 84 62
0.023438 -0.554688 -0.038931 115 81 62
0.027344 -0.554688 -0.046788 108 76 59
0.031250 -0.554688 -0.055242 108 81 63
0.246094 -0.554688 0.005855 3 2 2
0.250000 -0.554688 0.015534 150 119 113
0.253906 -0.554688 0.021585 205 167 132
0.257812 -0.554688 0.027747 210 158 125
0.261719 -0.554688 0.032906 219 174 142
0.265625 -0.554688 0.037120 222 178 147
0.269531 -0.554688 0.040557 227 185 155
0.273438 -0.554688 0.043628 228 184 154
0.277344 -0.554688 0.046662 231 189 159
0.281250 -0.554688 0.049493 233 192 160
0.285156 -0.554688 0.051938 231 188 156
0.289062 -0.554688 0.053981 230 186 153
0.292969 -0.554688 0.055815 230 185 153
0.296875 -0.554688 0.057453 230 185 153
0.300781 -0.554688 0.058657 228 181 149
0.304688 -0.554688 0.059435 226 178 145
0.308594 -0.554688 0.060053 225 177 144
0.312500 -0.554688 0.060632 224 176 143
0.316406 -0.554688 0.060910 222 173 140
0.320312 -0.554688 0.060824 219 169 135
0.324219 -0.554688 0.060585 218 169 135
0.328125 -0.554688 0.060094 216 166 133
0.332031 -0.554688 0.059207 213 162 130
0.335938 -0.554688 0.057808 210 159 128
0.339844 -0.554688 0.056177 205 154 124
0.343750 -0.554688 0.054333 200 149 121
0.347656 -0.554688 0.051411 193 142 114
0.351562 -0.554688 0.046828 190 140 112
0.355469 -0.554688 0.041253 177 129 101
0.359375 -0.554688 0.034857 168 123 92
0.363281 -0.554688 0.027896 153 109 82
0.367188 -0.554688 0.020306 143 100 78
0.371094 -0.554688 0.011942 127 91 71
0.375000 -0.554688 0.003365 114 87 65
0.378906 -0.554688 -0.006371 113 92 80
-0.070312 -0.558594 -0.061565 126 99 91
-0.066406 -0.558594 -0.047059 152 115 88
-0.062500 -0.558594 -0.037476 160 119 90
-0.058594 -0.558594 -0.031215 174 133 102
-0.054688 -0.558594 -0.026144 181 137 105
-0.050781 -0.558594 -0.021786 188 144 111
-0.046875 -0.558594 -0.018031 189 145 112
-0.042969 -0.558594 -0.015367 187 143 110
-0.039062 -0.558594 -0.013763 181 135 103
-0.035156 -0.558594 -0.012470 177 131 100
-0.031250 -0.558594 -0.011000 175 130 99
-0.027344 -0.558594 -0.010261 172 128 98
-0.023438 -0.558594 -0.010296 165 121 93
-0.019531 -0.558594 -0.010706 156 112 85
-0.015625 -0.558594 -0.011099 153 111 83
-0.011719 -0.558594 -0.011926 149 106 80
-0.007812 -0.558594 -0.013453 145 102 75
-0.003906 -0.558594 -0.015150 147 105 75
0.000000 -0.558594 -0.016808 142 102 73
0.003906 -0.558594 -0.018823 139 100 72
0.007812 -0.558594 -0.021733 135 97 71
0.011719 -0.558594 -0.025029 129 93 67
0.015625 -0.558594 -0.028480 126 89 65
0.019531 -0.558594 -0.032975 118 82 61
0.023438 -0.558594 -0.039074 114 80 61
0.027344 -0.558594 -0.047175 105 74 58
0.031250 -0.558594 -0.056180 110 82 65
0.250000 -0.558594 0.009634 112 97 99
0.253906 -0.558594 0.017005 210 180 149
0.257812 -0.558594 0.023770 201 145 116
0.261719 -0.558594 0.029475 214 169 137
0.265625 -0.558594 0.034102 218 174 143
0.269531 -0.558594 0.037993 223 180 150
0.273438 -0.558594 0.041404 225 180 149
0.277344 -0.558594 0.044685 229 186 154
0.281250 -0.558594 0.047793 232 191 159
0.285156 -0.558594 0.050464 231 188 156
0.289062 -0.558594 0.052636 230 186 153
0.292969 -0.558594 0.054588 230 185 153
0.296875 -0.558594 0.056324 230 185 153
0.300781 -0.558594 0.057610 229 183 150
0.304688 -0.558594 0.058448 228 181 149
0.308594 -0.558594 0.059101 227 179 147
0.312500 -0.558594 0.059717 225 176 144
0.316406 -0.558594 0.060031 222 173 141
0.320312 -0.558594 0.059961 220 170 137
0.324219 -0.558594 0.059731 219 171 137
0.328125 -0.558594 0.059271 218 169 136
0.332031 -0.558594 0.058428 215 165 133
0.335938 -0.558594 0.057089 212 161 130
0.339844 -0.558594 0.055511 206 155 125
0.343750 -0.558594 0.053739 200 149 120
0.347656 -0.558594 0.051022 194 143 114
0.351562 -0.558594 0.046841 190 139 111
0.355469 -0.558594 0.041835 176 128 99
0.359375 -0.558594 0.036212 169 124 93
0.363281 -0.558594 0.029854 151 109 80
0.367188 -0.558594 0.022449 142 99 75
0.371094 -0.558594 0.013960 133 92 71
0.375000 -0.558594 0.005203 84 60 45
0.378906 -0.558594 -0.003902 82 60 51
-0.070312 -0.562500 -0.063511 121 96 88
-0.066406 -0.562500 -0.049035 149 113 85
-0.062500 -0.562500 -0.038950 157 118 89
-0.058594 -0.562500 -0.032551 170 130 99
-0.054688 -0.562500 -0.027346 178 134 101
-0.050781 -0.562500 -0.022804 186 143 109
-0.046875 -0.562500 -0.018987 189 146 113
-0.042969 -0.562500 -0.016274 187 143 110
-0.039062 -0.562500 -0.014577 181 136 104
-0.035156 -0.562500 -0.013174 180 135 104
-0.031250 -0.562500 -0.011598 180 136 104
-0.027344 -0.562500 -0.010816 175 131 100
-0.023438 -0.562500 -0.010851 164 120 92
-0.019531 -0.562500 -0.011270 154 110 84
-0.015625 -0.562500 -0.011653 151 109 82
-0.011719 -0.562500 -0.012475 146 104 77
-0.007812 -0.562500 -0.013988 144 102 74
-0.003906 -0.562500 -0.015659 149 107 76
0.000000 -0.562500 -0.017281 143 103 73
0.003906 -0.562500 -0.019226 137 97 71
0.007812 -0.562500 -0.022046 135 96 70
0.011719 -0.562500 -0.025288 131 94 69
0.015625 -0.562500 -0.028734 127 89 65
0.019531 -0.562500 -0.033284 116 80 59
0.023438 -0.562500 -0.039388 112 78 60
0.027344 -0.562500 -0.047444 105 74 59
0.031250 -0.562500 -0.057100 111 82 64
0.035156 -0.562500 -0.066686 105 84 70
0.250000 -0.562500 0.001672 137 131 130
0.253906 -0.562500 0.012046 219 199 174
0.257812 -0.562500 0.019331 189 139 115
0.261719 -0.562500 0.025857 207 162 133
0.265625 -0.562500 0.031030 215 170 140
0.269531 -0.562500 0.035215 219 174 143
0.273438 -0.562500 0.038945 221 175 144
0.277344 -0.562500 0.042572 227 181 149
0.281250 -0.562500 0.046023 231 187 155
0.285156 -0.562500 0.048932 230 186 153
0.289062 -0.562500 0.051256 230 185 153
0.292969 -0.562500 0.053344 230 186 154
0.296875 -0.562500 0.055187 230 185 153
0.300781 -0.562500 0.056555 230 184 152
0.304688 -0.562500 0.057451 229 183 150
0.308594 -0.562500 0.058143 228 180 148
0.312500 -0.562500 0.058797 226 177 145
0.316406 -0.562500 0.059132 224 175 143
0.320312 -0.562500 0.059052 222 172 140
0.324219 -0.562500 0.058803 220 171 138
0.328125 -0.562500 0.058354 219 170 137
0.332031 -0.562500 0.057549 216 166 134
0.335938 -0.562500 0.056278 213 163 132
0.339844 -0.562500 0.054766 207 157 127
0.343750 -0.562500 0.053076 201 150 122
0.347656 -0.562500 0.050536 196 145 117
0.351562 -0.562500 0.046698 191 140 112
0.355469 -0.562500 0.042164 180 129 101
0.359375 -0.562500 0.037178 174 125 96
0.363281 -0.562500 0.031352 155 111 85
0.367188 -0.562500 0.024172 143 102 77
0.371094 -0.562500 0.015754 143 102 77
0.375000 -0.562500 0.006784 99 73 55
0.378906 -0.562500 -0.002244 103 80 66
-0.070312 -0.566406 -0.058920 129 104 95
-0.066406 -0.566406 -0.050951 148 112 84
-0.062500 -0.566406 -0.040357 155 116 87
-0.058594 -0.566406 -0.033742 168 128 97
-0.054688 -0.566406 -0.028349 174 131 98
-0.050781 -0.566406 -0.023757 183 139 106
-0.046875 -0.566406 -0.019952 186 143 110
-0.042969 -0.566406 -0.017186 184 140 107
-0.039062 -0.566406 -0.015397 179 134 102
-0.035156 -0.566406 -0.013905 180 136 104
-0.031250 -0.566406 -0.012251 181 136 105
-0.027344 -0.566406 -0.011431 173 129 98
-0.023438 -0.566406 -0.011453 160 116 88
-0.019531 -0.566406 -0.011877 152 108 82
-0.015625 -0.566406 -0.012244 151 108 80
-0.011719 -0.566406 -0.013042 145 103 75
-0.007812 -0.566406 -0.014521 145 102 74
-0.003906 -0.566406 -0.016140 152 111 79
0.000000 -0.566406 -0.017730 146 107 76
0.003906 -0.566406 -0.019640 136 97 71
0.007812 -0.566406 -0.022407 134 95 70
0.011719 -0.566406 -0.025618 132 94 69
0.015625 -0.566406 -0.029082 125 87 64
0.019531 -0.566406 -0.033641 115 79 58
0.023438 -0.566406 -0.039838 111 77 60
0.027344 -0.566406 -0.047997 108 76 60
0.031250 -0.566406 -0.057682 106 78 60
0.253906 -0.566406 0.004829 168 153 131
0.257812 -0.566406 0.014847 178 133 113
0.261719 -0.566406 0.021323 200 153 126
0.265625 -0.566406 0.027264 210 164 134
0.269531 -0.566406 0.032163 218 174 142
0.273438 -0.566406 0.036529 221 176 144
0.277344 -0.566406 0.040565 225 179 146
0.281250 -0.566406 0.044275 227 182 149
0.285156 -0.566406 0.047391 227 182 150
0.289062 -0.566406 0.049859 229 184 152
0.292969 -0.566406 0.052065 230 186 154
0.296875 -0.566406 0.054020 231 187 155
0.300781 -0.566406 0.055481 231 186 154
0.304688 -0.566406 0.056440 231 184 152
0.308594 -0.566406 0.057175 229 181 149
0.312500 -0.566406 0.057863 227 179 147
0.316406 -0.566406 0.058208 226 177 146
0.320312 -0.566406 0.058098 223 174 142
0.324219 -0.566406 0.057810 221 170 138
0.328125 -0.566406 0.057351 218 168 135
0.332031 -0.566406 0.056574 216 165 133
0.335938 -0.566406 0.055354 213 162 132
0.339844 -0.566406 0.053893 208 157 128
0.343750 -0.566406 0.052280 203 152 123
0.347656 -0.566406 0.049915 198 148 120
0.351562 -0.566406 0.046387 192 141 113
0.355469 -0.566406 0.042249 181 130 103
0.359375 -0.566406 0.037812 177 127 100
0.363281 -0.566406 0.032600 163 117 90
0.367188 -0.566406 0.025726 145 103 77
0.371094 -0.566406 0.017434 138 97 74
0.375000 -0.566406 0.008353 114 80 64
0.378906 -0.566406 -0.000729 100 72 64
-0.070312 -0.570312 -0.052528 144 125 112
-0.066406 -0.570312 -0.052630 147 113 85
-0.062500 -0.570312 -0.041784 151 110 83
-0.058594 -0.570312 -0.034851 170 127 98
-0.054688 -0.570312 -0.029272 174 129 98
-0.050781 -0.570312 -0.024648 179 135 103
-0.046875 -0.570312 -0.020878 182 138 105
-0.042969 -0.570312 -0.018087 181 136 104
-0.039062 -0.570312 -0.016236 178 133 102
-0.035156 -0.570312 -0.014704 178 134 102
-0.031250 -0.570312 -0.013006 176 131 101
-0.027344 -0.570312 -0.012127 169 125 95
-0.023438 -0.570312 -0.012091 159 114 87
-0.019531 -0.570312 -0.012488 151 107 81
-0.015625 -0.570312 -0.012828 149 105 79
-0.011719 -0.570312 -0.013600 144 101 74
-0.007812 -0.570312 -0.015063 145 102 73
-0.003906 -0.570312 -0.016655 153 112 79
0.000000 -0.570312 -0.018219 147 108 77
0.003906 -0.570312 -0.020102 136 97 71
0.007812 -0.570312 -0.022834 133 94 70
0.011719 -0.570312 -0.026025 130 92 68
0.015625 -0.570312 -0.029517 123 86 63
0.019531 -0.570312 -0.034098 114 79 58
0.023438 -0.570312 -0.040428 110 77 59
0.027344 -0.570312 -0.048743 109 78 61
0.031250 -0.570312 -0.058242 107 78 61
0.257812 -0.570312 0.008099 213 189 171
0.261719 -0.570312 0.016590 205 163 134
0.265625 -0.570312 0.023148 200 149 119
0.269531 -0.570312 0.028799 214 169 138
0.273438 -0.570312 0.033854 221 176 145
0.277344 -0.570312 0.038380 222 176 143
0.281250 -0.570312 0.042401 224 178 145
0.285156 -0.570312 0.045716 227 182 150
0.289062 -0.570312 0.048364 228 184 152
0.292969 -0.570312 0.050696 230 187 155
0.296875 -0.570312 0.052770 232 188 156
0.300781 -0.570312 0.054343 232 188 156
0.304688 -0.570312 0.055375 232 186 154
0.308594 -0.570312 0.056157 230 183 151
0.312500 -0.570312 0.056875 229 180 149
0.316406 -0.570312 0.057219 228 180 149
0.320312 -0.570312 0.057074 225 176 144
0.324219 -0.570312 0.056742 221 170 138
0.328125 -0.570312 0.056266 218 165 133
0.332031 -0.570312 0.055507 215 163 131
0.335938 -0.570312 0.054329 213 162 132
0.339844 -0.570312 0.052901 208 156 127
0.343750 -0.570312 0.051336 203 152 123
0.347656 -0.570312 0.049105 200 149 121
0.351562 -0.570312 0.045889 193 142 114
0.355469 -0.570312 0.042141 182 131 104
0.359375 -0.570312 0.038112 178 129 100
0.363281 -0.570312 0.033408 166 121 93
0.367188 -0.570312 0.027026 151 107 81
0.371094 -0.570312 0.018879 144 101 77
0.375000 -0.570312 0.009858 138 98 76
0.378906 -0.570312 0.001252 125 89 74
0.382812 -0.570312 -0.009441 92 74 65
-0.070312 -0.574219 -0.048970 140 128 117
-0.066406 -0.574219 -0.054058 150 118 91
-0.062500 -0.574219 -0.043133 151 109 83
-0.058594 -0.574219 -0.035810 170 125 97
-0.054688 -0.574219 -0.030103 174 128 98
-0.050781 -0.574219 -0.025432 179 135 103
-0.046875 -0.574219 -0.021704 180 136 104
-0.042969 -0.574219 -0.018938 181 137 105
-0.039062 -0.574219 -0.017084 181 136 105
-0.035156 -0.574219 -0.015548 178 133 102
-0.031250 -0.574219 -0.013837 173 128 98
-0.027344 -0.574219 -0.012895 170 125 95
-0.023438 -0.574219 -0.012772 163 117 90
-0.019531 -0.574219 -0.013112 153 108 82
-0.015625 -0.574219 -0.013410 150 105 79
-0.011719 -0.574219 -0.014160 146 103 76
-0.007812 -0.574219 -0.015630 145 102 73
-0.003906 -0.574219 -0.017228 151 108 77
0.000000 -0.574219 -0.018774 147 106 77
0.003906 -0.574219 -0.020627 138 98 72
0.007812 -0.574219 -0.023324 136 97 72
0.011719 -0.574219 -0.026490 132 94 70
0.015625 -0.574219 -0.029998 125 88 65
0.019531 -0.574219 -0.034616 116 81 60
0.023438 -0.574219 -0.041055 108 76 58
0.027344 -0.574219 -0.049418 105 75 59
0.031250 -0.574219 -0.058645 106 77 62
0.257812 -0.574219 -0.003789 170 148 147
0.261719 -0.574219 0.010653 198 161 129
0.265625 -0.574219 0.017935 190 137 106
0.269531 -0.574219 0.024398 208 159 130
0.273438 -0.574219 0.030450 218 172 141
0.277344 -0.574219 0.035926 218 173 140
0.281250 -0.574219 0.040485 221 176 143
0.285156 -0.574219 0.043988 225 182 150
0.289062 -0.574219 0.046697 227 184 152
0.292969 -0.574219 0.049125 229 186 155
0.296875 -0.574219 0.051342 231 188 155
0.300781 -0.574219 0.053040 233 188 156
0.304688 -0.574219 0.054161 233 188 156
0.308594 -0.574219 0.055014 231 184 152
0.312500 -0.574219 0.055776 230 181 150
0.316406 -0.574219 0.056133 229 181 149
0.320312 -0.574219 0.055971 226 177 145
0.324219 -0.574219 0.055608 222 171 138
0.328125 -0.574219 0.055114 218 165 132
0.332031 -0.574219 0.054350 215 163 131
0.335938 -0.574219 0.053190 215 164 134
0.339844 -0.574219 0.051780 209 157 128
0.343750 -0.574219 0.050252 204 152 124
0.347656 -0.574219 0.048133 201 150 122
0.351562 -0.574219 0.045214 195 143 115
0.355469 -0.574219 0.041868 186 134 106
0.359375 -0.574219 0.038233 180 131 103
0.363281 -0.574219 0.033907 167 121 94
0.367188 -0.574219 0.028080 153 107 83
0.371094 -0.574219 0.020586 143 99 75
0.375000 -0.574219 0.012077 136 97 74
0.378906 -0.574219 0.003644 123 88 71
0.382812 -0.574219 -0.005817 131 104 87
-0.070312 -0.578125 -0.043960 38 31 39
-0.066406 -0.578125 -0.055410 121 89 76
-0.062500 -0.578125 -0.044409 152 108 86
-0.058594 -0.578125 -0.036738 167 123 95
-0.054688 -0.578125 -0.031001 172 127 97
-0.050781 -0.578125 -0.026276 181 136 105
-0.046875 -0.578125 -0.022563 182 138 106
-0.042969 -0.578125 -0.019810 183 139 107
-0.039062 -0.578125 -0.017988 182 138 106
-0.035156 -0.578125 -0.016473 176 132 101
-0.031250 -0.578125 -0.014754 171 127 97
-0.027344 -0.578125 -0.013760 170 125 95
