ply
    format ascii 1.0
    element vertex 66256
    property float x
    property float y
    property float z
    property uchar red
    property uchar green
    property uchar blue
    end_header
0.109375 -0.007812 -0.109279 16 39 125
0.113281 -0.007812 -0.107235 15 36 120
0.117188 -0.007812 -0.105207 16 39 124
0.121094 -0.007812 -0.103113 18 41 128
0.125000 -0.007812 -0.101017 19 43 131
0.128906 -0.007812 -0.098269 20 44 134
0.132812 -0.007812 -0.094950 19 42 130
0.136719 -0.007812 -0.091541 23 48 137
0.140625 -0.007812 -0.088083 26 51 140
0.144531 -0.007812 -0.084599 23 45 130
0.148438 -0.007812 -0.081070 25 47 130
0.152344 -0.007812 -0.077470 28 50 129
0.156250 -0.007812 -0.073833 28 48 121
0.160156 -0.007812 -0.069661 28 48 114
0.164062 -0.007812 -0.065103 26 43 101
0.167969 -0.007812 -0.060529 27 43 96
0.171875 -0.007812 -0.055554 28 42 89
0.175781 -0.007812 -0.050362 28 41 84
0.179688 -0.007812 -0.044196 24 36 71
0.183594 -0.007812 -0.037366 20 31 53
0.187500 -0.007812 -0.030098 28 34 48
0.191406 -0.007812 -0.020626 20 19 25
0.195312 -0.007812 -0.013729 26 20 21
0.199219 -0.007812 -0.011384 72 48 39
0.203125 -0.007812 -0.010914 97 61 47
0.207031 -0.007812 -0.011176 146 95 74
0.210938 -0.007812 -0.011583 173 113 87
0.214844 -0.007812 -0.011589 187 123 91
0.218750 -0.007812 -0.011612 207 146 109
0.222656 -0.007812 -0.010419 207 143 106
0.226562 -0.007812 -0.008006 206 140 104
0.230469 -0.007812 -0.005398 206 143 106
0.234375 -0.007812 -0.002139 200 142 106
0.238281 -0.007812 0.002157 172 124 93
0.242188 -0.007812 0.007192 147 118 92
0.246094 -0.007812 0.000065 200 142 106
-0.160156 -0.011719 -0.023427 175 110 75
-0.156250 -0.011719 -0.029338 147 110 88
-0.152344 -0.011719 -0.031864 164 108 74
-0.148438 -0.011719 -0.033528 175 110 75
-0.144531 -0.011719 -0.034752 189 120 84
-0.140625 -0.011719 -0.035744 204 134 96
-0.136719 -0.011719 -0.036056 217 147 107
-0.132812 -0.011719 -0.036049 225 157 115
-0.128906 -0.011719 -0.036325 231 166 122
-0.125000 -0.011719 -0.035963 232 167 123
-0.121094 -0.011719 -0.034369 232 169 125
-0.117188 -0.011719 -0.031913 226 160 118
-0.113281 -0.011719 -0.028202 217 154 115
-0.109375 -0.011719 -0.020643 191 129 99
-0.105469 -0.011719 -0.012127 105 68 65
-0.101562 -0.011719 -0.031365 58 54 70
-0.097656 -0.011719 -0.052994 44 60 98
-0.093750 -0.011719 -0.065080 30 53 115
-0.089844 -0.011719 -0.073911 26 50 125
-0.085938 -0.011719 -0.081342 24 47 123
-0.082031 -0.011719 -0.088186 22 43 119
-0.078125 -0.011719 -0.094060 21 43 120
-0.074219 -0.011719 -0.098635 20 42 121
-0.070312 -0.011719 -0.102742 20 43 123
-0.066406 -0.011719 -0.106758 20 44 125
-0.062500 -0.011719 -0.110518 19 43 124
-0.058594 -0.011719 -0.113880 19 42 124
-0.054688 -0.011719 -0.116929 18 42 125
-0.050781 -0.011719 -0.119804 19 44 129
-0.046875 -0.011719 -0.122310 18 44 131
-0.042969 -0.011719 -0.124234 17 41 127
-0.039062 -0.011719 -0.125754 16 40 127
-0.035156 -0.011719 -0.127165 16 41 129
-0.031250 -0.011719 -0.128488 16 41 130
-0.027344 -0.011719 -0.129709 16 40 129
-0.023438 -0.011719 -0.130790 17 41 131
-0.019531 -0.011719 -0.131747 17 42 132
-0.015625 -0.011719 -0.132596 18 43 135
-0.011719 -0.011719 -0.132932 18 43 135
-0.007812 -0.011719 -0.132955 18 43 136
-0.003906 -0.011719 -0.132873 19 46 142
0.000000 -0.011719 -0.132664 18 44 140
0.003906 -0.011719 -0.132504 20 48 146
0.007812 -0.011719 -0.132371 20 46 141
0.011719 -0.011719 -0.132144 19 43 133
0.015625 -0.011719 -0.131822 31 59 152
0.019531 -0.011719 -0.131474 32 55 141
0.023438 -0.011719 -0.131169 33 48 116
0.027344 -0.011719 -0.130851 45 51 107
0.031250 -0.011719 -0.130552 51 51 97
0.035156 -0.011719 -0.130305 50 50 93
0.039062 -0.011719 -0.130069 40 45 90
0.042969 -0.011719 -0.129782 43 54 108
0.046875 -0.011719 -0.129502 47 61 122
0.050781 -0.011719 -0.129102 42 59 126
0.054688 -0.011719 -0.128575 37 59 134
0.058594 -0.011719 -0.128020 24 45 124
0.062500 -0.011719 -0.127390 20 42 124
0.066406 -0.011719 -0.126601 21 46 133
0.070312 -0.011719 -0.125677 19 45 132
0.074219 -0.011719 -0.124661 19 44 132
0.078125 -0.011719 -0.123461 19 45 134
0.082031 -0.011719 -0.122260 19 45 135
0.085938 -0.011719 -0.121009 19 45 134
0.089844 -0.011719 -0.119606 18 43 132
0.093750 -0.011719 -0.118084 17 40 128
0.097656 -0.011719 -0.116316 16 39 126
0.101562 -0.011719 -0.114363 16 38 125
0.105469 -0.011719 -0.112314 16 39 125
0.109375 -0.011719 -0.110133 17 40 127
0.113281 -0.011719 -0.108062 17 41 127
0.117188 -0.011719 -0.106006 20 45 134
0.121094 -0.011719 -0.103919 21 46 136
0.125000 -0.011719 -0.101815 22 48 137
0.128906 -0.011719 -0.099043 23 50 141
0.132812 -0.011719 -0.095717 21 46 137
0.136719 -0.011719 -0.092285 25 51 142
0.140625 -0.011719 -0.088791 28 54 144
0.144531 -0.011719 -0.085303 25 49 135
0.148438 -0.011719 -0.081782 27 49 134
0.152344 -0.011719 -0.078177 26 48 128
0.156250 -0.011719 -0.074530 25 44 117
0.160156 -0.011719 -0.070335 25 44 111
0.164062 -0.011719 -0.065755 25 41 101
0.167969 -0.011719 -0.061166 25 40 93
0.171875 -0.011719 -0.056211 25 39 85
0.175781 -0.011719 -0.051073 27 40 81
0.179688 -0.011719 -0.044949 26 38 74
0.183594 -0.011719 -0.038090 23 34 58
0.187500 -0.011719 -0.030657 24 30 45
0.191406 -0.011719 -0.020444 18 17 24
0.195312 -0.011719 -0.011859 25 20 21
0.199219 -0.011719 -0.008659 63 41 34
0.203125 -0.011719 -0.008557 93 58 44
0.207031 -0.011719 -0.009022 146 95 73
0.210938 -0.011719 -0.009626 169 108 83
0.214844 -0.011719 -0.009854 184 120 89
0.218750 -0.011719 -0.010044 205 143 107
0.222656 -0.011719 -0.008919 205 141 104
0.226562 -0.011719 -0.006531 206 139 103
0.230469 -0.011719 -0.003920 205 142 105
0.234375 -0.011719 -0.000721 201 142 106
0.238281 -0.011719 0.003595 172 124 93
0.242188 -0.011719 0.008226 148 118 92
0.246094 -0.011719 -0.000027 201 142 106
-0.160156 -0.015625 -0.022871 175 110 75
-0.156250 -0.015625 -0.028607 147 111 89
-0.152344 -0.015625 -0.031089 165 108 75
-0.148438 -0.015625 -0.032783 175 110 75
-0.144531 -0.015625 -0.034006 189 120 84
-0.140625 -0.015625 -0.034971 204 134 96
-0.136719 -0.015625 -0.035215 216 146 106
-0.132812 -0.015625 -0.035095 225 156 114
-0.128906 -0.015625 -0.035363 231 164 120
-0.125000 -0.015625 -0.034928 232 166 122
-0.121094 -0.015625 -0.033052 232 167 123
-0.117188 -0.015625 -0.030726 225 157 117
-0.113281 -0.015625 -0.026902 216 156 118
-0.109375 -0.015625 -0.017044 182 123 96
-0.105469 -0.015625 -0.011247 95 66 66
-0.101562 -0.015625 -0.035633 62 63 83
-0.097656 -0.015625 -0.055977 40 58 100
-0.093750 -0.015625 -0.067033 26 47 108
-0.089844 -0.015625 -0.075610 26 50 125
-0.085938 -0.015625 -0.082965 23 45 121
-0.082031 -0.015625 -0.089719 20 40 114
-0.078125 -0.015625 -0.095514 19 40 115
-0.074219 -0.015625 -0.100050 20 41 118
-0.070312 -0.015625 -0.104160 20 43 121
-0.066406 -0.015625 -0.108136 19 43 122
-0.062500 -0.015625 -0.111846 18 42 121
-0.058594 -0.015625 -0.115183 18 41 121
-0.054688 -0.015625 -0.118221 17 41 122
-0.050781 -0.015625 -0.121082 18 43 127
-0.046875 -0.015625 -0.123577 17 43 128
-0.042969 -0.015625 -0.125492 16 41 126
-0.039062 -0.015625 -0.126994 16 41 128
-0.035156 -0.015625 -0.128390 17 41 129
-0.031250 -0.015625 -0.129696 17 42 130
-0.027344 -0.015625 -0.130909 16 41 129
-0.023438 -0.015625 -0.131982 17 42 130
-0.019531 -0.015625 -0.132913 18 42 131
-0.015625 -0.015625 -0.133732 18 43 132
-0.011719 -0.015625 -0.134057 18 42 132
-0.007812 -0.015625 -0.134062 18 42 133
-0.003906 -0.015625 -0.133961 20 46 139
0.000000 -0.015625 -0.133730 19 45 138
0.003906 -0.015625 -0.133532 21 49 144
0.007812 -0.015625 -0.133376 22 47 141
0.011719 -0.015625 -0.133116 21 44 132
0.015625 -0.015625 -0.132803 33 59 148
0.019531 -0.015625 -0.132485 38 60 138
0.023438 -0.015625 -0.132222 48 58 114
0.027344 -0.015625 -0.131964 85 74 111
0.031250 -0.015625 -0.131680 114 85 106
0.035156 -0.015625 -0.131473 116 88 105
0.039062 -0.015625 -0.131286 95 83 110
0.042969 -0.015625 -0.130994 102 103 140
0.046875 -0.015625 -0.130697 100 109 156
0.050781 -0.015625 -0.130316 66 84 144
0.054688 -0.015625 -0.129792 47 71 144
0.058594 -0.015625 -0.129213 30 54 135
0.062500 -0.015625 -0.128587 22 46 131
0.066406 -0.015625 -0.127802 22 48 137
0.070312 -0.015625 -0.126854 19 44 132
0.074219 -0.015625 -0.125818 18 42 130
0.078125 -0.015625 -0.124589 18 44 132
0.082031 -0.015625 -0.123347 18 43 130
0.085938 -0.015625 -0.122048 18 42 129
0.089844 -0.015625 -0.120591 17 41 129
0.093750 -0.015625 -0.119030 17 40 127
0.097656 -0.015625 -0.117210 17 41 128
0.101562 -0.015625 -0.115224 17 42 129
0.105469 -0.015625 -0.113140 18 42 130
0.109375 -0.015625 -0.110921 18 43 131
0.113281 -0.015625 -0.108838 20 45 134
0.117188 -0.015625 -0.106769 23 50 140
0.121094 -0.015625 -0.104684 23 49 140
0.125000 -0.015625 -0.102581 23 50 141
0.128906 -0.015625 -0.099798 24 50 143
0.132812 -0.015625 -0.096463 21 46 137
0.136719 -0.015625 -0.093018 23 48 139
0.140625 -0.015625 -0.089511 24 49 138
0.144531 -0.015625 -0.086017 22 44 130
0.148438 -0.015625 -0.082491 23 44 127
0.152344 -0.015625 -0.078876 22 42 120
0.156250 -0.015625 -0.075224 21 40 112
0.160156 -0.015625 -0.071009 22 41 108
0.164062 -0.015625 -0.066394 23 39 100
0.167969 -0.015625 -0.061791 23 38 92
0.171875 -0.015625 -0.056854 24 38 84
0.175781 -0.015625 -0.051750 27 40 82
0.179688 -0.015625 -0.045636 27 40 78
0.183594 -0.015625 -0.038751 25 37 65
0.187500 -0.015625 -0.031208 22 28 44
0.191406 -0.015625 -0.020421 16 15 22
0.195312 -0.015625 -0.010083 22 17 19
0.199219 -0.015625 -0.005875 53 35 29
0.203125 -0.015625 -0.006156 93 58 44
0.207031 -0.015625 -0.006810 145 93 71
0.210938 -0.015625 -0.007614 164 104 79
0.214844 -0.015625 -0.008069 182 118 88
0.218750 -0.015625 -0.008413 202 140 104
0.222656 -0.015625 -0.007371 204 139 103
0.226562 -0.015625 -0.005032 205 138 102
0.230469 -0.015625 -0.002438 205 142 105
0.234375 -0.015625 0.000692 201 142 105
0.238281 -0.015625 0.004978 173 125 93
0.242188 -0.015625 0.009276 148 118 93
0.246094 -0.015625 0.000279 201 142 105
-0.160156 -0.019531 -0.022210 175 110 75
-0.156250 -0.019531 -0.027810 148 111 89
-0.152344 -0.019531 -0.030315 165 108 75
-0.148438 -0.019531 -0.032049 175 110 75
-0.144531 -0.019531 -0.033262 189 120 84
-0.140625 -0.019531 -0.034217 204 134 95
-0.136719 -0.019531 -0.034412 216 146 105
-0.132812 -0.019531 -0.034170 224 155 113
-0.128906 -0.019531 -0.034449 230 162 118
-0.125000 -0.019531 -0.033968 233 166 121
-0.121094 -0.019531 -0.031843 232 165 122
-0.117188 -0.019531 -0.029924 223 155 116
-0.113281 -0.019531 -0.025707 216 158 120
-0.109375 -0.019531 -0.013754 172 118 93
-0.105469 -0.019531 -0.011245 84 62 65
-0.101562 -0.019531 -0.040009 61 65 87
-0.097656 -0.019531 -0.058557 34 51 94
-0.093750 -0.019531 -0.068813 22 40 100
-0.089844 -0.019531 -0.077354 24 47 122
-0.085938 -0.019531 -0.084615 21 41 115
-0.082031 -0.019531 -0.091223 18 37 108
-0.078125 -0.019531 -0.096894 18 38 110
-0.074219 -0.019531 -0.101426 19 40 114
-0.070312 -0.019531 -0.105545 19 42 118
-0.066406 -0.019531 -0.109467 18 41 119
-0.062500 -0.019531 -0.113115 17 40 119
-0.058594 -0.019531 -0.116428 17 39 119
-0.054688 -0.019531 -0.119454 16 39 119
-0.050781 -0.019531 -0.122308 17 41 123
-0.046875 -0.019531 -0.124797 17 41 126
-0.042969 -0.019531 -0.126698 16 41 126
-0.039062 -0.019531 -0.128182 17 42 128
-0.035156 -0.019531 -0.129573 17 41 127
-0.031250 -0.019531 -0.130865 17 42 128
-0.027344 -0.019531 -0.132064 17 42 129
-0.023438 -0.019531 -0.133131 17 42 129
-0.019531 -0.019531 -0.134046 18 41 129
-0.015625 -0.019531 -0.134828 18 41 129
-0.011719 -0.019531 -0.135142 18 41 128
-0.007812 -0.019531 -0.135144 17 40 127
-0.003906 -0.019531 -0.135016 19 43 132
0.000000 -0.019531 -0.134765 18 41 130
0.003906 -0.019531 -0.134552 18 42 132
0.007812 -0.019531 -0.134405 19 42 132
0.011719 -0.019531 -0.134119 18 39 122
0.015625 -0.019531 -0.133773 29 53 136
0.019531 -0.019531 -0.133434 41 62 133
0.023438 -0.019531 -0.133148 64 70 114
0.027344 -0.019531 -0.132892 112 86 105
0.031250 -0.019531 -0.132603 132 87 86
0.035156 -0.019531 -0.132404 119 79 79
0.039062 -0.019531 -0.132271 80 62 80
0.042969 -0.019531 -0.132036 64 64 98
0.046875 -0.019531 -0.131742 54 63 112
0.050781 -0.019531 -0.131370 34 49 107
0.054688 -0.019531 -0.130895 30 50 121
0.058594 -0.019531 -0.130318 24 46 126
0.062500 -0.019531 -0.129669 21 44 128
0.066406 -0.019531 -0.128896 22 49 138
0.070312 -0.019531 -0.127939 19 44 133
0.074219 -0.019531 -0.126882 18 42 130
0.078125 -0.019531 -0.125628 18 43 131
0.082031 -0.019531 -0.124351 17 41 127
0.085938 -0.019531 -0.123006 17 40 126
0.089844 -0.019531 -0.121488 18 41 128
0.093750 -0.019531 -0.119874 18 42 129
0.097656 -0.019531 -0.118006 19 45 132
0.101562 -0.019531 -0.115980 21 48 137
0.105469 -0.019531 -0.113857 22 50 139
0.109375 -0.019531 -0.111607 22 50 139
0.113281 -0.019531 -0.109528 22 49 139
0.117188 -0.019531 -0.107473 24 51 141
0.121094 -0.019531 -0.105386 23 51 141
0.125000 -0.019531 -0.103295 22 49 140
0.128906 -0.019531 -0.100530 21 46 138
0.132812 -0.019531 -0.097206 19 42 132
0.136719 -0.019531 -0.093765 19 42 132
0.140625 -0.019531 -0.090256 20 42 130
0.144531 -0.019531 -0.086772 19 39 123
0.148438 -0.019531 -0.083239 20 40 123
0.152344 -0.019531 -0.079614 20 40 119
0.156250 -0.019531 -0.075941 20 40 115
0.160156 -0.019531 -0.071685 22 41 111
0.164062 -0.019531 -0.067038 22 40 103
0.167969 -0.019531 -0.062429 24 39 96
0.171875 -0.019531 -0.057516 26 40 89
0.175781 -0.019531 -0.052466 28 41 86
0.179688 -0.019531 -0.046418 30 43 83
0.183594 -0.019531 -0.039505 29 42 73
0.187500 -0.019531 -0.031818 23 29 47
0.191406 -0.019531 -0.020554 16 16 24
0.195312 -0.019531 -0.008418 22 18 20
0.199219 -0.019531 -0.003118 52 34 28
0.203125 -0.019531 -0.003851 98 60 45
0.207031 -0.019531 -0.004609 142 90 67
0.210938 -0.019531 -0.005608 160 100 75
0.214844 -0.019531 -0.006299 179 116 87
0.218750 -0.019531 -0.006779 199 135 101
0.222656 -0.019531 -0.005845 203 137 102
0.226562 -0.019531 -0.003608 205 138 102
0.230469 -0.019531 -0.001068 205 141 104
0.234375 -0.019531 0.002061 201 142 105
0.238281 -0.019531 0.006297 174 125 93
0.242188 -0.019531 0.010220 149 118 93
0.246094 -0.019531 0.000748 201 142 105
-0.160156 -0.023438 -0.021413 176 110 75
-0.156250 -0.023438 -0.026981 148 111 89
-0.152344 -0.023438 -0.029522 165 108 75
-0.148438 -0.023438 -0.031304 176 110 75
-0.144531 -0.023438 -0.032551 189 120 84
-0.140625 -0.023438 -0.033496 204 133 95
-0.136719 -0.023438 -0.033625 216 145 105
-0.132812 -0.023438 -0.033276 224 154 112
-0.128906 -0.023438 -0.033569 230 161 117
-0.125000 -0.023438 -0.033037 233 165 120
-0.121094 -0.023438 -0.030743 232 163 121
-0.117188 -0.023438 -0.029188 223 153 115
-0.113281 -0.023438 -0.023978 216 160 122
-0.109375 -0.023438 -0.011064 167 115 91
-0.105469 -0.023438 -0.013148 70 55 60
-0.101562 -0.023438 -0.044219 50 57 83
-0.097656 -0.023438 -0.061126 29 45 90
-0.093750 -0.023438 -0.070589 20 38 96
-0.089844 -0.023438 -0.079041 23 46 119
-0.085938 -0.023438 -0.086142 19 38 109
-0.082031 -0.023438 -0.092670 17 34 103
-0.078125 -0.023438 -0.098254 17 36 106
-0.074219 -0.023438 -0.102773 18 38 110
-0.070312 -0.023438 -0.106906 19 40 115
-0.066406 -0.023438 -0.110780 18 41 118
-0.062500 -0.023438 -0.114374 17 41 119
-0.058594 -0.023438 -0.117664 17 40 120
-0.054688 -0.023438 -0.120671 16 39 120
-0.050781 -0.023438 -0.123512 16 40 121
-0.046875 -0.023438 -0.125992 16 40 123
-0.042969 -0.023438 -0.127881 17 41 126
-0.039062 -0.023438 -0.129351 17 42 127
-0.035156 -0.023438 -0.130732 16 40 124
-0.031250 -0.023438 -0.132005 17 42 127
-0.027344 -0.023438 -0.133189 18 42 129
-0.023438 -0.023438 -0.134242 17 41 127
-0.019531 -0.023438 -0.135135 17 41 127
-0.015625 -0.023438 -0.135896 18 41 128
-0.011719 -0.023438 -0.136194 18 41 128
-0.007812 -0.023438 -0.136185 17 40 127
-0.003906 -0.023438 -0.136044 19 43 131
0.000000 -0.023438 -0.135777 18 42 130
0.003906 -0.023438 -0.135551 19 43 132
0.007812 -0.023438 -0.135389 21 45 134
0.011719 -0.023438 -0.135111 19 40 124
0.015625 -0.023438 -0.134770 27 50 135
0.019531 -0.023438 -0.134418 43 63 136
0.023438 -0.023438 -0.134117 67 70 113
0.027344 -0.023438 -0.133835 105 79 93
0.031250 -0.023438 -0.133513 119 75 73
0.035156 -0.023438 -0.133322 102 67 67
0.039062 -0.023438 -0.133199 60 50 69
0.042969 -0.023438 -0.132966 38 45 83
0.046875 -0.023438 -0.132694 32 47 104
0.050781 -0.023438 -0.132321 27 46 113
0.054688 -0.023438 -0.131849 26 50 127
0.058594 -0.023438 -0.131308 21 44 126
0.062500 -0.023438 -0.130655 18 41 124
0.066406 -0.023438 -0.129875 20 46 134
0.070312 -0.023438 -0.128915 19 43 132
0.074219 -0.023438 -0.127847 18 42 130
0.078125 -0.023438 -0.126576 19 44 132
0.082031 -0.023438 -0.125262 18 42 129
0.085938 -0.023438 -0.123873 19 43 130
0.089844 -0.023438 -0.122316 21 47 135
0.093750 -0.023438 -0.120659 22 48 137
0.097656 -0.023438 -0.118751 22 49 137
0.101562 -0.023438 -0.116694 22 50 138
0.105469 -0.023438 -0.114533 22 49 139
0.109375 -0.023438 -0.112260 21 48 137
0.113281 -0.023438 -0.110165 20 45 134
0.117188 -0.023438 -0.108117 20 44 133
0.121094 -0.023438 -0.106031 20 44 133
0.125000 -0.023438 -0.103944 19 44 133
0.128906 -0.023438 -0.101181 18 41 129
0.132812 -0.023438 -0.097863 17 39 127
0.136719 -0.023438 -0.094429 18 40 129
0.140625 -0.023438 -0.090911 19 41 129
0.144531 -0.023438 -0.087430 19 40 126
0.148438 -0.023438 -0.083893 20 42 126
0.152344 -0.023438 -0.080273 21 43 124
0.156250 -0.023438 -0.076594 22 44 122
0.160156 -0.023438 -0.072324 23 45 119
0.164062 -0.023438 -0.067676 24 43 111
0.167969 -0.023438 -0.063087 24 42 102
0.171875 -0.023438 -0.058216 27 42 95
0.175781 -0.023438 -0.053252 28 41 88
0.179688 -0.023438 -0.047285 30 43 85
0.183594 -0.023438 -0.040375 29 42 74
0.187500 -0.023438 -0.032641 21 26 43
0.191406 -0.023438 -0.021011 17 17 26
0.195312 -0.023438 -0.007174 25 21 24
0.199219 -0.023438 -0.000399 57 37 31
0.203125 -0.023438 -0.001593 105 64 47
0.207031 -0.023438 -0.002440 137 85 63
0.210938 -0.023438 -0.003571 158 98 73
0.214844 -0.023438 -0.004482 178 114 86
0.218750 -0.023438 -0.005127 195 130 97
0.222656 -0.023438 -0.004305 201 136 101
0.226562 -0.023438 -0.002161 205 137 101
0.230469 -0.023438 0.000315 205 141 104
0.234375 -0.023438 0.003412 201 141 105
0.238281 -0.023438 0.007582 174 125 93
0.242188 -0.023438 0.011327 150 119 93
0.246094 -0.023438 0.001696 201 141 105
-0.160156 -0.027344 -0.020450 176 110 75
-0.156250 -0.027344 -0.026081 148 112 90
-0.152344 -0.027344 -0.028739 166 108 75
-0.148438 -0.027344 -0.030571 176 110 75
-0.144531 -0.027344 -0.031833 190 119 83
-0.140625 -0.027344 -0.032777 204 133 95
-0.136719 -0.027344 -0.032847 216 144 104
-0.132812 -0.027344 -0.032406 224 152 111
-0.128906 -0.027344 -0.032691 230 159 116
-0.125000 -0.027344 -0.032107 232 163 119
-0.121094 -0.027344 -0.029731 231 162 120
-0.117188 -0.027344 -0.028683 222 152 113
-0.113281 -0.027344 -0.022241 216 160 121
-0.109375 -0.027344 -0.008827 162 112 89
-0.105469 -0.027344 -0.017666 59 49 56
-0.101562 -0.027344 -0.047996 42 52 81
-0.097656 -0.027344 -0.063441 26 44 92
-0.093750 -0.027344 -0.072288 20 39 99
-0.089844 -0.027344 -0.080727 24 47 119
-0.085938 -0.027344 -0.087681 18 37 108
-0.082031 -0.027344 -0.094081 16 34 103
-0.078125 -0.027344 -0.099593 17 36 105
-0.074219 -0.027344 -0.104104 17 36 107
-0.070312 -0.027344 -0.108235 18 39 114
-0.066406 -0.027344 -0.112055 18 41 118
-0.062500 -0.027344 -0.115596 18 42 121
-0.058594 -0.027344 -0.118863 18 42 122
-0.054688 -0.027344 -0.121847 17 40 121
-0.050781 -0.027344 -0.124665 16 39 120
-0.046875 -0.027344 -0.127132 16 39 121
-0.042969 -0.027344 -0.129014 16 41 125
-0.039062 -0.027344 -0.130478 17 42 126
-0.035156 -0.027344 -0.131845 16 40 123
-0.031250 -0.027344 -0.133095 17 42 127
-0.027344 -0.027344 -0.134265 18 43 129
-0.023438 -0.027344 -0.135305 17 41 126
-0.019531 -0.027344 -0.136173 17 40 126
-0.015625 -0.027344 -0.136915 17 40 127
-0.011719 -0.027344 -0.137198 17 40 127
-0.007812 -0.027344 -0.137175 17 40 126
-0.003906 -0.027344 -0.137011 18 42 130
0.000000 -0.027344 -0.136725 18 42 130
0.003906 -0.027344 -0.136480 18 42 131
0.007812 -0.027344 -0.136281 20 44 133
0.011719 -0.027344 -0.135990 18 38 123
0.015625 -0.027344 -0.135670 21 42 127
0.019531 -0.027344 -0.135283 33 54 130
0.023438 -0.027344 -0.134956 51 59 109
0.027344 -0.027344 -0.134649 87 71 98
0.031250 -0.027344 -0.134303 120 87 96
0.035156 -0.027344 -0.134108 110 85 94
0.039062 -0.027344 -0.133993 69 70 101
0.042969 -0.027344 -0.133762 47 66 120
0.046875 -0.027344 -0.133516 38 66 137
0.050781 -0.027344 -0.133184 34 64 145
0.054688 -0.027344 -0.132705 31 62 147
0.058594 -0.027344 -0.132175 22 47 132
0.062500 -0.027344 -0.131545 18 40 123
0.066406 -0.027344 -0.130771 20 46 133
0.070312 -0.027344 -0.129807 20 46 134
0.074219 -0.027344 -0.128737 19 45 133
0.078125 -0.027344 -0.127458 20 47 135
0.082031 -0.027344 -0.126123 20 45 133
0.085938 -0.027344 -0.124693 20 45 133
0.089844 -0.027344 -0.123102 21 48 135
0.093750 -0.027344 -0.121418 21 48 135
0.097656 -0.027344 -0.119473 20 46 133
0.101562 -0.027344 -0.117380 19 44 130
0.105469 -0.027344 -0.115189 18 42 128
0.109375 -0.027344 -0.112884 18 41 128
0.113281 -0.027344 -0.110751 17 40 127
0.117188 -0.027344 -0.108692 16 38 125
0.121094 -0.027344 -0.106605 17 40 128
0.125000 -0.027344 -0.104525 18 41 131
0.128906 -0.027344 -0.101760 17 40 130
0.132812 -0.027344 -0.098443 18 41 131
0.136719 -0.027344 -0.095029 19 44 135
0.140625 -0.027344 -0.091514 21 46 136
0.144531 -0.027344 -0.088043 22 46 135
0.148438 -0.027344 -0.084504 22 46 133
0.152344 -0.027344 -0.080889 23 47 131
0.156250 -0.027344 -0.077221 24 48 130
0.160156 -0.027344 -0.072962 24 48 125
0.164062 -0.027344 -0.068317 24 45 116
0.167969 -0.027344 -0.063765 24 42 106
0.171875 -0.027344 -0.058979 26 42 98
0.175781 -0.027344 -0.054111 25 38 85
0.179688 -0.027344 -0.048197 28 40 83
0.183594 -0.027344 -0.041322 26 36 68
0.187500 -0.027344 -0.033655 18 23 41
0.191406 -0.027344 -0.021814 23 24 36
0.195312 -0.027344 -0.006396 30 25 29
0.199219 -0.027344 0.001879 52 33 29
0.203125 -0.027344 0.000692 99 59 45
0.207031 -0.027344 -0.000311 129 79 59
0.210938 -0.027344 -0.001584 155 97 72
0.214844 -0.027344 -0.002671 176 114 85
0.218750 -0.027344 -0.003468 191 126 95
0.222656 -0.027344 -0.002756 200 134 99
0.226562 -0.027344 -0.000731 204 137 101
0.230469 -0.027344 0.001659 205 140 103
0.234375 -0.027344 0.004828 201 141 104
0.238281 -0.027344 0.008969 175 125 93
0.242188 -0.027344 0.012609 151 119 93
0.246094 -0.027344 0.002830 201 141 104
-0.160156 -0.031250 -0.019135 176 110 75
-0.156250 -0.031250 -0.025098 148 112 90
-0.152344 -0.031250 -0.027916 166 108 75
-0.148438 -0.031250 -0.029806 176 110 75
-0.144531 -0.031250 -0.031108 189 119 83
-0.140625 -0.031250 -0.032050 204 132 94
-0.136719 -0.031250 -0.032060 215 143 103
-0.132812 -0.031250 -0.031516 224 151 110
-0.128906 -0.031250 -0.031774 230 158 115
-0.125000 -0.031250 -0.031207 232 161 118
-0.121094 -0.031250 -0.028790 231 160 119
-0.117188 -0.031250 -0.027942 221 151 112
-0.113281 -0.031250 -0.020506 214 157 119
-0.109375 -0.031250 -0.009429 157 110 87
-0.105469 -0.031250 -0.025373 55 48 57
-0.101562 -0.031250 -0.051391 40 51 85
-0.097656 -0.031250 -0.065535 26 45 98
-0.093750 -0.031250 -0.074078 20 38 100
-0.089844 -0.031250 -0.082326 22 44 116
-0.085938 -0.031250 -0.089144 18 37 107
-0.082031 -0.031250 -0.095438 17 36 106
-0.078125 -0.031250 -0.100886 18 38 109
-0.074219 -0.031250 -0.105382 18 39 111
-0.070312 -0.031250 -0.109504 18 40 115
-0.066406 -0.031250 -0.113284 18 41 117
-0.062500 -0.031250 -0.116784 17 41 119
-0.058594 -0.031250 -0.120038 17 41 120
-0.054688 -0.031250 -0.122999 17 41 121
-0.050781 -0.031250 -0.125792 16 40 122
-0.046875 -0.031250 -0.128252 16 40 123
-0.042969 -0.031250 -0.130128 17 41 124
-0.039062 -0.031250 -0.131583 16 40 124
-0.035156 -0.031250 -0.132943 16 39 122
-0.031250 -0.031250 -0.134176 17 40 124
-0.027344 -0.031250 -0.135330 17 41 125
-0.023438 -0.031250 -0.136353 16 40 124
-0.019531 -0.031250 -0.137195 16 40 125
-0.015625 -0.031250 -0.137905 16 39 125
-0.011719 -0.031250 -0.138166 16 39 126
-0.007812 -0.031250 -0.138137 17 40 127
-0.003906 -0.031250 -0.137959 17 41 129
0.000000 -0.031250 -0.137650 17 41 129
0.003906 -0.031250 -0.137380 17 41 129
0.007812 -0.031250 -0.137143 18 42 131
0.011719 -0.031250 -0.136825 16 36 122
0.015625 -0.031250 -0.136485 16 35 121
0.019531 -0.031250 -0.136070 26 48 130
0.023438 -0.031250 -0.135701 35 51 115
0.027344 -0.031250 -0.135347 50 53 98
0.031250 -0.031250 -0.135001 75 67 99
0.035156 -0.031250 -0.134800 65 63 96
0.039062 -0.031250 -0.134672 42 53 103
0.042969 -0.031250 -0.134451 31 53 121
0.046875 -0.031250 -0.134196 22 46 123
0.050781 -0.031250 -0.133868 21 44 125
0.054688 -0.031250 -0.133410 23 48 132
0.058594 -0.031250 -0.132904 20 43 126
0.062500 -0.031250 -0.132301 19 41 123
0.066406 -0.031250 -0.131549 21 47 132
0.070312 -0.031250 -0.130587 21 46 134
0.074219 -0.031250 -0.129515 20 45 132
0.078125 -0.031250 -0.128220 20 46 135
0.082031 -0.031250 -0.126866 20 46 134
0.085938 -0.031250 -0.125406 19 45 132
0.089844 -0.031250 -0.123776 19 43 130
0.093750 -0.031250 -0.122055 18 42 127
0.097656 -0.031250 -0.120080 17 40 125
0.101562 -0.031250 -0.117953 16 39 123
0.105469 -0.031250 -0.115716 16 38 122
0.109375 -0.031250 -0.113388 16 39 126
0.113281 -0.031250 -0.111231 17 40 129
0.117188 -0.031250 -0.109168 17 40 129
0.121094 -0.031250 -0.107074 18 42 132
0.125000 -0.031250 -0.104998 19 44 135
0.128906 -0.031250 -0.102246 19 43 134
0.132812 -0.031250 -0.098951 20 45 136
0.136719 -0.031250 -0.095568 21 47 138
0.140625 -0.031250 -0.092070 22 48 139
0.144531 -0.031250 -0.088618 23 49 139
0.148438 -0.031250 -0.085088 23 48 136
0.152344 -0.031250 -0.081485 25 50 136
0.156250 -0.031250 -0.077832 25 51 134
0.160156 -0.031250 -0.073603 24 48 126
0.164062 -0.031250 -0.068989 22 44 117
0.167969 -0.031250 -0.064486 23 42 108
0.171875 -0.031250 -0.059779 25 41 99
0.175781 -0.031250 -0.055024 22 34 82
0.179688 -0.031250 -0.049236 26 38 80
0.183594 -0.031250 -0.042436 23 32 64
0.187500 -0.031250 -0.034811 20 25 47
0.191406 -0.031250 -0.022895 40 44 63
0.195312 -0.031250 -0.006129 36 33 39
0.199219 -0.031250 0.003709 39 27 25
0.203125 -0.031250 0.002931 85 52 40
0.207031 -0.031250 0.001780 120 74 54
0.210938 -0.031250 0.000386 154 96 70
0.214844 -0.031250 -0.000803 175 113 85
0.218750 -0.031250 -0.001762 188 123 92
0.222656 -0.031250 -0.001169 199 133 98
0.226562 -0.031250 0.000739 204 137 100
0.230469 -0.031250 0.003061 204 140 103
0.234375 -0.031250 0.006195 202 141 104
0.238281 -0.031250 0.010195 175 125 92
0.242188 -0.031250 0.013623 151 119 92
0.246094 -0.031250 0.003320 202 141 104
-0.160156 -0.035156 -0.017677 176 109 75
-0.156250 -0.035156 -0.023971 148 112 90
-0.152344 -0.035156 -0.027041 165 107 75
-0.148438 -0.035156 -0.029020 176 109 75
-0.144531 -0.035156 -0.030377 189 118 83
-0.140625 -0.035156 -0.031313 203 131 94
-0.136719 -0.035156 -0.031271 215 142 103
-0.132812 -0.035156 -0.030620 223 150 109
-0.128906 -0.035156 -0.030823 229 156 114
-0.125000 -0.035156 -0.030291 232 160 116
-0.121094 -0.035156 -0.027864 231 160 118
-0.117188 -0.035156 -0.027118 221 151 111
-0.113281 -0.035156 -0.019352 210 153 114
-0.109375 -0.035156 -0.015172 149 105 84
-0.105469 -0.035156 -0.033615 51 47 57
-0.101562 -0.035156 -0.054611 38 50 87
-0.097656 -0.035156 -0.067621 27 46 103
-0.093750 -0.035156 -0.075979 20 38 101
-0.089844 -0.035156 -0.083894 21 43 112
-0.085938 -0.035156 -0.090574 18 38 108
-0.082031 -0.035156 -0.096747 18 38 108
-0.078125 -0.035156 -0.102130 19 41 112
-0.074219 -0.035156 -0.106618 19 41 114
-0.070312 -0.035156 -0.110724 19 42 118
-0.066406 -0.035156 -0.114455 18 41 118
-0.062500 -0.035156 -0.117918 17 41 118
-0.058594 -0.035156 -0.121157 17 41 119
-0.054688 -0.035156 -0.124097 17 41 122
-0.050781 -0.035156 -0.126866 17 42 124
-0.046875 -0.035156 -0.129317 17 41 124
-0.042969 -0.035156 -0.131191 16 40 124
-0.039062 -0.035156 -0.132637 16 40 123
-0.035156 -0.035156 -0.133992 16 39 122
-0.031250 -0.035156 -0.135206 16 39 122
-0.027344 -0.035156 -0.136332 16 39 123
-0.023438 -0.035156 -0.137330 16 40 125
-0.019531 -0.035156 -0.138144 17 41 127
-0.015625 -0.035156 -0.138816 16 40 127
-0.011719 -0.035156 -0.139050 16 40 128
-0.007812 -0.035156 -0.139005 17 40 128
-0.003906 -0.035156 -0.138813 16 39 126
0.000000 -0.035156 -0.138490 17 40 128
0.003906 -0.035156 -0.138183 18 42 132
0.007812 -0.035156 -0.137907 19 44 136
0.011719 -0.035156 -0.137577 18 40 132
0.015625 -0.035156 -0.137219 16 37 128
0.019531 -0.035156 -0.136777 27 53 145
0.023438 -0.035156 -0.136376 33 55 137
0.027344 -0.035156 -0.135979 29 42 103
0.031250 -0.035156 -0.135596 40 49 100
0.035156 -0.035156 -0.135402 38 49 102
0.039062 -0.035156 -0.135301 30 46 111
0.042969 -0.035156 -0.135089 29 51 129
0.046875 -0.035156 -0.134831 22 44 126
0.050781 -0.035156 -0.134496 22 45 127
0.054688 -0.035156 -0.134026 26 52 136
0.058594 -0.035156 -0.133524 25 50 134
0.062500 -0.035156 -0.132937 23 47 130
0.066406 -0.035156 -0.132190 21 45 130
0.070312 -0.035156 -0.131234 18 40 125
0.074219 -0.035156 -0.130181 16 38 123
0.078125 -0.035156 -0.128880 17 40 127
0.082031 -0.035156 -0.127509 18 42 130
0.085938 -0.035156 -0.126034 18 41 129
0.089844 -0.035156 -0.124388 17 40 126
0.093750 -0.035156 -0.122641 16 38 124
0.097656 -0.035156 -0.120639 16 38 124
0.101562 -0.035156 -0.118487 16 38 124
0.105469 -0.035156 -0.116203 16 38 124
0.109375 -0.035156 -0.113839 17 40 128
0.113281 -0.035156 -0.111662 18 43 133
0.117188 -0.035156 -0.109582 19 44 135
0.121094 -0.035156 -0.107473 20 45 137
0.125000 -0.035156 -0.105380 21 46 138
0.128906 -0.035156 -0.102643 21 46 138
0.132812 -0.035156 -0.099389 22 48 140
0.136719 -0.035156 -0.096034 23 49 141
0.140625 -0.035156 -0.092569 23 49 140
0.144531 -0.035156 -0.089141 24 50 141
0.148438 -0.035156 -0.085635 24 49 138
0.152344 -0.035156 -0.082056 25 50 137
0.156250 -0.035156 -0.078417 25 50 135
0.160156 -0.035156 -0.074239 22 45 125
0.164062 -0.035156 -0.069701 21 42 116
0.167969 -0.035156 -0.065263 22 41 108
0.171875 -0.035156 -0.060610 23 40 100
0.175781 -0.035156 -0.055984 20 32 80
0.179688 -0.035156 -0.050388 25 37 79
0.183594 -0.035156 -0.043700 22 30 63
0.187500 -0.035156 -0.036133 19 25 50
0.191406 -0.035156 -0.024206 47 53 78
0.195312 -0.035156 -0.006265 35 34 42
0.199219 -0.035156 0.005372 31 24 22
0.203125 -0.035156 0.004995 76 50 38
0.207031 -0.035156 0.003730 114 71 52
0.210938 -0.035156 0.002300 152 96 69
0.214844 -0.035156 0.001024 173 113 84
0.218750 -0.035156 -0.000050 186 121 90
0.222656 -0.035156 0.000468 197 132 96
0.226562 -0.035156 0.002301 203 137 100
0.230469 -0.035156 0.004544 204 140 103
0.234375 -0.035156 0.007432 201 141 103
0.238281 -0.035156 0.011402 175 124 92
0.242188 -0.035156 0.014654 151 118 92
0.246094 -0.035156 0.002534 201 141 103
-0.156250 -0.039062 -0.023076 148 112 90
-0.152344 -0.039062 -0.026199 165 107 75
-0.148438 -0.039062 -0.028246 176 109 75
-0.144531 -0.039062 -0.029639 189 118 82
-0.140625 -0.039062 -0.030558 203 130 93
-0.136719 -0.039062 -0.030453 214 141 102
-0.132812 -0.039062 -0.029694 223 149 108
-0.128906 -0.039062 -0.029812 229 155 112
-0.125000 -0.039062 -0.029339 231 158 115
-0.121094 -0.039062 -0.026927 230 159 118
-0.117188 -0.039062 -0.026280 220 151 111
-0.113281 -0.039062 -0.018803 205 145 108
-0.109375 -0.039062 -0.019613 143 99 82
-0.105469 -0.039062 -0.039105 49 47 60
-0.101562 -0.039062 -0.057347 34 47 86
-0.097656 -0.039062 -0.069344 27 47 106
-0.093750 -0.039062 -0.077658 21 41 105
-0.089844 -0.039062 -0.085408 21 42 111
-0.085938 -0.039062 -0.091962 19 39 108
-0.082031 -0.039062 -0.098011 19 40 111
-0.078125 -0.039062 -0.103324 19 41 113
-0.074219 -0.039062 -0.107791 19 41 113
-0.070312 -0.039062 -0.111871 19 42 117
-0.066406 -0.039062 -0.115563 17 41 118
-0.062500 -0.039062 -0.119003 17 41 119
-0.058594 -0.039062 -0.122224 17 41 121
-0.054688 -0.039062 -0.125147 17 42 122
-0.050781 -0.039062 -0.127903 17 42 123
-0.046875 -0.039062 -0.130348 16 40 122
-0.042969 -0.039062 -0.132227 16 39 121
-0.039062 -0.039062 -0.133677 16 39 123
-0.035156 -0.039062 -0.135027 16 40 124
-0.031250 -0.039062 -0.136223 16 39 124
-0.027344 -0.039062 -0.137333 16 40 125
-0.023438 -0.039062 -0.138309 17 41 127
-0.019531 -0.039062 -0.139091 16 40 127
-0.015625 -0.039062 -0.139727 16 39 126
-0.011719 -0.039062 -0.139934 16 40 128
-0.007812 -0.039062 -0.139865 16 39 127
-0.003906 -0.039062 -0.139645 15 36 121
0.000000 -0.039062 -0.139304 15 38 124
0.003906 -0.039062 -0.138971 17 40 129
0.007812 -0.039062 -0.138647 17 40 130
0.011719 -0.039062 -0.138283 16 37 127
0.015625 -0.039062 -0.137912 14 32 119
0.019531 -0.039062 -0.137419 24 48 141
0.023438 -0.039062 -0.136948 32 57 146
0.027344 -0.039062 -0.136485 25 42 114
0.031250 -0.039062 -0.136066 36 51 114
0.035156 -0.039062 -0.135844 40 54 114
0.039062 -0.039062 -0.135755 31 44 105
0.042969 -0.039062 -0.135565 29 44 111
0.046875 -0.039062 -0.135304 22 38 105
0.050781 -0.039062 -0.134986 22 39 108
0.054688 -0.039062 -0.134524 26 47 122
0.058594 -0.039062 -0.134005 26 49 127
0.062500 -0.039062 -0.133417 23 45 125
0.066406 -0.039062 -0.132694 19 42 124
0.070312 -0.039062 -0.131744 16 38 121
0.074219 -0.039062 -0.130689 15 37 121
0.078125 -0.039062 -0.129394 16 39 126
0.082031 -0.039062 -0.128011 17 41 128
0.085938 -0.039062 -0.126514 16 39 126
0.089844 -0.039062 -0.124850 16 38 125
0.093750 -0.039062 -0.123084 15 38 125
0.097656 -0.039062 -0.121048 16 38 125
0.101562 -0.039062 -0.118864 17 40 127
0.105469 -0.039062 -0.116556 17 40 129
0.109375 -0.039062 -0.114167 18 42 133
0.113281 -0.039062 -0.111984 20 45 138
0.117188 -0.039062 -0.109907 21 46 140
0.121094 -0.039062 -0.107802 22 48 142
0.125000 -0.039062 -0.105715 23 50 144
0.128906 -0.039062 -0.103005 24 50 145
0.132812 -0.039062 -0.099798 25 52 146
0.136719 -0.039062 -0.096481 24 51 144
0.140625 -0.039062 -0.093060 24 49 142
0.144531 -0.039062 -0.089666 24 50 142
0.148438 -0.039062 -0.086187 23 48 137
0.152344 -0.039062 -0.082633 23 48 135
0.156250 -0.039062 -0.079009 23 48 132
0.160156 -0.039062 -0.074877 21 44 124
0.164062 -0.039062 -0.070410 21 42 117
0.167969 -0.039062 -0.066041 21 40 108
0.171875 -0.039062 -0.061461 21 38 98
0.175781 -0.039062 -0.056959 19 31 80
0.179688 -0.039062 -0.051552 26 39 84
0.183594 -0.039062 -0.045059 23 33 69
0.187500 -0.039062 -0.037618 19 26 53
0.191406 -0.039062 -0.025983 39 47 73
0.195312 -0.039062 -0.007804 27 28 37
0.199219 -0.039062 0.006387 28 22 21
0.203125 -0.039062 0.006821 74 49 38
0.207031 -0.039062 0.005509 110 68 50
0.210938 -0.039062 0.004147 148 93 66
0.214844 -0.039062 0.002885 172 112 82
0.218750 -0.039062 0.001741 185 121 90
0.222656 -0.039062 0.002164 197 131 96
0.226562 -0.039062 0.003881 203 137 100
0.230469 -0.039062 0.006016 204 140 103
0.234375 -0.039062 0.008880 202 141 103
0.238281 -0.039062 0.012723 175 124 92
0.242188 -0.039062 0.016140 150 117 91
0.246094 -0.039062 -0.000845 202 141 103
-0.156250 -0.042969 -0.022193 148 112 90
-0.152344 -0.042969 -0.025341 165 107 74
-0.148438 -0.042969 -0.027389 175 108 75
-0.144531 -0.042969 -0.028839 188 117 82
-0.140625 -0.042969 -0.029777 202 129 93
-0.136719 -0.042969 -0.029595 214 140 101
-0.132812 -0.042969 -0.028711 222 147 107
-0.128906 -0.042969 -0.028719 228 153 111
-0.125000 -0.042969 -0.028340 230 156 113
-0.121094 -0.042969 -0.025941 229 158 117
-0.117188 -0.042969 -0.025197 219 151 113
-0.113281 -0.042969 -0.018742 198 138 104
-0.109375 -0.042969 -0.023616 132 91 78
-0.105469 -0.042969 -0.043061 48 45 60
-0.101562 -0.042969 -0.059200 32 45 86
-0.097656 -0.042969 -0.070878 27 49 110
-0.093750 -0.042969 -0.079230 22 42 108
-0.089844 -0.042969 -0.086806 20 40 108
-0.085938 -0.042969 -0.093237 18 39 108
-0.082031 -0.042969 -0.099198 20 41 113
-0.078125 -0.042969 -0.104471 20 42 114
-0.074219 -0.042969 -0.108905 18 40 113
-0.070312 -0.042969 -0.112939 18 42 117
-0.066406 -0.042969 -0.116594 18 41 119
-0.062500 -0.042969 -0.120022 17 41 120
-0.058594 -0.042969 -0.123223 17 42 121
-0.054688 -0.042969 -0.126130 16 41 121
-0.050781 -0.042969 -0.128876 16 40 120
-0.046875 -0.042969 -0.131319 16 39 121
-0.042969 -0.042969 -0.133206 15 38 120
-0.039062 -0.042969 -0.134660 15 38 121
-0.035156 -0.042969 -0.136003 16 39 123
-0.031250 -0.042969 -0.137182 16 39 124
-0.027344 -0.042969 -0.138276 16 40 125
-0.023438 -0.042969 -0.139226 17 41 127
-0.019531 -0.042969 -0.139975 16 39 125
-0.015625 -0.042969 -0.140573 15 38 124
-0.011719 -0.042969 -0.140749 16 40 127
-0.007812 -0.042969 -0.140660 16 40 128
-0.003906 -0.042969 -0.140410 15 37 123
0.000000 -0.042969 -0.140036 16 39 126
0.003906 -0.042969 -0.139684 17 41 129
0.007812 -0.042969 -0.139317 16 39 127
0.011719 -0.042969 -0.138898 16 37 125
0.015625 -0.042969 -0.138501 14 32 117
0.019531 -0.042969 -0.137986 22 45 136
0.023438 -0.042969 -0.137481 30 56 144
0.027344 -0.042969 -0.136997 24 39 108
0.031250 -0.042969 -0.136580 34 43 98
0.035156 -0.042969 -0.136345 40 43 88
0.039062 -0.042969 -0.136205 29 31 68
0.042969 -0.042969 -0.135982 27 31 70
0.046875 -0.042969 -0.135697 27 36 83
0.050781 -0.042969 -0.135337 29 43 99
0.054688 -0.042969 -0.134863 29 47 111
0.058594 -0.042969 -0.134365 25 45 116
0.062500 -0.042969 -0.133777 20 40 115
0.066406 -0.042969 -0.133061 18 40 121
0.070312 -0.042969 -0.132121 17 39 124
0.074219 -0.042969 -0.131051 16 38 124
0.078125 -0.042969 -0.129752 17 40 128
0.082031 -0.042969 -0.128364 16 40 128
0.085938 -0.042969 -0.126852 15 38 125
0.089844 -0.042969 -0.125169 16 39 126
0.093750 -0.042969 -0.123384 16 40 129
0.097656 -0.042969 -0.121330 17 41 130
0.101562 -0.042969 -0.119118 19 43 133
0.105469 -0.042969 -0.116790 20 45 136
0.109375 -0.042969 -0.114391 22 47 140
0.113281 -0.042969 -0.112217 22 49 143
0.117188 -0.042969 -0.110162 22 47 141
0.121094 -0.042969 -0.108076 23 49 143
0.125000 -0.042969 -0.106010 24 52 147
0.128906 -0.042969 -0.103321 24 52 146
0.132812 -0.042969 -0.100157 24 51 146
0.136719 -0.042969 -0.096886 23 49 142
0.140625 -0.042969 -0.093512 21 45 137
0.144531 -0.042969 -0.090156 21 45 137
0.148438 -0.042969 -0.086709 21 45 135
0.152344 -0.042969 -0.083194 21 44 132
0.156250 -0.042969 -0.079604 21 44 129
0.160156 -0.042969 -0.075527 20 44 124
0.164062 -0.042969 -0.071129 20 42 118
0.167969 -0.042969 -0.066825 20 39 106
0.171875 -0.042969 -0.062316 20 37 98
0.175781 -0.042969 -0.057927 19 33 85
0.179688 -0.042969 -0.052655 26 40 89
0.183594 -0.042969 -0.046380 26 38 79
0.187500 -0.042969 -0.039186 20 30 60
0.191406 -0.042969 -0.028135 31 39 66
0.195312 -0.042969 -0.010412 21 23 32
0.199219 -0.042969 0.006779 26 21 21
0.203125 -0.042969 0.008388 70 46 36
0.207031 -0.042969 0.007138 105 64 47
0.210938 -0.042969 0.005983 143 88 62
0.214844 -0.042969 0.004755 169 109 80
0.218750 -0.042969 0.003576 185 121 90
0.222656 -0.042969 0.003902 197 131 95
0.226562 -0.042969 0.005532 204 137 100
0.230469 -0.042969 0.007454 205 140 103
0.234375 -0.042969 0.010266 202 141 103
0.238281 -0.042969 0.013516 175 124 91
0.242188 -0.042969 0.018563 151 119 92
-0.156250 -0.046875 -0.020821 147 111 90
-0.152344 -0.046875 -0.024442 164 106 74
-0.148438 -0.046875 -0.026625 174 108 75
-0.144531 -0.046875 -0.027983 187 116 81
-0.140625 -0.046875 -0.028962 201 128 92
-0.136719 -0.046875 -0.028723 213 138 100
-0.132812 -0.046875 -0.027703 221 145 106
-0.128906 -0.046875 -0.027545 228 152 111
-0.125000 -0.046875 -0.027270 229 154 111
-0.121094 -0.046875 -0.024989 228 157 116
-0.117188 -0.046875 -0.024089 219 153 115
-0.113281 -0.046875 -0.018980 187 128 98
-0.109375 -0.046875 -0.027239 101 69 62
-0.105469 -0.046875 -0.046627 34 33 46
-0.101562 -0.046875 -0.061211 27 38 77
-0.097656 -0.046875 -0.072455 27 49 110
-0.093750 -0.046875 -0.080728 22 43 109
-0.089844 -0.046875 -0.088197 19 39 107
-0.085938 -0.046875 -0.094509 19 40 110
-0.082031 -0.046875 -0.100343 20 42 115
-0.078125 -0.046875 -0.105571 19 42 115
-0.074219 -0.046875 -0.109977 18 41 115
-0.070312 -0.046875 -0.113963 18 42 118
-0.066406 -0.046875 -0.117581 18 42 120
-0.062500 -0.046875 -0.120986 17 42 121
-0.058594 -0.046875 -0.124169 17 41 121
-0.054688 -0.046875 -0.127069 16 39 118
-0.050781 -0.046875 -0.129808 15 39 119
-0.046875 -0.046875 -0.132251 16 40 122
-0.042969 -0.046875 -0.134145 15 39 120
-0.039062 -0.046875 -0.135594 15 38 120
-0.035156 -0.046875 -0.136934 15 39 122
-0.031250 -0.046875 -0.138099 16 38 122
-0.027344 -0.046875 -0.139174 16 39 124
-0.023438 -0.046875 -0.140102 17 41 127
-0.019531 -0.046875 -0.140819 16 39 125
-0.015625 -0.046875 -0.141382 16 39 125
-0.011719 -0.046875 -0.141527 16 40 128
-0.007812 -0.046875 -0.141411 16 40 127
-0.003906 -0.046875 -0.141136 16 39 124
0.000000 -0.046875 -0.140725 17 40 127
0.003906 -0.046875 -0.140333 17 41 128
0.007812 -0.046875 -0.139918 17 40 128
0.011719 -0.046875 -0.139444 18 41 132
0.015625 -0.046875 -0.139020 16 37 124
0.019531 -0.046875 -0.138456 23 48 136
0.023438 -0.046875 -0.137915 33 58 140
0.027344 -0.046875 -0.137410 30 41 101
0.031250 -0.046875 -0.136943 47 47 84
0.035156 -0.046875 -0.136699 66 53 77
0.039062 -0.046875 -0.136569 55 42 62
0.042969 -0.046875 -0.136321 54 47 73
0.046875 -0.046875 -0.136021 72 74 114
0.050781 -0.046875 -0.135637 73 87 139
0.054688 -0.046875 -0.135122 49 68 131
0.058594 -0.046875 -0.134627 30 51 121
0.062500 -0.046875 -0.134035 20 40 115
0.066406 -0.046875 -0.133287 18 39 121
0.070312 -0.046875 -0.132341 17 41 126
0.074219 -0.046875 -0.131272 16 39 126
0.078125 -0.046875 -0.129970 17 41 129
0.082031 -0.046875 -0.128570 16 40 127
0.085938 -0.046875 -0.127048 16 39 126
0.089844 -0.046875 -0.125351 17 42 132
0.093750 -0.046875 -0.123550 19 46 138
0.097656 -0.046875 -0.121489 19 45 137
0.101562 -0.046875 -0.119270 20 46 139
0.105469 -0.046875 -0.116938 22 48 141
0.109375 -0.046875 -0.114530 23 49 143
0.113281 -0.046875 -0.112370 23 49 143
0.117188 -0.046875 -0.110340 21 46 139
0.121094 -0.046875 -0.108286 21 47 140
0.125000 -0.046875 -0.106250 22 49 142
0.128906 -0.046875 -0.103592 21 47 139
0.132812 -0.046875 -0.100466 20 45 137
0.136719 -0.046875 -0.097238 19 43 133
0.140625 -0.046875 -0.093919 18 40 128
0.144531 -0.046875 -0.090600 19 41 130
0.148438 -0.046875 -0.087191 20 44 134
0.152344 -0.046875 -0.083714 21 45 133
0.156250 -0.046875 -0.080157 20 43 128
0.160156 -0.046875 -0.076135 19 42 122
0.164062 -0.046875 -0.071805 19 41 116
0.167969 -0.046875 -0.067561 19 39 108
0.171875 -0.046875 -0.063130 22 40 104
0.175781 -0.046875 -0.058816 22 38 94
0.179688 -0.046875 -0.053727 25 40 90
0.183594 -0.046875 -0.047806 26 39 83
0.187500 -0.046875 -0.040858 21 31 65
0.191406 -0.046875 -0.030474 24 32 58
0.195312 -0.046875 -0.014004 19 21 31
0.199219 -0.046875 0.006017 24 19 20
0.203125 -0.046875 0.009849 60 38 31
0.207031 -0.046875 0.008602 103 61 44
0.210938 -0.046875 0.007663 139 83 59
0.214844 -0.046875 0.006635 169 107 80
0.218750 -0.046875 0.005482 188 124 92
0.222656 -0.046875 0.005730 198 132 96
0.226562 -0.046875 0.007225 204 138 101
0.230469 -0.046875 0.008909 205 141 103
0.234375 -0.046875 0.011589 202 141 103
0.238281 -0.046875 0.014700 176 125 92
0.242188 -0.046875 0.019642 151 118 92
-0.156250 -0.050781 -0.019459 147 111 90
-0.152344 -0.050781 -0.023453 163 106 74
-0.148438 -0.050781 -0.025827 174 107 74
-0.144531 -0.050781 -0.027112 186 115 81
-0.140625 -0.050781 -0.028110 200 127 91
-0.136719 -0.050781 -0.027822 212 137 100
-0.132812 -0.050781 -0.026662 220 144 105
-0.128906 -0.050781 -0.026293 227 151 110
-0.125000 -0.050781 -0.026175 228 152 110
-0.121094 -0.050781 -0.024054 226 155 113
-0.117188 -0.050781 -0.022772 217 152 114
-0.113281 -0.050781 -0.019373 174 117 92
-0.109375 -0.050781 -0.030699 82 59 56
-0.105469 -0.050781 -0.049661 29 30 46
-0.101562 -0.050781 -0.062996 24 36 74
-0.097656 -0.050781 -0.073928 27 47 107
-0.093750 -0.050781 -0.082100 22 43 109
-0.089844 -0.050781 -0.089459 20 40 108
-0.085938 -0.050781 -0.095662 19 40 111
-0.082031 -0.050781 -0.101416 19 41 114
-0.078125 -0.050781 -0.106619 18 41 115
-0.074219 -0.050781 -0.110989 18 42 116
-0.070312 -0.050781 -0.114919 18 42 118
-0.066406 -0.050781 -0.118509 17 41 118
-0.062500 -0.050781 -0.121897 17 41 119
-0.058594 -0.050781 -0.125059 16 40 119
-0.054688 -0.050781 -0.127948 15 39 117
-0.050781 -0.050781 -0.130679 15 39 119
-0.046875 -0.050781 -0.133121 16 40 121
-0.042969 -0.050781 -0.135017 15 39 120
-0.039062 -0.050781 -0.136462 15 38 119
-0.035156 -0.050781 -0.137790 15 39 122
-0.031250 -0.050781 -0.138934 15 38 122
-0.027344 -0.050781 -0.139993 16 39 123
-0.023438 -0.050781 -0.140905 17 42 127
-0.019531 -0.050781 -0.141593 16 40 125
-0.015625 -0.050781 -0.142125 16 40 125
-0.011719 -0.050781 -0.142243 16 40 126
-0.007812 -0.050781 -0.142091 16 38 124
-0.003906 -0.050781 -0.141790 15 38 123
0.000000 -0.050781 -0.141349 16 39 125
0.003906 -0.050781 -0.140919 16 38 123
0.007812 -0.050781 -0.140462 15 37 122
0.011719 -0.050781 -0.139938 17 39 127
0.015625 -0.050781 -0.139471 16 36 120
0.019531 -0.050781 -0.138852 22 45 126
0.023438 -0.050781 -0.138257 35 57 131
0.027344 -0.050781 -0.137700 43 51 102
0.031250 -0.050781 -0.137159 76 63 85
0.035156 -0.050781 -0.136850 109 77 80
0.039062 -0.050781 -0.136721 88 60 65
0.042969 -0.050781 -0.136465 68 54 69
0.046875 -0.050781 -0.136138 74 72 105
0.050781 -0.050781 -0.135771 60 71 121
0.054688 -0.050781 -0.135263 34 50 109
0.058594 -0.050781 -0.134744 24 43 109
0.062500 -0.050781 -0.134125 19 38 113
0.066406 -0.050781 -0.133361 18 41 123
0.070312 -0.050781 -0.132408 19 44 131
0.074219 -0.050781 -0.131331 18 44 132
0.078125 -0.050781 -0.130030 19 45 133
0.082031 -0.050781 -0.128613 18 43 131
0.085938 -0.050781 -0.127073 18 43 131
0.089844 -0.050781 -0.125359 20 48 138
0.093750 -0.050781 -0.123536 22 51 143
0.097656 -0.050781 -0.121468 20 48 139
0.101562 -0.050781 -0.119257 20 46 138
0.105469 -0.050781 -0.116934 21 47 140
0.109375 -0.050781 -0.114529 21 47 140
0.113281 -0.050781 -0.112405 21 47 141
0.117188 -0.050781 -0.110419 19 44 136
0.121094 -0.050781 -0.108398 19 44 136
0.125000 -0.050781 -0.106407 20 45 137
0.128906 -0.050781 -0.103793 18 42 133
0.132812 -0.050781 -0.100703 17 41 131
0.136719 -0.050781 -0.097519 17 39 128
0.140625 -0.050781 -0.094249 17 39 127
0.144531 -0.050781 -0.090976 19 42 130
0.148438 -0.050781 -0.087612 21 46 136
0.152344 -0.050781 -0.084164 22 46 135
0.156250 -0.050781 -0.080632 21 44 130
0.160156 -0.050781 -0.076665 19 42 123
0.164062 -0.050781 -0.072414 20 42 119
0.167969 -0.050781 -0.068228 21 43 115
0.171875 -0.050781 -0.063875 24 45 112
0.175781 -0.050781 -0.059618 24 42 102
0.179688 -0.050781 -0.054672 22 38 90
0.183594 -0.050781 -0.049141 25 39 85
0.187500 -0.050781 -0.042504 22 33 70
0.191406 -0.050781 -0.032864 23 32 59
0.195312 -0.050781 -0.017884 27 30 44
0.199219 -0.050781 0.004052 29 23 26
0.203125 -0.050781 0.011174 50 32 28
0.207031 -0.050781 0.009874 102 60 44
0.210938 -0.050781 0.009184 138 81 58
0.214844 -0.050781 0.008466 169 107 80
0.218750 -0.050781 0.007431 192 128 95
0.222656 -0.050781 0.007626 198 132 96
0.226562 -0.050781 0.008951 205 139 102
0.230469 -0.050781 0.010544 206 142 104
0.234375 -0.050781 0.013085 202 142 104
0.238281 -0.050781 0.016281 176 126 93
0.242188 -0.050781 0.020507 150 117 91
-0.156250 -0.054688 -0.018257 147 111 90
-0.152344 -0.054688 -0.022520 163 105 74
-0.148438 -0.054688 -0.024987 173 107 74
-0.144531 -0.054688 -0.026206 185 115 81
-0.140625 -0.054688 -0.027205 199 126 91
-0.136719 -0.054688 -0.026873 212 136 99
-0.132812 -0.054688 -0.025590 219 142 104
-0.128906 -0.054688 -0.024987 226 150 109
-0.125000 -0.054688 -0.024974 226 149 107
-0.121094 -0.054688 -0.022835 224 152 109
-0.117188 -0.054688 -0.021299 213 146 110
-0.113281 -0.054688 -0.020301 160 107 87
-0.109375 -0.054688 -0.034152 84 65 66
-0.105469 -0.054688 -0.052240 38 42 63
-0.101562 -0.054688 -0.064530 25 39 81
-0.097656 -0.054688 -0.075289 24 44 102
-0.093750 -0.054688 -0.083370 22 42 108
-0.089844 -0.054688 -0.090608 20 41 110
-0.085938 -0.054688 -0.096721 19 40 112
-0.082031 -0.054688 -0.102417 18 40 112
-0.078125 -0.054688 -0.107588 18 41 114
-0.074219 -0.054688 -0.111923 18 42 117
-0.070312 -0.054688 -0.115795 18 42 118
-0.066406 -0.054688 -0.119350 16 40 117
-0.062500 -0.054688 -0.122725 16 40 118
