ply
    format ascii 1.0
    element vertex 84698
    property float x
    property float y
    property float z
    property uchar red
    property uchar green
    property uchar blue
    end_header
0.156250 -0.203125 -0.089251 75 66 68
0.160156 -0.203125 -0.090254 76 67 68
0.164062 -0.203125 -0.091218 77 67 69
0.167969 -0.203125 -0.092020 78 68 69
0.171875 -0.203125 -0.092639 78 68 69
0.175781 -0.203125 -0.093050 77 68 69
0.179688 -0.203125 -0.093310 78 68 69
0.183594 -0.203125 -0.093343 80 71 71
0.187500 -0.203125 -0.093256 80 71 71
0.191406 -0.203125 -0.093143 79 70 70
0.195312 -0.203125 -0.092973 80 70 71
0.199219 -0.203125 -0.092744 80 71 71
0.203125 -0.203125 -0.092515 80 70 71
0.207031 -0.203125 -0.092414 78 70 70
0.210938 -0.203125 -0.092336 77 69 70
0.214844 -0.203125 -0.092316 77 69 69
0.218750 -0.203125 -0.092224 79 71 71
0.222656 -0.203125 -0.091902 81 74 74
0.226562 -0.203125 -0.091368 83 76 76
0.230469 -0.203125 -0.090767 86 78 77
0.234375 -0.203125 -0.090087 87 80 79
0.238281 -0.203125 -0.089147 88 81 80
0.242188 -0.203125 -0.087922 87 81 80
0.246094 -0.203125 -0.086639 92 86 84
0.250000 -0.203125 -0.085038 90 83 82
0.253906 -0.203125 -0.082936 85 78 77
0.257812 -0.203125 -0.079908 92 85 83
0.261719 -0.203125 -0.076951 88 81 81
0.265625 -0.203125 -0.073669 87 81 80
0.269531 -0.203125 -0.069257 87 81 80
0.273438 -0.203125 -0.062981 73 69 69
0.277344 -0.203125 -0.054060 76 71 70
0.281250 -0.203125 -0.043059 93 88 84
0.285156 -0.203125 -0.021016 89 85 83
-0.214844 -0.207031 0.007268 43 39 39
-0.210938 -0.207031 0.000218 37 33 35
-0.207031 -0.207031 -0.005210 43 40 42
-0.203125 -0.207031 -0.011130 54 51 52
-0.199219 -0.207031 -0.017959 53 50 52
-0.195312 -0.207031 -0.026752 50 48 50
-0.191406 -0.207031 -0.037712 53 50 52
-0.187500 -0.207031 -0.048671 55 52 54
-0.183594 -0.207031 -0.057122 57 53 56
-0.179688 -0.207031 -0.063881 61 56 59
-0.175781 -0.207031 -0.069531 64 59 62
-0.171875 -0.207031 -0.074254 69 62 65
-0.167969 -0.207031 -0.078116 70 63 66
-0.164062 -0.207031 -0.081211 69 63 65
-0.160156 -0.207031 -0.084119 69 63 66
-0.156250 -0.207031 -0.086750 67 61 64
-0.152344 -0.207031 -0.089277 65 59 62
-0.148438 -0.207031 -0.091601 65 59 62
-0.144531 -0.207031 -0.093785 65 59 62
-0.140625 -0.207031 -0.095726 68 62 65
-0.136719 -0.207031 -0.097336 73 66 69
-0.132812 -0.207031 -0.098648 74 67 69
-0.128906 -0.207031 -0.099802 73 67 69
-0.125000 -0.207031 -0.100835 74 67 69
-0.121094 -0.207031 -0.101668 75 69 70
-0.117188 -0.207031 -0.102333 78 71 72
-0.113281 -0.207031 -0.102895 80 73 74
-0.109375 -0.207031 -0.103338 79 72 73
-0.105469 -0.207031 -0.103651 78 71 73
-0.101562 -0.207031 -0.103817 81 74 75
-0.097656 -0.207031 -0.103824 83 76 77
-0.093750 -0.207031 -0.103661 83 76 77
-0.089844 -0.207031 -0.103300 81 74 75
-0.085938 -0.207031 -0.102778 82 75 76
-0.082031 -0.207031 -0.102059 85 77 78
-0.078125 -0.207031 -0.101186 81 73 74
-0.074219 -0.207031 -0.100111 75 68 69
-0.070312 -0.207031 -0.098933 72 65 66
-0.066406 -0.207031 -0.097602 71 64 65
-0.062500 -0.207031 -0.096169 73 66 67
-0.058594 -0.207031 -0.094789 77 70 70
-0.054688 -0.207031 -0.093345 79 72 73
-0.050781 -0.207031 -0.091928 75 68 70
-0.046875 -0.207031 -0.090494 72 66 67
-0.042969 -0.207031 -0.089217 73 67 68
-0.039062 -0.207031 -0.088002 73 67 68
-0.035156 -0.207031 -0.086777 71 66 67
-0.031250 -0.207031 -0.085562 70 66 66
-0.027344 -0.207031 -0.083904 70 66 66
-0.023438 -0.207031 -0.081766 70 66 66
-0.019531 -0.207031 -0.079592 71 67 67
-0.015625 -0.207031 -0.077119 72 68 68
-0.011719 -0.207031 -0.073699 72 69 69
-0.007812 -0.207031 -0.069416 72 68 69
-0.003906 -0.207031 -0.064717 71 67 68
0.000000 -0.207031 -0.059661 69 65 67
0.003906 -0.207031 -0.054436 69 66 67
0.007812 -0.207031 -0.048218 67 65 66
0.011719 -0.207031 -0.041661 66 64 66
0.015625 -0.207031 -0.034399 70 67 69
0.019531 -0.207031 -0.021025 60 59 60
0.070312 -0.207031 -0.016790 36 34 37
0.074219 -0.207031 -0.026040 44 42 44
0.078125 -0.207031 -0.032497 45 43 44
0.082031 -0.207031 -0.037484 47 45 45
0.085938 -0.207031 -0.042544 50 48 47
0.089844 -0.207031 -0.047089 53 51 51
0.093750 -0.207031 -0.051386 56 53 53
0.097656 -0.207031 -0.055332 56 54 54
0.101562 -0.207031 -0.059151 59 56 56
0.105469 -0.207031 -0.062878 61 59 59
0.109375 -0.207031 -0.066334 62 59 59
0.113281 -0.207031 -0.069315 62 57 58
0.117188 -0.207031 -0.071852 62 57 58
0.121094 -0.207031 -0.074368 63 57 59
0.125000 -0.207031 -0.076822 65 59 61
0.128906 -0.207031 -0.078982 67 61 63
0.132812 -0.207031 -0.080869 67 61 63
0.136719 -0.207031 -0.082745 68 62 63
0.140625 -0.207031 -0.084551 67 61 63
0.144531 -0.207031 -0.086033 67 61 62
0.148438 -0.207031 -0.087310 68 62 63
0.152344 -0.207031 -0.088478 69 62 64
0.156250 -0.207031 -0.089489 73 65 66
0.160156 -0.207031 -0.090519 75 66 68
0.164062 -0.207031 -0.091526 74 65 67
0.167969 -0.207031 -0.092353 74 65 67
0.171875 -0.207031 -0.092983 76 67 68
0.175781 -0.207031 -0.093424 76 67 68
0.179688 -0.207031 -0.093718 75 66 66
0.183594 -0.207031 -0.093793 77 67 68
0.187500 -0.207031 -0.093741 78 68 69
0.191406 -0.207031 -0.093647 78 68 69
0.195312 -0.207031 -0.093496 79 70 70
0.199219 -0.207031 -0.093283 80 71 71
0.203125 -0.207031 -0.093069 81 72 72
0.207031 -0.207031 -0.092956 82 73 73
0.210938 -0.207031 -0.092847 80 73 73
0.214844 -0.207031 -0.092795 79 73 73
0.218750 -0.207031 -0.092669 82 75 74
0.222656 -0.207031 -0.092323 83 76 76
0.226562 -0.207031 -0.091768 82 76 75
0.230469 -0.207031 -0.091144 83 77 76
0.234375 -0.207031 -0.090436 88 81 80
0.238281 -0.207031 -0.089490 92 85 83
0.242188 -0.207031 -0.088267 89 82 81
0.246094 -0.207031 -0.086970 92 85 84
0.250000 -0.207031 -0.085348 90 84 83
0.253906 -0.207031 -0.083240 81 75 74
0.257812 -0.207031 -0.080181 88 82 80
0.261719 -0.207031 -0.077242 89 82 81
0.265625 -0.207031 -0.074022 86 81 80
0.269531 -0.207031 -0.069549 87 81 80
0.273438 -0.207031 -0.063238 74 70 70
0.277344 -0.207031 -0.054028 75 71 70
0.281250 -0.207031 -0.043072 93 88 83
0.285156 -0.207031 -0.025405 90 85 82
-0.214844 -0.210938 0.007378 45 41 41
-0.210938 -0.210938 -0.000055 38 34 36
-0.207031 -0.210938 -0.005740 41 38 40
-0.203125 -0.210938 -0.011900 53 50 51
-0.199219 -0.210938 -0.018793 52 49 51
-0.195312 -0.210938 -0.028083 52 50 52
-0.191406 -0.210938 -0.039311 58 54 56
-0.187500 -0.210938 -0.050116 57 53 56
-0.183594 -0.210938 -0.058404 56 52 55
-0.179688 -0.210938 -0.065031 59 54 57
-0.175781 -0.210938 -0.070629 62 57 60
-0.171875 -0.210938 -0.075364 65 60 62
-0.167969 -0.210938 -0.079207 67 61 64
-0.164062 -0.210938 -0.082300 69 63 66
-0.160156 -0.210938 -0.085179 71 65 68
-0.156250 -0.210938 -0.087749 71 65 67
-0.152344 -0.210938 -0.090235 69 62 65
-0.148438 -0.210938 -0.092490 67 60 63
-0.144531 -0.210938 -0.094617 66 60 63
-0.140625 -0.210938 -0.096508 68 61 65
-0.136719 -0.210938 -0.098039 71 65 68
-0.132812 -0.210938 -0.099283 72 65 68
-0.128906 -0.210938 -0.100371 73 66 68
-0.125000 -0.210938 -0.101334 77 70 71
-0.121094 -0.210938 -0.102116 79 72 73
-0.117188 -0.210938 -0.102734 81 74 74
-0.113281 -0.210938 -0.103245 85 77 77
-0.109375 -0.210938 -0.103634 84 77 77
-0.105469 -0.210938 -0.103906 84 77 77
-0.101562 -0.210938 -0.104041 84 77 77
-0.097656 -0.210938 -0.104000 84 76 77
-0.093750 -0.210938 -0.103791 84 76 77
-0.089844 -0.210938 -0.103395 81 74 74
-0.085938 -0.210938 -0.102811 80 73 73
-0.082031 -0.210938 -0.102025 81 73 74
-0.078125 -0.210938 -0.101097 75 67 69
-0.074219 -0.210938 -0.099964 68 62 64
-0.070312 -0.210938 -0.098744 68 62 64
-0.066406 -0.210938 -0.097379 71 65 66
-0.062500 -0.210938 -0.095893 74 68 68
-0.058594 -0.210938 -0.094472 77 71 71
-0.054688 -0.210938 -0.093003 79 72 73
-0.050781 -0.210938 -0.091563 77 70 71
-0.046875 -0.210938 -0.090117 74 68 69
-0.042969 -0.210938 -0.088820 74 68 69
-0.039062 -0.210938 -0.087574 74 68 69
-0.035156 -0.210938 -0.086304 74 68 69
-0.031250 -0.210938 -0.085020 74 69 69
-0.027344 -0.210938 -0.083292 74 69 69
-0.023438 -0.210938 -0.081054 75 70 70
-0.019531 -0.210938 -0.078799 75 71 69
-0.015625 -0.210938 -0.076246 71 67 66
-0.011719 -0.210938 -0.072667 67 63 64
-0.007812 -0.210938 -0.068211 68 64 65
-0.003906 -0.210938 -0.063229 70 65 66
0.000000 -0.210938 -0.057871 70 65 66
0.003906 -0.210938 -0.052314 70 66 67
0.007812 -0.210938 -0.045811 68 66 67
0.011719 -0.210938 -0.038914 69 66 68
0.015625 -0.210938 -0.031358 72 68 70
0.019531 -0.210938 -0.018434 59 59 60
0.070312 -0.210938 -0.014460 34 32 37
0.074219 -0.210938 -0.023551 43 41 43
0.078125 -0.210938 -0.030178 44 42 42
0.082031 -0.210938 -0.035475 47 45 44
0.085938 -0.210938 -0.040792 50 48 47
0.089844 -0.210938 -0.045582 54 51 51
0.093750 -0.210938 -0.050118 56 53 53
0.097656 -0.210938 -0.054236 56 53 54
0.101562 -0.210938 -0.058184 58 56 56
0.105469 -0.210938 -0.062038 61 59 59
0.109375 -0.210938 -0.065620 62 59 60
0.113281 -0.210938 -0.068712 60 56 57
0.117188 -0.210938 -0.071368 57 53 54
0.121094 -0.210938 -0.073987 56 52 54
0.125000 -0.210938 -0.076546 60 55 57
0.128906 -0.210938 -0.078809 66 60 62
0.132812 -0.210938 -0.080796 68 62 63
0.136719 -0.210938 -0.082776 68 62 63
0.140625 -0.210938 -0.084667 67 61 63
0.144531 -0.210938 -0.086221 67 62 63
0.148438 -0.210938 -0.087547 69 62 64
0.152344 -0.210938 -0.088744 69 62 64
0.156250 -0.210938 -0.089786 73 65 67
0.160156 -0.210938 -0.090833 76 67 68
0.164062 -0.210938 -0.091859 74 65 67
0.167969 -0.210938 -0.092715 73 65 67
0.171875 -0.210938 -0.093363 76 67 69
0.175781 -0.210938 -0.093822 77 68 69
0.179688 -0.210938 -0.094150 74 66 66
0.183594 -0.210938 -0.094269 77 68 68
0.187500 -0.210938 -0.094247 78 69 69
0.191406 -0.210938 -0.094169 78 69 70
0.195312 -0.210938 -0.094026 80 71 71
0.199219 -0.210938 -0.093810 80 71 71
0.203125 -0.210938 -0.093599 81 72 72
0.207031 -0.210938 -0.093471 83 74 74
0.210938 -0.210938 -0.093334 83 76 75
0.214844 -0.210938 -0.093255 83 76 76
0.218750 -0.210938 -0.093107 84 77 77
0.222656 -0.210938 -0.092740 84 77 76
0.226562 -0.210938 -0.092172 81 75 75
0.230469 -0.210938 -0.091536 81 75 75
0.234375 -0.210938 -0.090808 86 80 80
0.238281 -0.210938 -0.089846 90 84 82
0.242188 -0.210938 -0.088630 89 83 81
0.246094 -0.210938 -0.087355 94 87 85
0.250000 -0.210938 -0.085718 94 87 85
0.253906 -0.210938 -0.083589 81 75 75
0.257812 -0.210938 -0.080518 85 79 78
0.261719 -0.210938 -0.077585 89 83 81
0.265625 -0.210938 -0.074384 85 79 79
0.269531 -0.210938 -0.069866 84 79 78
0.273438 -0.210938 -0.063554 74 70 70
0.277344 -0.210938 -0.054166 72 69 68
0.281250 -0.210938 -0.043111 88 84 79
0.285156 -0.210938 -0.028591 93 87 82
-0.214844 -0.214844 0.006917 49 45 45
-0.210938 -0.214844 -0.000699 40 36 38
-0.207031 -0.214844 -0.006582 39 36 38
-0.203125 -0.214844 -0.012840 52 48 49
-0.199219 -0.214844 -0.019907 53 50 52
-0.195312 -0.214844 -0.029967 52 50 52
-0.191406 -0.214844 -0.041234 56 53 55
-0.187500 -0.214844 -0.051781 55 52 54
-0.183594 -0.214844 -0.059810 54 51 53
-0.179688 -0.214844 -0.066237 58 53 56
-0.175781 -0.214844 -0.071803 63 58 60
-0.171875 -0.214844 -0.076570 66 60 62
-0.167969 -0.214844 -0.080381 65 59 62
-0.164062 -0.214844 -0.083452 66 60 63
-0.160156 -0.214844 -0.086294 70 64 67
-0.156250 -0.214844 -0.088800 72 66 68
-0.152344 -0.214844 -0.091227 72 66 68
-0.148438 -0.214844 -0.093401 71 65 67
-0.144531 -0.214844 -0.095451 70 63 66
-0.140625 -0.214844 -0.097274 70 63 66
-0.136719 -0.214844 -0.098735 72 65 68
-0.132812 -0.214844 -0.099923 71 65 67
-0.128906 -0.214844 -0.100948 72 66 68
-0.125000 -0.214844 -0.101858 78 71 72
-0.121094 -0.214844 -0.102592 81 73 74
-0.117188 -0.214844 -0.103152 81 74 74
-0.113281 -0.214844 -0.103609 82 74 75
-0.109375 -0.214844 -0.103953 81 73 74
-0.105469 -0.214844 -0.104176 81 73 74
-0.101562 -0.214844 -0.104261 80 73 73
-0.097656 -0.214844 -0.104162 77 70 72
-0.093750 -0.214844 -0.103894 78 71 72
-0.089844 -0.214844 -0.103428 77 70 71
-0.085938 -0.214844 -0.102760 76 69 70
-0.082031 -0.214844 -0.101912 76 69 70
-0.078125 -0.214844 -0.100917 72 66 67
-0.074219 -0.214844 -0.099720 72 66 68
-0.070312 -0.214844 -0.098473 78 71 72
-0.066406 -0.214844 -0.097083 82 75 75
-0.062500 -0.214844 -0.095563 82 76 75
-0.058594 -0.214844 -0.094137 84 77 76
-0.054688 -0.214844 -0.092656 84 78 77
-0.050781 -0.214844 -0.091197 82 76 75
-0.046875 -0.214844 -0.089750 80 73 73
-0.042969 -0.214844 -0.088423 78 71 72
-0.039062 -0.214844 -0.087143 75 69 70
-0.035156 -0.214844 -0.085844 75 69 70
-0.031250 -0.214844 -0.084511 75 69 69
-0.027344 -0.214844 -0.082719 74 68 68
-0.023438 -0.214844 -0.080387 73 68 67
-0.019531 -0.214844 -0.078065 71 66 66
-0.015625 -0.214844 -0.075416 66 62 62
-0.011719 -0.214844 -0.071686 64 60 61
-0.007812 -0.214844 -0.067110 65 61 62
-0.003906 -0.214844 -0.061906 68 63 64
0.000000 -0.214844 -0.056302 69 64 65
0.003906 -0.214844 -0.050422 70 66 67
0.007812 -0.214844 -0.043607 69 65 67
0.011719 -0.214844 -0.036442 68 65 67
0.015625 -0.214844 -0.028652 69 66 68
0.019531 -0.214844 -0.017046 56 56 57
0.070312 -0.214844 -0.011959 39 39 44
0.074219 -0.214844 -0.020992 43 43 44
0.078125 -0.214844 -0.027941 41 40 40
0.082031 -0.214844 -0.033448 44 42 42
0.085938 -0.214844 -0.039019 50 47 47
0.089844 -0.214844 -0.044089 54 51 51
0.093750 -0.214844 -0.048844 56 53 53
0.097656 -0.214844 -0.053130 56 53 54
0.101562 -0.214844 -0.057197 59 57 57
0.105469 -0.214844 -0.061157 61 59 59
0.109375 -0.214844 -0.064839 62 59 59
0.113281 -0.214844 -0.068058 60 57 57
0.117188 -0.214844 -0.070841 59 55 56
0.121094 -0.214844 -0.073559 60 56 57
0.125000 -0.214844 -0.076234 64 58 60
0.128906 -0.214844 -0.078607 68 62 63
0.132812 -0.214844 -0.080692 68 62 64
0.136719 -0.214844 -0.082754 68 62 64
0.140625 -0.214844 -0.084702 67 62 64
0.144531 -0.214844 -0.086331 67 61 63
0.148438 -0.214844 -0.087723 67 62 63
0.152344 -0.214844 -0.088964 69 62 64
0.156250 -0.214844 -0.090054 71 64 65
0.160156 -0.214844 -0.091136 73 65 67
0.164062 -0.214844 -0.092179 73 65 67
0.167969 -0.214844 -0.093053 73 65 67
0.171875 -0.214844 -0.093729 76 67 69
0.175781 -0.214844 -0.094230 76 67 68
0.179688 -0.214844 -0.094596 74 65 66
0.183594 -0.214844 -0.094743 78 68 69
0.187500 -0.214844 -0.094741 80 70 71
0.191406 -0.214844 -0.094687 80 71 71
0.195312 -0.214844 -0.094565 80 71 71
0.199219 -0.214844 -0.094361 79 71 71
0.203125 -0.214844 -0.094156 81 73 73
0.207031 -0.214844 -0.094013 82 74 74
0.210938 -0.214844 -0.093851 83 75 75
0.214844 -0.214844 -0.093738 83 76 76
0.218750 -0.214844 -0.093561 83 77 76
0.222656 -0.214844 -0.093170 83 77 76
0.226562 -0.214844 -0.092583 83 77 76
0.230469 -0.214844 -0.091932 85 79 78
0.234375 -0.214844 -0.091189 88 82 81
0.238281 -0.214844 -0.090220 87 81 80
0.242188 -0.214844 -0.088992 86 80 79
0.246094 -0.214844 -0.087722 91 84 83
0.250000 -0.214844 -0.086092 93 87 85
0.253906 -0.214844 -0.083948 84 78 77
0.257812 -0.214844 -0.080867 83 77 76
0.261719 -0.214844 -0.077941 86 80 79
0.265625 -0.214844 -0.074737 84 78 78
0.269531 -0.214844 -0.070190 85 80 79
0.273438 -0.214844 -0.063919 79 74 74
0.277344 -0.214844 -0.054584 75 71 71
0.281250 -0.214844 -0.043335 84 81 78
0.285156 -0.214844 -0.030439 84 80 77
-0.214844 -0.218750 0.006286 52 46 47
-0.210938 -0.218750 -0.001342 43 38 41
-0.207031 -0.218750 -0.007502 38 35 37
-0.203125 -0.218750 -0.013826 49 45 47
-0.199219 -0.218750 -0.021183 55 52 54
-0.195312 -0.218750 -0.031976 54 51 53
-0.191406 -0.218750 -0.043244 56 53 55
-0.187500 -0.218750 -0.053518 57 54 56
-0.183594 -0.218750 -0.061332 57 53 56
-0.179688 -0.218750 -0.067572 60 55 58
-0.175781 -0.218750 -0.073045 64 58 61
-0.171875 -0.218750 -0.077788 66 60 62
-0.167969 -0.218750 -0.081555 65 59 62
-0.164062 -0.218750 -0.084606 64 58 61
-0.160156 -0.218750 -0.087400 66 60 63
-0.156250 -0.218750 -0.089829 69 62 65
-0.152344 -0.218750 -0.092186 70 64 67
-0.148438 -0.218750 -0.094270 71 65 67
-0.144531 -0.218750 -0.096233 71 64 66
-0.140625 -0.218750 -0.097969 70 63 66
-0.136719 -0.218750 -0.099353 72 64 67
-0.132812 -0.218750 -0.100473 73 66 69
-0.128906 -0.218750 -0.101449 72 66 68
-0.125000 -0.218750 -0.102311 74 67 69
-0.121094 -0.218750 -0.102986 77 70 71
-0.117188 -0.218750 -0.103509 79 71 72
-0.113281 -0.218750 -0.103940 78 71 72
-0.109375 -0.218750 -0.104249 77 70 71
-0.105469 -0.218750 -0.104421 77 71 71
-0.101562 -0.218750 -0.104439 77 70 71
-0.097656 -0.218750 -0.104278 76 69 70
-0.093750 -0.218750 -0.103939 78 71 72
-0.089844 -0.218750 -0.103380 79 72 73
-0.085938 -0.218750 -0.102633 79 72 72
-0.082031 -0.218750 -0.101693 80 73 73
-0.078125 -0.218750 -0.100602 81 74 74
-0.074219 -0.218750 -0.099364 86 79 79
-0.070312 -0.218750 -0.098074 94 85 84
-0.066406 -0.218750 -0.096662 94 85 84
-0.062500 -0.218750 -0.095150 91 83 81
-0.058594 -0.218750 -0.093742 88 80 78
-0.054688 -0.218750 -0.092291 82 75 74
-0.050781 -0.218750 -0.090830 77 71 71
-0.046875 -0.218750 -0.089386 74 68 69
-0.042969 -0.218750 -0.088038 71 66 67
-0.039062 -0.218750 -0.086721 70 65 66
-0.035156 -0.218750 -0.085389 71 66 67
-0.031250 -0.218750 -0.084004 71 66 67
-0.027344 -0.218750 -0.082145 70 66 66
-0.023438 -0.218750 -0.079712 68 64 64
-0.019531 -0.218750 -0.077300 66 63 63
-0.015625 -0.218750 -0.074557 67 63 64
-0.011719 -0.218750 -0.070712 68 64 65
-0.007812 -0.218750 -0.066053 69 65 65
-0.003906 -0.218750 -0.060692 69 64 65
0.000000 -0.218750 -0.054903 69 64 65
0.003906 -0.218750 -0.048765 70 66 66
0.007812 -0.218750 -0.041707 68 64 66
0.011719 -0.218750 -0.034301 66 62 64
0.015625 -0.218750 -0.026462 67 63 65
0.019531 -0.218750 -0.015733 57 58 58
0.070312 -0.218750 -0.009484 36 36 41
0.074219 -0.218750 -0.018616 41 40 42
0.078125 -0.218750 -0.025665 39 38 39
0.082031 -0.218750 -0.031419 42 40 40
0.085938 -0.218750 -0.037276 48 45 45
0.089844 -0.218750 -0.042599 53 50 49
0.093750 -0.218750 -0.047548 56 53 52
0.097656 -0.218750 -0.051976 57 54 54
0.101562 -0.218750 -0.056152 60 57 57
0.105469 -0.218750 -0.060226 61 59 59
0.109375 -0.218750 -0.064019 60 57 58
0.113281 -0.218750 -0.067359 58 55 56
0.117188 -0.218750 -0.070268 59 56 57
0.121094 -0.218750 -0.073116 63 58 60
0.125000 -0.218750 -0.075908 67 61 62
0.128906 -0.218750 -0.078374 68 62 63
0.132812 -0.218750 -0.080558 68 62 64
0.136719 -0.218750 -0.082709 71 64 65
0.140625 -0.218750 -0.084725 72 65 67
0.144531 -0.218750 -0.086432 69 63 65
0.148438 -0.218750 -0.087893 68 62 64
0.152344 -0.218750 -0.089191 68 62 64
0.156250 -0.218750 -0.090332 69 63 64
0.160156 -0.218750 -0.091453 70 64 65
0.164062 -0.218750 -0.092534 71 64 66
0.167969 -0.218750 -0.093433 71 64 66
0.171875 -0.218750 -0.094139 73 65 66
0.175781 -0.218750 -0.094678 73 65 66
0.179688 -0.218750 -0.095068 73 64 66
0.183594 -0.218750 -0.095245 77 67 68
0.187500 -0.218750 -0.095265 79 70 70
0.191406 -0.218750 -0.095221 79 70 70
0.195312 -0.218750 -0.095112 79 70 70
0.199219 -0.218750 -0.094925 80 71 71
0.203125 -0.218750 -0.094732 82 73 73
0.207031 -0.218750 -0.094577 82 74 74
0.210938 -0.218750 -0.094397 82 75 75
0.214844 -0.218750 -0.094246 81 75 76
0.218750 -0.218750 -0.094027 80 75 75
0.222656 -0.218750 -0.093614 80 74 74
0.226562 -0.218750 -0.093011 82 76 75
0.230469 -0.218750 -0.092340 85 79 78
0.234375 -0.218750 -0.091586 88 81 80
0.238281 -0.218750 -0.090622 86 79 78
0.242188 -0.218750 -0.089402 85 79 78
0.246094 -0.218750 -0.088134 88 82 81
0.250000 -0.218750 -0.086496 91 85 84
0.253906 -0.218750 -0.084362 86 80 79
0.257812 -0.218750 -0.081293 81 76 75
0.261719 -0.218750 -0.078350 82 76 75
0.265625 -0.218750 -0.075154 79 74 74
0.269531 -0.218750 -0.070622 83 77 77
0.273438 -0.218750 -0.064409 83 77 77
0.277344 -0.218750 -0.055233 77 73 73
0.281250 -0.218750 -0.043895 86 83 81
0.285156 -0.218750 -0.031652 78 75 74
-0.214844 -0.222656 0.005963 50 45 46
-0.210938 -0.222656 -0.002069 43 37 39
-0.207031 -0.222656 -0.008521 36 33 35
-0.203125 -0.222656 -0.014922 44 41 42
-0.199219 -0.222656 -0.022822 55 52 54
-0.195312 -0.222656 -0.034069 54 51 53
-0.191406 -0.222656 -0.045281 53 50 52
-0.187500 -0.222656 -0.055207 56 52 54
-0.183594 -0.222656 -0.062786 58 54 56
-0.179688 -0.222656 -0.068855 61 56 58
-0.175781 -0.222656 -0.074247 62 56 59
-0.171875 -0.222656 -0.078967 64 58 60
-0.167969 -0.222656 -0.082703 65 59 61
-0.164062 -0.222656 -0.085751 65 59 62
-0.160156 -0.222656 -0.088507 66 60 63
-0.156250 -0.222656 -0.090884 68 62 64
-0.152344 -0.222656 -0.093166 71 65 67
-0.148438 -0.222656 -0.095147 72 65 68
-0.144531 -0.222656 -0.097016 69 63 66
-0.140625 -0.222656 -0.098664 68 61 64
-0.136719 -0.222656 -0.099987 68 62 65
-0.132812 -0.222656 -0.101047 73 66 69
-0.128906 -0.222656 -0.101963 75 68 71
-0.125000 -0.222656 -0.102777 72 65 68
-0.121094 -0.222656 -0.103407 73 66 68
-0.117188 -0.222656 -0.103895 77 70 71
-0.113281 -0.222656 -0.104298 79 71 72
-0.109375 -0.222656 -0.104567 78 71 72
-0.105469 -0.222656 -0.104687 78 71 72
-0.101562 -0.222656 -0.104653 77 70 71
-0.097656 -0.222656 -0.104431 76 69 71
-0.093750 -0.222656 -0.104023 77 70 71
-0.089844 -0.222656 -0.103393 78 71 71
-0.085938 -0.222656 -0.102585 76 69 70
-0.082031 -0.222656 -0.101551 76 69 70
-0.078125 -0.222656 -0.100356 78 71 72
-0.074219 -0.222656 -0.099045 81 73 74
-0.070312 -0.222656 -0.097689 83 75 74
-0.066406 -0.222656 -0.096277 80 72 72
-0.062500 -0.222656 -0.094760 77 69 69
-0.058594 -0.222656 -0.093354 74 68 67
-0.054688 -0.222656 -0.091929 70 65 65
-0.050781 -0.222656 -0.090456 70 65 66
-0.046875 -0.222656 -0.089012 71 66 67
-0.042969 -0.222656 -0.087660 70 65 66
-0.039062 -0.222656 -0.086322 70 65 67
-0.035156 -0.222656 -0.084974 71 67 68
-0.031250 -0.222656 -0.083556 72 67 68
-0.027344 -0.222656 -0.081663 71 67 67
-0.023438 -0.222656 -0.079150 68 65 65
-0.019531 -0.222656 -0.076644 68 64 65
-0.015625 -0.222656 -0.073817 71 67 67
-0.011719 -0.222656 -0.069864 71 67 68
-0.007812 -0.222656 -0.065108 71 67 67
-0.003906 -0.222656 -0.059597 71 67 67
0.000000 -0.222656 -0.053650 71 66 67
0.003906 -0.222656 -0.047333 71 67 68
0.007812 -0.222656 -0.040088 68 65 66
0.011719 -0.222656 -0.032489 67 63 65
0.015625 -0.222656 -0.024626 69 65 66
0.019531 -0.222656 -0.014404 62 62 62
0.070312 -0.222656 -0.007239 32 32 37
0.074219 -0.222656 -0.016338 40 39 40
0.078125 -0.222656 -0.023537 41 39 39
0.082031 -0.222656 -0.029493 42 40 40
0.085938 -0.222656 -0.035550 47 44 43
0.089844 -0.222656 -0.041099 52 49 48
0.093750 -0.222656 -0.046211 56 53 52
0.097656 -0.222656 -0.050775 57 53 54
0.101562 -0.222656 -0.055070 58 55 55
0.105469 -0.222656 -0.059278 61 58 58
0.109375 -0.222656 -0.063202 61 58 58
0.113281 -0.222656 -0.066654 61 58 58
0.117188 -0.222656 -0.069673 62 58 59
0.121094 -0.222656 -0.072655 64 59 61
0.125000 -0.222656 -0.075569 65 60 61
0.128906 -0.222656 -0.078146 64 59 61
0.132812 -0.222656 -0.080447 63 57 60
0.136719 -0.222656 -0.082707 65 59 60
0.140625 -0.222656 -0.084824 68 61 63
0.144531 -0.222656 -0.086602 69 63 64
0.148438 -0.222656 -0.088117 70 64 65
0.152344 -0.222656 -0.089472 70 64 65
0.156250 -0.222656 -0.090660 70 64 65
0.160156 -0.222656 -0.091814 72 66 67
0.164062 -0.222656 -0.092926 73 67 68
0.167969 -0.222656 -0.093871 71 64 66
0.171875 -0.222656 -0.094616 71 64 65
0.175781 -0.222656 -0.095176 74 65 67
0.179688 -0.222656 -0.095585 75 67 68
0.183594 -0.222656 -0.095805 78 68 69
0.187500 -0.222656 -0.095868 78 68 69
0.191406 -0.222656 -0.095842 77 68 68
0.195312 -0.222656 -0.095731 77 68 69
0.199219 -0.222656 -0.095545 81 72 72
0.203125 -0.222656 -0.095361 82 74 74
0.207031 -0.222656 -0.095193 81 73 73
0.210938 -0.222656 -0.094989 82 75 75
0.214844 -0.222656 -0.094797 84 78 77
0.218750 -0.222656 -0.094544 83 78 78
0.222656 -0.222656 -0.094117 82 76 76
0.226562 -0.222656 -0.093504 83 77 76
0.230469 -0.222656 -0.092823 84 77 76
0.234375 -0.222656 -0.092057 84 78 77
0.238281 -0.222656 -0.091081 83 77 76
0.242188 -0.222656 -0.089852 86 80 79
0.246094 -0.222656 -0.088576 89 83 82
0.250000 -0.222656 -0.086895 90 84 83
0.253906 -0.222656 -0.084750 87 81 80
0.257812 -0.222656 -0.081724 81 75 74
0.261719 -0.222656 -0.078785 81 75 73
0.265625 -0.222656 -0.075583 76 71 71
0.269531 -0.222656 -0.071074 78 73 74
0.273438 -0.222656 -0.064939 80 75 75
0.277344 -0.222656 -0.056141 76 73 73
0.281250 -0.222656 -0.044750 94 89 87
0.285156 -0.222656 -0.032033 80 76 75
-0.214844 -0.226562 0.005525 45 41 43
-0.210938 -0.226562 -0.002912 40 35 37
-0.207031 -0.226562 -0.009592 36 32 35
-0.203125 -0.226562 -0.016042 43 39 41
-0.199219 -0.226562 -0.024436 57 53 54
-0.195312 -0.226562 -0.035983 57 53 55
-0.191406 -0.226562 -0.047183 51 48 51
-0.187500 -0.226562 -0.056831 53 49 51
-0.183594 -0.226562 -0.064191 59 54 56
-0.179688 -0.226562 -0.070124 63 57 59
-0.175781 -0.226562 -0.075423 63 57 60
-0.171875 -0.226562 -0.080108 64 58 61
-0.167969 -0.226562 -0.083812 65 59 62
-0.164062 -0.226562 -0.086833 66 59 62
-0.160156 -0.226562 -0.089560 65 59 62
-0.156250 -0.226562 -0.091902 65 59 61
-0.152344 -0.226562 -0.094101 69 62 65
-0.148438 -0.226562 -0.095990 73 66 68
-0.144531 -0.226562 -0.097774 72 65 68
-0.140625 -0.226562 -0.099336 72 66 68
-0.136719 -0.226562 -0.100614 71 64 67
-0.132812 -0.226562 -0.101648 75 68 71
-0.128906 -0.226562 -0.102523 80 72 74
-0.125000 -0.226562 -0.103299 75 68 70
-0.121094 -0.226562 -0.103908 75 68 69
-0.117188 -0.226562 -0.104356 78 71 72
-0.113281 -0.226562 -0.104697 81 73 73
-0.109375 -0.226562 -0.104909 82 74 75
-0.105469 -0.226562 -0.104969 82 75 75
-0.101562 -0.226562 -0.104870 81 73 74
-0.097656 -0.226562 -0.104577 79 72 72
-0.093750 -0.226562 -0.104105 78 71 71
-0.089844 -0.226562 -0.103388 78 71 71
-0.085938 -0.226562 -0.102478 77 70 71
-0.082031 -0.226562 -0.101361 78 70 71
-0.078125 -0.226562 -0.100084 78 71 72
-0.074219 -0.226562 -0.098710 75 68 69
-0.070312 -0.226562 -0.097336 72 65 66
-0.066406 -0.226562 -0.095953 70 64 65
-0.062500 -0.226562 -0.094443 70 64 65
-0.058594 -0.226562 -0.093043 70 65 65
-0.054688 -0.226562 -0.091641 70 66 65
-0.050781 -0.226562 -0.090150 73 68 68
-0.046875 -0.226562 -0.088678 75 70 70
-0.042969 -0.226562 -0.087310 73 68 69
-0.039062 -0.226562 -0.085957 72 67 68
-0.035156 -0.226562 -0.084607 72 67 68
-0.031250 -0.226562 -0.083168 71 67 68
-0.027344 -0.226562 -0.081233 71 67 67
-0.023438 -0.226562 -0.078646 71 67 67
-0.019531 -0.226562 -0.076059 70 66 67
-0.015625 -0.226562 -0.073144 71 67 67
-0.011719 -0.226562 -0.069089 70 66 67
-0.007812 -0.226562 -0.064247 71 66 67
-0.003906 -0.226562 -0.058653 75 70 70
0.000000 -0.226562 -0.052642 75 70 70
0.003906 -0.226562 -0.046218 73 68 70
0.007812 -0.226562 -0.038808 70 66 68
0.011719 -0.226562 -0.031014 68 64 65
0.015625 -0.226562 -0.023002 71 66 66
0.019531 -0.226562 -0.013156 60 59 60
0.070312 -0.226562 -0.005157 30 30 36
0.074219 -0.226562 -0.014255 37 35 37
0.078125 -0.226562 -0.021629 41 37 38
0.082031 -0.226562 -0.027756 42 39 39
0.085938 -0.226562 -0.033920 46 44 43
0.089844 -0.226562 -0.039648 52 50 48
0.093750 -0.226562 -0.044874 56 53 52
0.097656 -0.226562 -0.049543 54 51 51
0.101562 -0.226562 -0.053937 56 53 53
0.105469 -0.226562 -0.058241 60 57 57
0.109375 -0.226562 -0.062254 61 58 59
0.113281 -0.226562 -0.065824 64 61 61
0.117188 -0.226562 -0.068955 68 63 64
0.121094 -0.226562 -0.072041 69 63 65
0.125000 -0.226562 -0.075076 70 64 65
0.128906 -0.226562 -0.077798 70 64 65
0.132812 -0.226562 -0.080241 66 61 63
0.136719 -0.226562 -0.082623 62 57 59
0.140625 -0.226562 -0.084855 59 54 57
0.144531 -0.226562 -0.086718 61 56 58
0.148438 -0.226562 -0.088304 66 60 61
0.152344 -0.226562 -0.089728 67 61 63
0.156250 -0.226562 -0.090971 68 63 64
0.160156 -0.226562 -0.092171 72 66 67
0.164062 -0.226562 -0.093332 73 66 67
0.167969 -0.226562 -0.094312 70 63 64
0.171875 -0.226562 -0.095089 70 63 64
0.175781 -0.226562 -0.095694 76 67 69
0.179688 -0.226562 -0.096129 79 70 71
0.183594 -0.226562 -0.096378 79 69 70
0.187500 -0.226562 -0.096482 77 68 68
0.191406 -0.226562 -0.096482 77 68 69
0.195312 -0.226562 -0.096392 79 70 71
0.199219 -0.226562 -0.096224 82 73 73
0.203125 -0.226562 -0.096043 85 75 75
0.207031 -0.226562 -0.095850 83 75 75
0.210938 -0.226562 -0.095618 81 74 74
0.214844 -0.226562 -0.095394 81 75 76
0.218750 -0.226562 -0.095108 83 77 77
0.222656 -0.226562 -0.094661 83 77 77
0.226562 -0.226562 -0.094034 84 78 77
0.230469 -0.226562 -0.093335 84 78 77
0.234375 -0.226562 -0.092545 84 78 77
0.238281 -0.226562 -0.091555 83 77 77
0.242188 -0.226562 -0.090326 85 79 78
0.246094 -0.226562 -0.089027 86 80 78
0.250000 -0.226562 -0.087332 89 83 81
0.253906 -0.226562 -0.085201 90 84 83
0.257812 -0.226562 -0.082211 82 76 75
0.261719 -0.226562 -0.079316 80 74 73
0.265625 -0.226562 -0.076172 78 73 72
0.269531 -0.226562 -0.071669 79 74 75
0.273438 -0.226562 -0.065577 78 74 74
0.277344 -0.226562 -0.056965 79 76 77
0.281250 -0.226562 -0.045831 101 96 94
0.285156 -0.226562 -0.033183 74 71 69
-0.214844 -0.230469 0.005124 46 43 43
-0.210938 -0.230469 -0.003802 42 37 39
-0.207031 -0.230469 -0.010637 38 34 36
-0.203125 -0.230469 -0.017189 41 38 39
-0.199219 -0.230469 -0.026032 55 50 51
-0.195312 -0.230469 -0.037838 58 53 55
-0.191406 -0.230469 -0.048980 52 48 51
-0.187500 -0.230469 -0.058355 50 47 49
-0.183594 -0.230469 -0.065530 55 50 52
-0.179688 -0.230469 -0.071350 60 54 56
-0.175781 -0.230469 -0.076555 61 56 58
-0.171875 -0.230469 -0.081175 64 58 60
-0.167969 -0.230469 -0.084830 65 59 62
-0.164062 -0.230469 -0.087817 66 60 62
-0.160156 -0.230469 -0.090520 65 59 62
-0.156250 -0.230469 -0.092842 62 57 60
-0.152344 -0.230469 -0.094983 63 57 60
-0.148438 -0.230469 -0.096805 65 59 62
-0.144531 -0.230469 -0.098525 67 60 63
-0.140625 -0.230469 -0.100028 70 63 66
-0.136719 -0.230469 -0.101253 68 62 65
-0.132812 -0.230469 -0.102243 69 63 66
-0.128906 -0.230469 -0.103104 72 65 68
-0.125000 -0.230469 -0.103861 70 64 66
-0.121094 -0.230469 -0.104448 71 65 67
-0.117188 -0.230469 -0.104871 72 65 67
-0.113281 -0.230469 -0.105162 73 66 67
-0.109375 -0.230469 -0.105328 76 69 69
-0.105469 -0.230469 -0.105320 76 69 70
-0.101562 -0.230469 -0.105139 77 70 70
-0.097656 -0.230469 -0.104771 77 70 71
-0.093750 -0.230469 -0.104226 76 69 70
-0.089844 -0.230469 -0.103422 76 70 70
-0.085938 -0.230469 -0.102412 78 72 72
-0.082031 -0.230469 -0.101198 81 74 74
-0.078125 -0.230469 -0.099838 81 74 74
-0.074219 -0.230469 -0.098427 78 71 71
-0.070312 -0.230469 -0.097027 75 68 69
-0.066406 -0.230469 -0.095663 76 69 69
-0.062500 -0.230469 -0.094190 75 69 69
-0.058594 -0.230469 -0.092771 73 68 68
-0.054688 -0.230469 -0.091369 71 67 66
-0.050781 -0.230469 -0.089862 71 66 66
-0.046875 -0.230469 -0.088366 70 66 66
-0.042969 -0.230469 -0.087000 68 64 65
-0.039062 -0.230469 -0.085638 69 64 65
-0.035156 -0.230469 -0.084306 69 65 66
-0.031250 -0.230469 -0.082860 69 65 66
-0.027344 -0.230469 -0.080880 70 66 67
-0.023438 -0.230469 -0.078230 71 66 67
-0.019531 -0.230469 -0.075567 69 66 66
-0.015625 -0.230469 -0.072556 69 65 66
-0.011719 -0.230469 -0.068417 67 64 65
-0.007812 -0.230469 -0.063526 69 65 66
-0.003906 -0.230469 -0.057915 74 69 70
0.000000 -0.230469 -0.051907 75 70 71
0.003906 -0.230469 -0.045394 74 69 70
0.007812 -0.230469 -0.037784 70 66 68
0.011719 -0.230469 -0.029786 67 63 65
0.015625 -0.230469 -0.021839 70 65 65
0.019531 -0.230469 -0.012683 61 59 60
0.070312 -0.230469 -0.003279 29 29 36
0.074219 -0.230469 -0.012459 34 32 34
0.078125 -0.230469 -0.019882 40 36 37
0.082031 -0.230469 -0.026124 42 40 39
0.085938 -0.230469 -0.032320 47 45 44
0.089844 -0.230469 -0.038133 52 50 49
0.093750 -0.230469 -0.043444 55 53 52
0.097656 -0.230469 -0.048230 53 51 51
0.101562 -0.230469 -0.052760 54 52 52
0.105469 -0.230469 -0.057180 59 56 56
0.109375 -0.230469 -0.061284 60 57 58
0.113281 -0.230469 -0.064983 62 59 60
0.117188 -0.230469 -0.068229 63 58 60
0.121094 -0.230469 -0.071406 62 57 59
0.125000 -0.230469 -0.074545 65 59 61
0.128906 -0.230469 -0.077391 69 63 64
0.132812 -0.230469 -0.079969 70 64 65
0.136719 -0.230469 -0.082468 68 62 64
0.140625 -0.230469 -0.084800 64 59 60
0.144531 -0.230469 -0.086776 63 58 60
0.148438 -0.230469 -0.088462 66 60 62
0.152344 -0.230469 -0.089977 65 60 62
0.156250 -0.230469 -0.091310 66 61 62
0.160156 -0.230469 -0.092579 69 63 64
0.164062 -0.230469 -0.093817 69 63 64
0.167969 -0.230469 -0.094846 68 61 63
0.171875 -0.230469 -0.095649 70 63 65
0.175781 -0.230469 -0.096301 77 69 70
0.179688 -0.230469 -0.096770 79 70 71
0.183594 -0.230469 -0.097047 77 68 69
0.187500 -0.230469 -0.097181 76 67 68
0.191406 -0.230469 -0.097204 81 72 72
0.195312 -0.230469 -0.097144 84 75 75
0.199219 -0.230469 -0.097002 82 73 73
0.203125 -0.230469 -0.096836 83 74 74
0.207031 -0.230469 -0.096621 84 75 75
0.210938 -0.230469 -0.096359 80 73 74
0.214844 -0.230469 -0.096111 79 73 74
0.218750 -0.230469 -0.095785 81 75 75
0.222656 -0.230469 -0.095304 81 75 75
0.226562 -0.230469 -0.094647 82 76 76
0.230469 -0.230469 -0.093923 83 77 76
0.234375 -0.230469 -0.093096 83 77 76
0.238281 -0.230469 -0.092078 84 78 77
0.242188 -0.230469 -0.090853 84 79 78
0.246094 -0.230469 -0.089524 80 75 74
0.250000 -0.230469 -0.087812 83 77 76
0.253906 -0.230469 -0.085681 91 85 83
0.257812 -0.230469 -0.082706 83 78 77
0.261719 -0.230469 -0.079861 77 72 72
0.265625 -0.230469 -0.076813 78 73 73
0.269531 -0.230469 -0.072398 80 75 75
0.273438 -0.230469 -0.066588 76 73 73
0.277344 -0.230469 -0.057920 84 82 81
0.281250 -0.230469 -0.046777 100 94 93
0.285156 -0.230469 -0.035298 59 57 57
0.289062 -0.230469 -0.017955 64 59 53
-0.214844 -0.234375 0.004242 52 48 48
-0.210938 -0.234375 -0.004716 47 42 43
-0.207031 -0.234375 -0.011708 39 35 37
-0.203125 -0.234375 -0.018446 37 34 36
-0.199219 -0.234375 -0.027597 48 43 45
-0.195312 -0.234375 -0.039576 56 51 53
-0.191406 -0.234375 -0.050630 53 49 51
-0.187500 -0.234375 -0.059781 50 46 49
-0.183594 -0.234375 -0.066801 51 47 49
-0.179688 -0.234375 -0.072525 53 48 50
-0.175781 -0.234375 -0.077636 56 51 53
-0.171875 -0.234375 -0.082172 61 56 58
-0.167969 -0.234375 -0.085773 65 59 61
-0.164062 -0.234375 -0.088716 68 62 64
-0.160156 -0.234375 -0.091374 71 64 66
-0.156250 -0.234375 -0.093670 71 64 66
-0.152344 -0.234375 -0.095786 69 63 65
-0.148438 -0.234375 -0.097572 67 61 64
-0.144531 -0.234375 -0.099245 67 61 64
-0.140625 -0.234375 -0.100705 69 63 66
-0.136719 -0.234375 -0.101888 69 63 66
-0.132812 -0.234375 -0.102828 70 64 67
-0.128906 -0.234375 -0.103657 71 65 68
-0.125000 -0.234375 -0.104383 73 67 69
-0.121094 -0.234375 -0.104929 78 71 73
-0.117188 -0.234375 -0.105322 75 69 71
-0.113281 -0.234375 -0.105593 73 67 68
-0.109375 -0.234375 -0.105726 74 68 69
-0.105469 -0.234375 -0.105661 74 67 69
-0.101562 -0.234375 -0.105415 76 69 70
-0.097656 -0.234375 -0.104968 79 72 73
-0.093750 -0.234375 -0.104341 80 73 73
-0.089844 -0.234375 -0.103469 83 76 76
-0.085938 -0.234375 -0.102405 86 79 78
-0.082031 -0.234375 -0.101111 84 77 77
-0.078125 -0.234375 -0.099667 81 74 74
-0.074219 -0.234375 -0.098223 77 71 71
-0.070312 -0.234375 -0.096782 75 69 69
-0.066406 -0.234375 -0.095432 76 70 70
-0.062500 -0.234375 -0.093997 75 69 69
-0.058594 -0.234375 -0.092552 72 67 67
-0.054688 -0.234375 -0.091129 70 66 65
-0.050781 -0.234375 -0.089610 70 66 66
-0.046875 -0.234375 -0.088122 69 65 65
-0.042969 -0.234375 -0.086770 68 64 64
-0.039062 -0.234375 -0.085401 69 65 66
-0.035156 -0.234375 -0.084070 71 67 67
-0.031250 -0.234375 -0.082606 71 67 68
-0.027344 -0.234375 -0.080590 73 69 69
-0.023438 -0.234375 -0.077893 73 68 69
-0.019531 -0.234375 -0.075147 70 66 67
-0.015625 -0.234375 -0.072032 69 66 66
-0.011719 -0.234375 -0.067835 69 65 66
-0.007812 -0.234375 -0.062915 69 65 66
-0.003906 -0.234375 -0.057299 71 67 68
0.000000 -0.234375 -0.051323 73 68 69
0.003906 -0.234375 -0.044772 74 69 70
0.007812 -0.234375 -0.037056 73 68 70
0.011719 -0.234375 -0.028933 68 63 65
0.015625 -0.234375 -0.020781 68 64 64
0.019531 -0.234375 -0.012679 61 59 60
0.070312 -0.234375 -0.001095 28 28 37
0.074219 -0.234375 -0.010867 34 33 34
0.078125 -0.234375 -0.018418 37 34 34
0.082031 -0.234375 -0.024662 43 40 40
0.085938 -0.234375 -0.030836 49 46 45
0.089844 -0.234375 -0.036715 52 50 49
0.093750 -0.234375 -0.042059 54 52 51
0.097656 -0.234375 -0.046910 53 51 51
0.101562 -0.234375 -0.051568 54 51 52
0.105469 -0.234375 -0.056119 59 56 57
0.109375 -0.234375 -0.060345 63 60 61
0.113281 -0.234375 -0.064167 63 60 61
0.117188 -0.234375 -0.067504 60 56 58
0.121094 -0.234375 -0.070777 58 54 56
0.125000 -0.234375 -0.074021 59 54 57
0.128906 -0.234375 -0.076962 61 56 58
0.132812 -0.234375 -0.079641 62 57 59
0.136719 -0.234375 -0.082248 65 60 61
0.140625 -0.234375 -0.084678 68 62 63
0.144531 -0.234375 -0.086767 69 63 64
0.148438 -0.234375 -0.088568 71 65 66
0.152344 -0.234375 -0.090181 69 63 65
0.156250 -0.234375 -0.091617 68 63 64
0.160156 -0.234375 -0.092970 69 63 65
0.164062 -0.234375 -0.094271 68 63 64
0.167969 -0.234375 -0.095373 68 62 64
0.171875 -0.234375 -0.096244 69 63 64
0.175781 -0.234375 -0.096934 73 66 67
0.179688 -0.234375 -0.097442 74 65 67
0.183594 -0.234375 -0.097768 73 65 66
0.187500 -0.234375 -0.097936 75 66 67
0.191406 -0.234375 -0.097990 80 71 72
0.195312 -0.234375 -0.097948 84 75 75
0.199219 -0.234375 -0.097816 80 71 72
0.203125 -0.234375 -0.097669 79 71 71
0.207031 -0.234375 -0.097455 82 74 74
0.210938 -0.234375 -0.097169 81 74 74
0.214844 -0.234375 -0.096881 81 75 75
0.218750 -0.234375 -0.096518 83 77 76
0.222656 -0.234375 -0.095995 84 78 78
0.226562 -0.234375 -0.095297 86 80 79
0.230469 -0.234375 -0.094544 83 78 77
0.234375 -0.234375 -0.093684 81 76 76
0.238281 -0.234375 -0.092652 84 78 77
0.242188 -0.234375 -0.091411 86 80 79
0.246094 -0.234375 -0.090046 82 77 76
0.250000 -0.234375 -0.088327 80 75 74
0.253906 -0.234375 -0.086158 87 81 79
0.257812 -0.234375 -0.083206 85 79 78
0.261719 -0.234375 -0.080471 81 76 75
0.265625 -0.234375 -0.077464 81 77 76
0.269531 -0.234375 -0.073064 81 77 77
0.273438 -0.234375 -0.067302 77 74 74
0.277344 -0.234375 -0.058769 87 84 83
0.281250 -0.234375 -0.048113 83 77 76
0.285156 -0.234375 -0.037117 43 40 43
0.289062 -0.234375 -0.025936 83 70 62
-0.214844 -0.238281 0.002787 55 51 50
-0.210938 -0.238281 -0.005703 51 46 47
-0.207031 -0.238281 -0.012868 41 38 39
-0.203125 -0.238281 -0.019668 36 33 35
-0.199219 -0.238281 -0.029102 46 41 43
-0.195312 -0.238281 -0.041239 56 51 53
-0.191406 -0.238281 -0.052165 56 52 54
-0.187500 -0.238281 -0.061088 54 50 52
-0.183594 -0.238281 -0.067977 53 49 51
-0.179688 -0.238281 -0.073639 51 47 49
-0.175781 -0.238281 -0.078655 53 48 50
-0.171875 -0.238281 -0.083115 58 52 55
-0.167969 -0.238281 -0.086664 61 55 58
-0.164062 -0.238281 -0.089575 64 58 60
-0.160156 -0.238281 -0.092197 68 62 64
-0.156250 -0.238281 -0.094462 71 64 66
-0.152344 -0.238281 -0.096556 72 66 68
-0.148438 -0.238281 -0.098313 72 65 68
-0.144531 -0.238281 -0.099963 72 66 68
-0.140625 -0.238281 -0.101390 75 68 70
-0.136719 -0.238281 -0.102539 77 70 72
-0.132812 -0.238281 -0.103470 78 70 73
-0.128906 -0.238281 -0.104268 76 69 71
-0.125000 -0.238281 -0.104947 80 73 75
-0.121094 -0.238281 -0.105446 88 80 82
-0.117188 -0.238281 -0.105798 85 78 79
-0.113281 -0.238281 -0.106043 80 74 75
-0.109375 -0.238281 -0.106136 81 74 75
-0.105469 -0.238281 -0.106045 80 73 74
-0.101562 -0.238281 -0.105773 81 73 74
-0.097656 -0.238281 -0.105265 81 73 74
-0.093750 -0.238281 -0.104586 78 71 72
-0.089844 -0.238281 -0.103641 81 74 74
-0.085938 -0.238281 -0.102511 83 75 75
-0.082031 -0.238281 -0.101153 79 72 72
-0.078125 -0.238281 -0.099631 77 70 70
-0.074219 -0.238281 -0.098155 77 70 71
-0.070312 -0.238281 -0.096683 78 71 71
-0.066406 -0.238281 -0.095346 79 73 72
-0.062500 -0.238281 -0.093944 77 72 71
-0.058594 -0.238281 -0.092463 73 69 68
-0.054688 -0.238281 -0.091017 72 68 67
-0.050781 -0.238281 -0.089497 74 69 68
-0.046875 -0.238281 -0.088011 73 68 68
-0.042969 -0.238281 -0.086667 71 66 66
-0.039062 -0.238281 -0.085300 71 67 67
-0.035156 -0.238281 -0.083957 71 67 68
-0.031250 -0.238281 -0.082470 71 67 68
-0.027344 -0.238281 -0.080409 72 68 69
-0.023438 -0.238281 -0.077661 73 69 69
-0.019531 -0.238281 -0.074816 72 68 69
-0.015625 -0.238281 -0.071575 72 68 69
-0.011719 -0.238281 -0.067315 73 69 70
-0.007812 -0.238281 -0.062331 72 68 69
-0.003906 -0.238281 -0.056716 71 67 68
0.000000 -0.238281 -0.050822 70 66 68
0.003906 -0.238281 -0.044250 72 67 69
0.007812 -0.238281 -0.036473 72 67 69
0.011719 -0.238281 -0.028242 69 64 65
0.015625 -0.238281 -0.019614 67 62 62
0.019531 -0.238281 -0.012741 58 55 56
0.023438 -0.238281 0.000510 23 20 21
0.070312 -0.238281 0.001499 29 28 39
0.074219 -0.238281 -0.009510 40 38 38
0.078125 -0.238281 -0.017127 36 32 33
0.082031 -0.238281 -0.023302 42 39 40
0.085938 -0.238281 -0.029436 50 48 47
0.089844 -0.238281 -0.035330 54 52 50
0.093750 -0.238281 -0.040683 54 52 52
0.097656 -0.238281 -0.045582 54 52 52
0.101562 -0.238281 -0.050340 54 53 53
0.105469 -0.238281 -0.055024 61 58 59
0.109375 -0.238281 -0.059385 65 62 63
0.113281 -0.238281 -0.063328 64 61 62
0.117188 -0.238281 -0.066755 65 61 62
0.121094 -0.238281 -0.070135 68 63 64
0.125000 -0.238281 -0.073507 70 64 65
0.128906 -0.238281 -0.076565 68 63 64
0.132812 -0.238281 -0.079351 64 59 61
0.136719 -0.238281 -0.082074 62 57 59
0.140625 -0.238281 -0.084626 64 58 60
0.144531 -0.238281 -0.086823 65 60 62
0.148438 -0.238281 -0.088742 67 62 63
0.152344 -0.238281 -0.090462 67 61 63
0.156250 -0.238281 -0.091986 68 63 64
0.160156 -0.238281 -0.093429 70 64 65
0.164062 -0.238281 -0.094797 70 64 66
0.167969 -0.238281 -0.095975 69 64 65
0.171875 -0.238281 -0.096930 68 62 64
0.175781 -0.238281 -0.097676 68 62 64
0.179688 -0.238281 -0.098224 70 63 64
0.183594 -0.238281 -0.098579 75 67 68
0.187500 -0.238281 -0.098780 78 70 70
0.191406 -0.238281 -0.098870 80 72 72
0.195312 -0.238281 -0.098856 83 74 74
0.199219 -0.238281 -0.098731 82 73 73
0.203125 -0.238281 -0.098580 80 72 72
0.207031 -0.238281 -0.098376 82 74 73
0.210938 -0.238281 -0.098082 80 73 73
0.214844 -0.238281 -0.097750 78 73 73
0.218750 -0.238281 -0.097357 80 75 75
0.222656 -0.238281 -0.096798 83 77 77
0.226562 -0.238281 -0.096056 87 81 80
0.230469 -0.238281 -0.095244 87 82 81
0.234375 -0.238281 -0.094321 85 80 79
0.238281 -0.238281 -0.093276 87 81 80
0.242188 -0.238281 -0.092035 91 85 83
0.246094 -0.238281 -0.090642 90 85 83
0.250000 -0.238281 -0.088942 87 82 81
0.253906 -0.238281 -0.086789 86 81 79
0.257812 -0.238281 -0.083868 85 80 78
0.261719 -0.238281 -0.081195 87 82 80
0.265625 -0.238281 -0.078220 86 82 80
0.269531 -0.238281 -0.073898 83 79 78
0.273438 -0.238281 -0.067923 81 76 77
0.277344 -0.238281 -0.059754 80 75 75
0.281250 -0.238281 -0.050270 55 51 51
0.285156 -0.238281 -0.039519 34 33 34
0.289062 -0.238281 -0.028119 43 40 40
-0.214844 -0.242188 0.001700 57 53 52
-0.210938 -0.242188 -0.006781 55 50 51
-0.207031 -0.242188 -0.014051 46 43 44
-0.203125 -0.242188 -0.020989 40 36 38
-0.199219 -0.242188 -0.030682 46 42 44
-0.195312 -0.242188 -0.042823 56 51 53
-0.191406 -0.242188 -0.053596 57 53 55
-0.187500 -0.242188 -0.062317 56 51 54
-0.183594 -0.242188 -0.069074 57 52 54
-0.179688 -0.242188 -0.074684 56 51 53
-0.175781 -0.242188 -0.079622 55 51 53
-0.171875 -0.242188 -0.084006 59 53 56
-0.167969 -0.242188 -0.087502 60 54 57
-0.164062 -0.242188 -0.090407 61 56 58
-0.160156 -0.242188 -0.093022 65 59 62
-0.156250 -0.242188 -0.095270 68 61 64
-0.152344 -0.242188 -0.097343 69 63 66
-0.148438 -0.242188 -0.099074 70 64 66
-0.144531 -0.242188 -0.100710 70 63 66
-0.140625 -0.242188 -0.102128 70 63 66
-0.136719 -0.242188 -0.103266 70 63 66
-0.132812 -0.242188 -0.104192 67 61 64
-0.128906 -0.242188 -0.104982 61 56 59
-0.125000 -0.242188 -0.105634 61 56 60
-0.121094 -0.242188 -0.106088 69 63 66
-0.117188 -0.242188 -0.106403 70 64 66
-0.113281 -0.242188 -0.106605 68 62 65
-0.109375 -0.242188 -0.106633 73 66 68
-0.105469 -0.242188 -0.106495 75 68 69
-0.101562 -0.242188 -0.106188 75 68 69
-0.097656 -0.242188 -0.105649 73 66 68
-0.093750 -0.242188 -0.104934 70 63 65
-0.089844 -0.242188 -0.103931 69 63 65
-0.085938 -0.242188 -0.102747 68 62 64
-0.082031 -0.242188 -0.101330 67 62 63
-0.078125 -0.242188 -0.099755 71 65 66
-0.074219 -0.242188 -0.098269 76 70 71
-0.070312 -0.242188 -0.096767 78 72 72
-0.066406 -0.242188 -0.095442 77 71 71
-0.062500 -0.242188 -0.094066 74 69 69
-0.058594 -0.242188 -0.092575 71 66 66
-0.054688 -0.242188 -0.091138 70 65 65
-0.050781 -0.242188 -0.089598 72 67 66
-0.046875 -0.242188 -0.088083 72 67 66
-0.042969 -0.242188 -0.086723 71 66 66
-0.039062 -0.242188 -0.085337 72 67 68
-0.035156 -0.242188 -0.083964 71 67 68
-0.031250 -0.242188 -0.082433 70 66 67
-0.027344 -0.242188 -0.080315 70 67 67
-0.023438 -0.242188 -0.077513 71 68 68
-0.019531 -0.242188 -0.074581 71 67 68
-0.015625 -0.242188 -0.071234 70 67 67
-0.011719 -0.242188 -0.066925 71 68 68
-0.007812 -0.242188 -0.061894 72 68 69
-0.003906 -0.242188 -0.056299 73 69 70
0.000000 -0.242188 -0.050472 73 69 71
0.003906 -0.242188 -0.043877 73 69 70
0.007812 -0.242188 -0.036010 71 67 69
0.011719 -0.242188 -0.027674 70 65 67
0.015625 -0.242188 -0.018943 70 64 64
0.019531 -0.242188 -0.011968 61 57 58
0.023438 -0.242188 -0.000239 27 24 23
0.070312 -0.242188 0.004140 37 37 46
0.074219 -0.242188 -0.008584 52 49 47
0.078125 -0.242188 -0.015819 42 37 37
0.082031 -0.242188 -0.021986 45 44 44
0.085938 -0.242188 -0.028155 51 49 48
0.089844 -0.242188 -0.034014 55 53 52
0.093750 -0.242188 -0.039357 56 54 53
0.097656 -0.242188 -0.044335 56 54 54
0.101562 -0.242188 -0.049208 56 54 54
0.105469 -0.242188 -0.054003 61 59 59
0.109375 -0.242188 -0.058478 65 62 63
0.113281 -0.242188 -0.062535 64 61 62
0.117188 -0.242188 -0.066058 65 61 63
0.121094 -0.242188 -0.069532 69 64 65
0.125000 -0.242188 -0.073005 70 64 65
0.128906 -0.242188 -0.076175 70 64 65
0.132812 -0.242188 -0.079076 69 63 64
0.136719 -0.242188 -0.081906 66 61 63
0.140625 -0.242188 -0.084574 65 60 61
0.144531 -0.242188 -0.086881 65 59 61
0.148438 -0.242188 -0.088904 64 59 61
0.152344 -0.242188 -0.090731 62 57 59
0.156250 -0.242188 -0.092353 64 59 61
0.160156 -0.242188 -0.093888 66 61 62
0.164062 -0.242188 -0.095342 68 62 64
0.167969 -0.242188 -0.096598 70 64 66
0.171875 -0.242188 -0.097627 68 63 65
0.175781 -0.242188 -0.098448 68 63 64
0.179688 -0.242188 -0.099051 70 64 65
0.183594 -0.242188 -0.099430 77 69 69
0.187500 -0.242188 -0.099668 80 72 72
0.191406 -0.242188 -0.099797 81 72 72
0.195312 -0.242188 -0.099816 83 74 75
0.199219 -0.242188 -0.099715 83 74 74
0.203125 -0.242188 -0.099574 81 72 72
0.207031 -0.242188 -0.099366 81 74 73
0.210938 -0.242188 -0.099053 81 74 74
0.214844 -0.242188 -0.098706 80 74 74
0.218750 -0.242188 -0.098283 80 75 75
0.222656 -0.242188 -0.097672 80 75 75
0.226562 -0.242188 -0.096885 82 77 77
0.230469 -0.242188 -0.096020 87 81 81
0.234375 -0.242188 -0.095040 89 84 82
0.238281 -0.242188 -0.093952 89 83 82
0.242188 -0.242188 -0.092690 91 85 83
0.246094 -0.242188 -0.091278 94 87 86
0.250000 -0.242188 -0.089554 94 87 86
0.253906 -0.242188 -0.087388 88 82 80
0.257812 -0.242188 -0.084536 82 77 76
0.261719 -0.242188 -0.081901 87 81 80
0.265625 -0.242188 -0.078905 86 81 80
0.269531 -0.242188 -0.074743 84 80 79
0.273438 -0.242188 -0.068805 81 76 75
0.277344 -0.242188 -0.061112 60 56 58
0.281250 -0.242188 -0.052275 31 30 32
0.285156 -0.242188 -0.041665 30 29 30
0.289062 -0.242188 -0.030511 64 59 53
-0.218750 -0.246094 0.014664 54 51 55
-0.214844 -0.246094 0.000434 59 55 55
-0.210938 -0.246094 -0.007950 56 51 52
-0.207031 -0.246094 -0.015424 49 46 47
-0.203125 -0.246094 -0.022459 41 37 40
-0.199219 -0.246094 -0.032241 45 40 42
-0.195312 -0.246094 -0.044254 55 50 52
-0.191406 -0.246094 -0.054906 58 54 56
-0.187500 -0.246094 -0.063498 56 51 54
-0.183594 -0.246094 -0.070117 58 53 55
-0.179688 -0.246094 -0.075652 60 54 57
-0.175781 -0.246094 -0.080518 60 54 56
-0.171875 -0.246094 -0.084835 62 56 59
-0.167969 -0.246094 -0.088317 64 58 61
-0.164062 -0.246094 -0.091233 66 60 62
-0.160156 -0.246094 -0.093841 70 64 66
-0.156250 -0.246094 -0.096090 73 66 68
-0.152344 -0.246094 -0.098156 74 67 69
-0.148438 -0.246094 -0.099872 76 69 70
-0.144531 -0.246094 -0.101472 76 68 70
-0.140625 -0.246094 -0.102859 75 67 69
-0.136719 -0.246094 -0.104000 76 69 70
-0.132812 -0.246094 -0.104909 78 71 73
-0.128906 -0.246094 -0.105690 75 68 70
-0.125000 -0.246094 -0.106343 70 64 67
-0.121094 -0.246094 -0.106777 73 67 69
-0.117188 -0.246094 -0.107076 75 68 70
-0.113281 -0.246094 -0.107241 73 67 69
-0.109375 -0.246094 -0.107218 79 72 73
-0.105469 -0.246094 -0.107026 82 74 75
-0.101562 -0.246094 -0.106660 82 74 75
-0.097656 -0.246094 -0.106092 84 75 76
