ply
    format ascii 1.0
    element vertex 65802
    property float x
    property float y
    property float z
    property uchar red
    property uchar green
    property uchar blue
    end_header
-0.125000 -0.652344 -0.075039 27 25 32
-0.121094 -0.652344 -0.074396 25 23 29
-0.117188 -0.652344 -0.072917 26 25 29
-0.113281 -0.652344 -0.071774 33 32 34
-0.109375 -0.652344 -0.070491 30 28 31
-0.105469 -0.652344 -0.068564 19 17 21
-0.101562 -0.652344 -0.065944 19 17 22
-0.097656 -0.652344 -0.061261 16 14 20
-0.093750 -0.652344 -0.057464 24 20 28
0.105469 -0.652344 -0.070193 57 37 41
0.109375 -0.652344 -0.077834 52 47 54
0.113281 -0.652344 -0.083536 41 40 50
0.117188 -0.652344 -0.087527 33 32 40
0.121094 -0.652344 -0.091436 31 29 36
0.125000 -0.652344 -0.094373 29 28 34
0.128906 -0.652344 -0.096679 33 31 37
0.132812 -0.652344 -0.097966 32 32 39
0.136719 -0.652344 -0.099390 29 30 39
0.140625 -0.652344 -0.100522 27 28 38
0.144531 -0.652344 -0.101054 27 27 38
0.148438 -0.652344 -0.100759 28 29 40
0.152344 -0.652344 -0.100537 26 27 38
0.156250 -0.652344 -0.099858 24 25 36
0.160156 -0.652344 -0.098360 26 27 38
0.164062 -0.652344 -0.095445 28 29 41
0.167969 -0.652344 -0.092775 30 31 43
0.171875 -0.652344 -0.089220 35 35 48
0.175781 -0.652344 -0.085383 40 38 52
0.179688 -0.652344 -0.078905 53 48 62
0.183594 -0.652344 -0.070157 46 38 54
-0.167969 -0.656250 -0.046529 33 30 40
-0.164062 -0.656250 -0.054476 38 35 43
-0.160156 -0.656250 -0.059917 39 35 44
-0.156250 -0.656250 -0.063765 33 30 40
-0.152344 -0.656250 -0.066787 31 29 39
-0.148438 -0.656250 -0.069150 29 26 36
-0.144531 -0.656250 -0.071310 27 25 34
-0.140625 -0.656250 -0.073085 28 25 34
-0.136719 -0.656250 -0.074072 29 26 35
-0.132812 -0.656250 -0.074201 29 26 35
-0.128906 -0.656250 -0.074454 26 24 33
-0.125000 -0.656250 -0.074451 25 23 30
-0.121094 -0.656250 -0.073801 24 22 28
-0.117188 -0.656250 -0.072297 27 25 29
-0.113281 -0.656250 -0.071148 34 33 36
-0.109375 -0.656250 -0.069922 30 28 32
-0.105469 -0.656250 -0.067935 18 16 20
-0.101562 -0.656250 -0.065267 17 14 19
-0.097656 -0.656250 -0.060511 12 10 16
-0.093750 -0.656250 -0.056674 15 12 20
0.105469 -0.656250 -0.062608 56 40 42
0.109375 -0.656250 -0.077191 46 43 50
0.113281 -0.656250 -0.083122 42 42 49
0.117188 -0.656250 -0.086968 34 32 39
0.121094 -0.656250 -0.091221 29 28 34
0.125000 -0.656250 -0.094338 28 27 32
0.128906 -0.656250 -0.096659 30 29 35
0.132812 -0.656250 -0.097961 32 31 39
0.136719 -0.656250 -0.099402 31 31 41
0.140625 -0.656250 -0.100541 29 29 40
0.144531 -0.656250 -0.101092 29 29 40
0.148438 -0.656250 -0.100813 29 30 41
0.152344 -0.656250 -0.100625 26 27 38
0.156250 -0.656250 -0.099973 24 25 36
0.160156 -0.656250 -0.098505 27 28 39
0.164062 -0.656250 -0.095581 29 30 42
0.167969 -0.656250 -0.092971 31 32 44
0.171875 -0.656250 -0.089445 35 35 48
0.175781 -0.656250 -0.085553 39 38 51
0.179688 -0.656250 -0.078842 51 47 60
0.183594 -0.656250 -0.069819 43 37 53
-0.167969 -0.660156 -0.046020 33 31 41
-0.164062 -0.660156 -0.054049 39 35 44
-0.160156 -0.660156 -0.059500 39 36 45
-0.156250 -0.660156 -0.063297 33 31 41
-0.152344 -0.660156 -0.066258 32 30 40
-0.148438 -0.660156 -0.068598 29 27 36
-0.144531 -0.660156 -0.070753 26 24 32
-0.140625 -0.660156 -0.072513 27 25 33
-0.136719 -0.660156 -0.073492 29 26 34
-0.132812 -0.660156 -0.073609 29 26 34
-0.128906 -0.660156 -0.073875 26 24 31
-0.125000 -0.660156 -0.073881 24 22 29
-0.121094 -0.660156 -0.073224 23 21 27
-0.117188 -0.660156 -0.071704 24 23 27
-0.113281 -0.660156 -0.070561 31 30 33
-0.109375 -0.660156 -0.069337 27 26 30
-0.105469 -0.660156 -0.067221 17 15 20
-0.101562 -0.660156 -0.064524 20 17 22
-0.097656 -0.660156 -0.060430 20 18 25
-0.093750 -0.660156 -0.055960 32 29 40
0.105469 -0.660156 -0.046673 47 37 40
0.109375 -0.660156 -0.076650 51 47 53
0.113281 -0.660156 -0.082546 48 46 53
0.117188 -0.660156 -0.086560 34 32 39
0.121094 -0.660156 -0.090843 28 26 33
0.125000 -0.660156 -0.094270 27 25 32
0.128906 -0.660156 -0.096585 29 28 34
0.132812 -0.660156 -0.097926 32 31 39
0.136719 -0.660156 -0.099376 31 31 41
0.140625 -0.660156 -0.100522 28 28 39
0.144531 -0.660156 -0.101096 28 29 39
0.148438 -0.660156 -0.100834 29 30 41
0.152344 -0.660156 -0.100685 26 27 38
0.156250 -0.660156 -0.100059 25 26 36
0.160156 -0.660156 -0.098623 29 30 41
0.164062 -0.660156 -0.095696 32 33 44
0.167969 -0.660156 -0.093157 33 34 46
0.171875 -0.660156 -0.089724 37 37 50
0.175781 -0.660156 -0.085600 40 39 51
0.179688 -0.660156 -0.078421 52 49 61
0.183594 -0.660156 -0.069956 42 38 54
-0.167969 -0.664062 -0.045640 33 31 41
-0.164062 -0.664062 -0.053666 37 34 42
-0.160156 -0.664062 -0.059054 37 35 44
-0.156250 -0.664062 -0.062829 33 31 41
-0.152344 -0.664062 -0.065737 32 30 40
-0.148438 -0.664062 -0.068037 30 28 37
-0.144531 -0.664062 -0.070186 29 26 34
-0.140625 -0.664062 -0.071935 30 27 34
-0.136719 -0.664062 -0.072909 29 26 34
-0.132812 -0.664062 -0.073026 26 23 30
-0.128906 -0.664062 -0.073313 22 20 26
-0.125000 -0.664062 -0.073328 21 19 25
-0.121094 -0.664062 -0.072670 21 19 24
-0.117188 -0.664062 -0.071134 21 20 24
-0.113281 -0.664062 -0.070012 26 26 29
-0.109375 -0.664062 -0.068751 24 23 27
-0.105469 -0.664062 -0.066650 16 14 19
-0.101562 -0.664062 -0.063553 18 16 21
-0.097656 -0.664062 -0.059874 14 12 19
-0.093750 -0.664062 -0.051147 13 10 19
0.109375 -0.664062 -0.074830 47 43 49
0.113281 -0.664062 -0.082080 45 43 50
0.117188 -0.664062 -0.086464 33 30 37
0.121094 -0.664062 -0.090525 28 26 32
0.125000 -0.664062 -0.094133 26 25 31
0.128906 -0.664062 -0.096480 27 26 32
0.132812 -0.664062 -0.097873 30 29 37
0.136719 -0.664062 -0.099328 28 29 39
0.140625 -0.664062 -0.100483 26 26 36
0.144531 -0.664062 -0.101075 27 27 37
0.148438 -0.664062 -0.100828 28 28 39
0.152344 -0.664062 -0.100722 26 27 37
0.156250 -0.664062 -0.100124 26 26 37
0.160156 -0.664062 -0.098731 29 30 40
0.164062 -0.664062 -0.095814 32 32 43
0.167969 -0.664062 -0.093314 32 33 45
0.171875 -0.664062 -0.089879 34 34 46
0.175781 -0.664062 -0.085591 36 35 47
0.179688 -0.664062 -0.078431 48 45 57
0.183594 -0.664062 -0.066704 46 38 54
-0.167969 -0.667969 -0.044934 37 34 43
-0.164062 -0.667969 -0.053046 38 35 43
-0.160156 -0.667969 -0.058634 40 37 46
-0.156250 -0.667969 -0.062408 37 34 43
-0.152344 -0.667969 -0.065243 36 33 42
-0.148438 -0.667969 -0.067495 35 31 39
-0.144531 -0.667969 -0.069655 33 29 36
-0.140625 -0.667969 -0.071410 33 29 36
-0.136719 -0.667969 -0.072387 31 28 35
-0.132812 -0.667969 -0.072514 25 22 29
-0.128906 -0.667969 -0.072819 20 18 24
-0.125000 -0.667969 -0.072838 19 17 23
-0.121094 -0.667969 -0.072176 19 18 23
-0.117188 -0.667969 -0.070599 19 19 23
-0.113281 -0.667969 -0.069462 23 22 27
-0.109375 -0.667969 -0.067950 22 21 25
-0.105469 -0.667969 -0.066040 17 15 19
-0.101562 -0.667969 -0.062416 20 18 23
-0.097656 -0.667969 -0.059380 14 13 21
0.109375 -0.667969 -0.070501 39 35 41
0.113281 -0.667969 -0.081017 42 40 46
0.117188 -0.667969 -0.086446 31 29 36
0.121094 -0.667969 -0.090438 28 26 33
0.125000 -0.667969 -0.094007 26 25 33
0.128906 -0.667969 -0.096350 25 25 32
0.132812 -0.667969 -0.097811 29 29 37
0.136719 -0.667969 -0.099269 28 29 40
0.140625 -0.667969 -0.100425 26 27 38
0.144531 -0.667969 -0.101021 27 28 38
0.148438 -0.667969 -0.100781 28 28 39
0.152344 -0.667969 -0.100720 26 27 38
0.156250 -0.667969 -0.100145 27 27 37
0.160156 -0.667969 -0.098807 29 29 39
0.164062 -0.667969 -0.095873 30 31 42
0.167969 -0.667969 -0.093380 31 32 44
0.171875 -0.667969 -0.089948 31 32 44
0.175781 -0.667969 -0.085480 34 34 45
0.179688 -0.667969 -0.080025 50 47 57
0.183594 -0.667969 -0.062348 43 37 53
-0.167969 -0.671875 -0.045007 38 35 44
-0.164062 -0.671875 -0.052484 39 36 45
-0.160156 -0.671875 -0.058121 42 38 47
-0.156250 -0.671875 -0.061930 38 35 44
-0.152344 -0.671875 -0.064746 35 31 40
-0.148438 -0.671875 -0.066959 32 28 36
-0.144531 -0.671875 -0.069132 30 26 33
-0.140625 -0.671875 -0.070895 30 26 33
-0.136719 -0.671875 -0.071875 29 26 33
-0.132812 -0.671875 -0.072008 25 22 29
-0.128906 -0.671875 -0.072330 20 18 24
-0.125000 -0.671875 -0.072343 19 18 23
-0.121094 -0.671875 -0.071680 19 18 23
-0.117188 -0.671875 -0.070081 20 19 23
-0.113281 -0.671875 -0.068957 23 22 26
-0.109375 -0.671875 -0.067269 22 20 25
-0.105469 -0.671875 -0.065582 17 15 19
-0.101562 -0.671875 -0.061368 23 21 25
-0.097656 -0.671875 -0.058126 23 23 32
0.109375 -0.671875 -0.072698 35 31 37
0.113281 -0.671875 -0.079585 41 40 46
0.117188 -0.671875 -0.085853 32 30 38
0.121094 -0.671875 -0.090205 28 27 35
0.125000 -0.671875 -0.093713 27 27 35
0.128906 -0.671875 -0.096061 26 26 34
0.132812 -0.671875 -0.097604 30 30 39
0.136719 -0.671875 -0.099079 30 30 41
0.140625 -0.671875 -0.100243 27 28 39
0.144531 -0.671875 -0.100859 28 28 39
0.148438 -0.671875 -0.100646 27 27 38
0.152344 -0.671875 -0.100651 26 27 37
0.156250 -0.671875 -0.100101 27 27 37
0.160156 -0.671875 -0.098815 28 28 38
0.164062 -0.671875 -0.095891 30 31 41
0.167969 -0.671875 -0.093395 32 32 44
0.171875 -0.671875 -0.090065 31 31 43
0.175781 -0.671875 -0.085611 36 35 46
0.179688 -0.671875 -0.079759 52 49 59
-0.167969 -0.675781 -0.045100 39 35 45
-0.164062 -0.675781 -0.051834 39 36 45
-0.160156 -0.675781 -0.057571 43 39 48
-0.156250 -0.675781 -0.061419 39 35 45
-0.152344 -0.675781 -0.064277 34 30 39
-0.148438 -0.675781 -0.066458 31 27 34
-0.144531 -0.675781 -0.068631 30 26 32
-0.140625 -0.675781 -0.070399 30 26 32
-0.136719 -0.675781 -0.071388 29 26 32
-0.132812 -0.675781 -0.071542 24 22 28
-0.128906 -0.675781 -0.071884 19 18 23
-0.125000 -0.675781 -0.071884 19 18 23
-0.121094 -0.675781 -0.071214 20 19 23
-0.117188 -0.675781 -0.069589 21 20 24
-0.113281 -0.675781 -0.068465 25 24 27
-0.109375 -0.675781 -0.066665 23 21 25
-0.105469 -0.675781 -0.065081 16 15 18
-0.101562 -0.675781 -0.060650 19 16 20
-0.097656 -0.675781 -0.056327 15 15 22
0.109375 -0.675781 -0.068298 27 24 31
0.113281 -0.675781 -0.079806 42 41 48
0.117188 -0.675781 -0.085032 34 33 41
0.121094 -0.675781 -0.089865 29 28 37
0.125000 -0.675781 -0.093352 28 28 36
0.128906 -0.675781 -0.095835 27 26 34
0.132812 -0.675781 -0.097438 30 30 39
0.136719 -0.675781 -0.098914 30 31 41
0.140625 -0.675781 -0.100082 28 28 39
0.144531 -0.675781 -0.100717 29 29 40
0.148438 -0.675781 -0.100516 27 27 38
0.152344 -0.675781 -0.100568 26 27 37
0.156250 -0.675781 -0.100046 27 28 38
0.160156 -0.675781 -0.098809 27 28 38
0.164062 -0.675781 -0.095894 30 31 42
0.167969 -0.675781 -0.093364 31 32 44
0.171875 -0.675781 -0.090110 29 30 42
0.175781 -0.675781 -0.086123 36 36 47
0.179688 -0.675781 -0.077403 49 47 57
-0.167969 -0.679688 -0.044178 41 37 46
-0.164062 -0.679688 -0.051211 39 36 45
-0.160156 -0.679688 -0.057089 44 40 49
-0.156250 -0.679688 -0.060882 41 37 46
-0.152344 -0.679688 -0.063805 34 31 39
-0.148438 -0.679688 -0.065963 30 27 34
-0.144531 -0.679688 -0.068146 29 25 31
-0.140625 -0.679688 -0.069922 29 25 31
-0.136719 -0.679688 -0.070911 28 25 31
-0.132812 -0.679688 -0.071079 24 22 28
-0.128906 -0.679688 -0.071432 20 19 24
-0.125000 -0.679688 -0.071414 21 20 25
-0.121094 -0.679688 -0.070735 23 22 26
-0.117188 -0.679688 -0.069077 25 24 28
-0.113281 -0.679688 -0.067933 28 27 30
-0.109375 -0.679688 -0.066034 23 22 25
-0.105469 -0.679688 -0.064405 17 16 19
-0.101562 -0.679688 -0.060045 23 20 23
-0.097656 -0.679688 -0.055824 23 23 29
0.109375 -0.679688 -0.048723 20 18 27
0.113281 -0.679688 -0.079021 42 43 49
0.117188 -0.679688 -0.084460 32 32 40
0.121094 -0.679688 -0.089378 27 27 35
0.125000 -0.679688 -0.092901 28 27 36
0.128906 -0.679688 -0.095494 28 28 37
0.132812 -0.679688 -0.097212 33 33 42
0.136719 -0.679688 -0.098700 32 32 43
0.140625 -0.679688 -0.099838 28 28 39
0.144531 -0.679688 -0.100482 29 29 39
0.148438 -0.679688 -0.100306 26 26 37
0.152344 -0.679688 -0.100408 25 26 36
0.156250 -0.679688 -0.099916 28 28 38
0.160156 -0.679688 -0.098735 27 28 38
0.164062 -0.679688 -0.095845 31 31 42
0.167969 -0.679688 -0.093249 32 32 44
0.171875 -0.679688 -0.090150 30 31 43
0.175781 -0.679688 -0.085780 39 39 51
0.179688 -0.679688 -0.076991 49 47 58
-0.167969 -0.683594 -0.042589 43 39 48
-0.164062 -0.683594 -0.051129 36 34 42
-0.160156 -0.683594 -0.056581 44 41 49
-0.156250 -0.683594 -0.060279 43 39 48
-0.152344 -0.683594 -0.063358 35 31 41
-0.148438 -0.683594 -0.065497 29 26 34
-0.144531 -0.683594 -0.067683 26 23 30
-0.140625 -0.683594 -0.069461 25 22 28
-0.136719 -0.683594 -0.070442 25 22 28
-0.132812 -0.683594 -0.070613 22 20 25
-0.128906 -0.683594 -0.070965 20 18 23
-0.125000 -0.683594 -0.070936 22 20 25
-0.121094 -0.683594 -0.070254 25 24 28
-0.117188 -0.683594 -0.068565 28 27 30
-0.113281 -0.683594 -0.067415 28 27 30
-0.109375 -0.683594 -0.065508 22 21 24
-0.105469 -0.683594 -0.063726 17 15 18
-0.101562 -0.683594 -0.059245 24 21 24
-0.097656 -0.683594 -0.055376 27 27 34
0.109375 -0.683594 -0.026985 22 20 29
0.113281 -0.683594 -0.077930 43 43 48
0.117188 -0.683594 -0.084070 29 28 35
0.121094 -0.683594 -0.088781 25 25 33
0.125000 -0.683594 -0.092533 28 28 37
0.128906 -0.683594 -0.095189 33 32 41
0.132812 -0.683594 -0.096959 37 36 45
0.136719 -0.683594 -0.098487 35 34 44
0.140625 -0.683594 -0.099617 28 27 37
0.144531 -0.683594 -0.100275 27 27 37
0.148438 -0.683594 -0.100130 25 25 36
0.152344 -0.683594 -0.100267 26 26 36
0.156250 -0.683594 -0.099790 29 29 40
0.160156 -0.683594 -0.098640 29 29 39
0.164062 -0.683594 -0.095776 33 33 44
0.167969 -0.683594 -0.093082 32 33 45
0.171875 -0.683594 -0.090117 32 32 44
0.175781 -0.683594 -0.084916 43 42 54
0.179688 -0.683594 -0.077376 46 42 54
-0.167969 -0.687500 -0.038988 45 41 51
-0.164062 -0.687500 -0.050717 36 34 42
-0.160156 -0.687500 -0.056181 46 43 51
-0.156250 -0.687500 -0.059700 45 41 51
-0.152344 -0.687500 -0.062838 37 33 43
-0.148438 -0.687500 -0.065043 31 28 36
-0.144531 -0.687500 -0.067236 27 24 31
-0.140625 -0.687500 -0.069023 27 24 30
-0.136719 -0.687500 -0.069998 26 23 30
-0.132812 -0.687500 -0.070172 22 20 26
-0.128906 -0.687500 -0.070521 19 17 22
-0.125000 -0.687500 -0.070471 20 18 23
-0.121094 -0.687500 -0.069781 24 22 26
-0.117188 -0.687500 -0.068066 26 25 28
-0.113281 -0.687500 -0.066871 26 25 28
-0.109375 -0.687500 -0.064918 21 20 23
-0.105469 -0.687500 -0.063062 17 16 19
-0.101562 -0.687500 -0.058415 22 20 23
-0.097656 -0.687500 -0.054492 21 20 28
0.113281 -0.687500 -0.077725 40 38 43
0.117188 -0.687500 -0.083518 29 27 34
0.121094 -0.687500 -0.088184 29 29 37
0.125000 -0.687500 -0.092223 32 31 40
0.128906 -0.687500 -0.094975 35 34 43
0.132812 -0.687500 -0.096781 36 34 43
0.136719 -0.687500 -0.098297 32 31 40
0.140625 -0.687500 -0.099414 26 25 35
0.144531 -0.687500 -0.100072 26 26 37
0.148438 -0.687500 -0.099937 25 26 37
0.152344 -0.687500 -0.100090 26 27 38
0.156250 -0.687500 -0.099596 30 30 41
0.160156 -0.687500 -0.098467 29 29 40
0.164062 -0.687500 -0.095639 32 33 44
0.167969 -0.687500 -0.092852 31 32 44
0.171875 -0.687500 -0.090040 32 33 45
0.175781 -0.687500 -0.084495 43 42 55
0.179688 -0.687500 -0.077521 39 36 48
-0.167969 -0.691406 -0.033895 46 42 51
-0.164062 -0.691406 -0.050406 38 35 43
-0.160156 -0.691406 -0.055863 51 47 55
-0.156250 -0.691406 -0.059336 46 42 51
-0.152344 -0.691406 -0.062380 38 34 44
-0.148438 -0.691406 -0.064596 32 29 37
-0.144531 -0.691406 -0.066798 28 25 32
-0.140625 -0.691406 -0.068597 28 25 32
-0.136719 -0.691406 -0.069572 28 25 32
-0.132812 -0.691406 -0.069751 23 21 27
-0.128906 -0.691406 -0.070104 19 17 23
-0.125000 -0.691406 -0.070032 18 17 22
-0.121094 -0.691406 -0.069336 22 20 25
-0.117188 -0.691406 -0.067596 25 23 27
-0.113281 -0.691406 -0.066341 24 23 27
-0.109375 -0.691406 -0.064369 21 20 24
-0.105469 -0.691406 -0.062431 18 16 19
-0.101562 -0.691406 -0.057775 24 22 25
-0.097656 -0.691406 -0.054070 24 24 31
0.113281 -0.691406 -0.077257 35 33 36
0.117188 -0.691406 -0.082957 30 28 34
0.121094 -0.691406 -0.087708 35 34 42
0.125000 -0.691406 -0.091862 35 34 43
0.128906 -0.691406 -0.094693 34 33 42
0.132812 -0.691406 -0.096592 32 31 40
0.136719 -0.691406 -0.098092 30 30 40
0.140625 -0.691406 -0.099203 26 26 37
0.144531 -0.691406 -0.099849 27 27 39
0.148438 -0.691406 -0.099715 26 27 39
0.152344 -0.691406 -0.099873 27 28 40
0.156250 -0.691406 -0.099344 30 31 42
0.160156 -0.691406 -0.098247 28 29 39
0.164062 -0.691406 -0.095456 32 32 43
0.167969 -0.691406 -0.092623 32 32 44
0.171875 -0.691406 -0.089885 36 36 49
0.175781 -0.691406 -0.083856 45 44 57
0.179688 -0.691406 -0.077233 37 34 47
-0.167969 -0.695312 -0.029834 46 42 50
-0.164062 -0.695312 -0.049597 34 31 40
-0.160156 -0.695312 -0.055298 49 44 52
-0.156250 -0.695312 -0.058913 46 42 50
-0.152344 -0.695312 -0.061918 40 37 46
-0.148438 -0.695312 -0.064191 34 31 40
-0.144531 -0.695312 -0.066392 30 26 34
-0.140625 -0.695312 -0.068168 30 27 35
-0.136719 -0.695312 -0.069138 30 27 35
-0.132812 -0.695312 -0.069318 27 25 32
-0.128906 -0.695312 -0.069665 24 22 29
-0.125000 -0.695312 -0.069579 23 21 27
-0.121094 -0.695312 -0.068883 26 24 30
-0.117188 -0.695312 -0.067120 29 27 32
-0.113281 -0.695312 -0.065812 28 26 31
-0.109375 -0.695312 -0.063830 23 21 25
-0.105469 -0.695312 -0.061842 19 16 20
-0.101562 -0.695312 -0.057117 25 21 25
-0.097656 -0.695312 -0.053257 23 22 30
0.113281 -0.695312 -0.076533 35 32 36
0.117188 -0.695312 -0.082227 33 31 37
0.121094 -0.695312 -0.087366 36 35 43
0.125000 -0.695312 -0.091572 31 30 39
0.128906 -0.695312 -0.094476 28 27 36
0.132812 -0.695312 -0.096432 26 25 34
0.136719 -0.695312 -0.097939 27 26 37
0.140625 -0.695312 -0.099064 25 25 36
0.144531 -0.695312 -0.099696 26 26 38
0.148438 -0.695312 -0.099548 27 27 40
0.152344 -0.695312 -0.099671 28 29 40
0.156250 -0.695312 -0.099064 30 30 42
0.160156 -0.695312 -0.097956 29 29 40
0.164062 -0.695312 -0.095206 32 32 43
0.167969 -0.695312 -0.092381 31 32 44
0.171875 -0.695312 -0.089562 37 38 51
0.175781 -0.695312 -0.083254 44 43 56
0.179688 -0.695312 -0.077109 34 32 44
-0.167969 -0.699219 -0.029100 41 36 44
-0.164062 -0.699219 -0.049260 35 32 41
-0.160156 -0.699219 -0.054640 43 38 45
-0.156250 -0.699219 -0.058357 41 36 44
-0.152344 -0.699219 -0.061418 39 35 45
-0.148438 -0.699219 -0.063752 34 30 40
-0.144531 -0.699219 -0.065990 30 27 35
-0.140625 -0.699219 -0.067744 31 28 37
-0.136719 -0.699219 -0.068706 32 28 37
-0.132812 -0.699219 -0.068891 30 27 35
-0.128906 -0.699219 -0.069238 28 25 33
-0.125000 -0.699219 -0.069148 27 24 32
-0.121094 -0.699219 -0.068464 31 28 35
-0.117188 -0.699219 -0.066687 34 32 38
-0.113281 -0.699219 -0.065308 32 30 35
-0.109375 -0.699219 -0.063309 25 23 27
-0.105469 -0.699219 -0.061350 19 17 20
-0.101562 -0.699219 -0.056634 24 20 24
-0.097656 -0.699219 -0.052437 19 18 26
0.113281 -0.699219 -0.075623 37 33 38
0.117188 -0.699219 -0.081235 38 34 41
0.121094 -0.699219 -0.086872 36 35 44
0.125000 -0.699219 -0.091177 28 28 36
0.128906 -0.699219 -0.094221 24 23 33
0.132812 -0.699219 -0.096272 21 21 32
0.136719 -0.699219 -0.097779 22 22 34
0.140625 -0.699219 -0.098897 20 21 33
0.144531 -0.699219 -0.099494 22 22 35
0.148438 -0.699219 -0.099320 25 25 38
0.152344 -0.699219 -0.099396 26 27 39
0.156250 -0.699219 -0.098697 28 29 40
0.160156 -0.699219 -0.097556 29 30 42
0.164062 -0.699219 -0.094876 32 33 45
0.167969 -0.699219 -0.091978 32 33 46
0.171875 -0.699219 -0.088927 39 39 53
0.175781 -0.699219 -0.082758 41 40 54
0.179688 -0.699219 -0.076944 30 29 42
-0.167969 -0.703125 -0.031476 36 31 40
-0.164062 -0.703125 -0.049517 30 26 34
-0.160156 -0.703125 -0.054150 38 32 39
-0.156250 -0.703125 -0.057791 36 31 40
-0.152344 -0.703125 -0.060989 37 33 42
-0.148438 -0.703125 -0.063256 34 30 40
-0.144531 -0.703125 -0.065511 30 26 36
-0.140625 -0.703125 -0.067308 30 26 36
-0.136719 -0.703125 -0.068278 29 25 34
-0.132812 -0.703125 -0.068470 27 23 32
-0.128906 -0.703125 -0.068826 25 22 31
-0.125000 -0.703125 -0.068748 26 23 31
-0.121094 -0.703125 -0.068071 31 29 37
-0.117188 -0.703125 -0.066285 37 34 42
-0.113281 -0.703125 -0.064833 35 33 39
-0.109375 -0.703125 -0.062813 27 24 28
-0.105469 -0.703125 -0.060793 20 17 21
-0.101562 -0.703125 -0.056167 26 22 27
-0.097656 -0.703125 -0.052065 22 20 29
0.113281 -0.703125 -0.074816 41 35 41
0.117188 -0.703125 -0.080892 42 37 45
0.121094 -0.703125 -0.086428 35 35 44
0.125000 -0.703125 -0.090956 27 28 37
0.128906 -0.703125 -0.093974 25 25 36
0.132812 -0.703125 -0.096074 22 24 35
0.136719 -0.703125 -0.097606 23 25 38
0.140625 -0.703125 -0.098701 21 23 36
0.144531 -0.703125 -0.099278 22 23 35
0.148438 -0.703125 -0.099073 24 24 36
0.152344 -0.703125 -0.099097 24 25 36
0.156250 -0.703125 -0.098357 26 27 38
0.160156 -0.703125 -0.097217 29 29 41
0.164062 -0.703125 -0.094553 32 33 45
0.167969 -0.703125 -0.091469 33 35 47
0.171875 -0.703125 -0.088379 41 42 56
0.175781 -0.703125 -0.082286 44 41 58
0.179688 -0.703125 -0.075612 44 38 54
-0.167969 -0.707031 -0.037894 36 32 41
-0.164062 -0.707031 -0.048558 27 22 31
-0.160156 -0.707031 -0.053810 37 31 39
-0.156250 -0.707031 -0.057267 36 32 41
-0.152344 -0.707031 -0.060503 35 31 42
-0.148438 -0.707031 -0.062815 33 30 40
-0.144531 -0.707031 -0.065003 29 25 35
-0.140625 -0.707031 -0.066850 27 23 33
-0.136719 -0.707031 -0.067838 26 22 32
-0.132812 -0.707031 -0.068033 24 21 30
-0.128906 -0.707031 -0.068391 24 21 30
-0.125000 -0.707031 -0.068314 25 22 31
-0.121094 -0.707031 -0.067640 31 29 38
-0.117188 -0.707031 -0.065886 38 35 44
-0.113281 -0.707031 -0.064373 35 33 39
-0.109375 -0.707031 -0.062312 26 23 28
-0.105469 -0.707031 -0.060291 19 16 20
-0.101562 -0.707031 -0.055623 25 20 25
-0.097656 -0.707031 -0.051074 21 19 27
0.109375 -0.707031 -0.021031 34 33 44
0.113281 -0.707031 -0.074358 38 29 38
0.117188 -0.707031 -0.080488 41 34 44
0.121094 -0.707031 -0.086127 34 33 44
0.125000 -0.707031 -0.090939 27 28 38
0.128906 -0.707031 -0.093715 27 28 39
0.132812 -0.707031 -0.095830 27 29 40
0.136719 -0.707031 -0.097417 31 34 47
0.140625 -0.707031 -0.098482 29 31 44
0.144531 -0.707031 -0.099040 27 28 40
0.148438 -0.707031 -0.098789 27 28 40
0.152344 -0.707031 -0.098740 27 28 40
0.156250 -0.707031 -0.097968 30 31 43
0.160156 -0.707031 -0.096768 32 32 44
0.164062 -0.707031 -0.094213 33 34 47
0.167969 -0.707031 -0.091074 35 36 49
0.171875 -0.707031 -0.087724 41 42 57
0.175781 -0.707031 -0.081761 41 35 55
0.179688 -0.707031 -0.074552 31 23 39
-0.167969 -0.710938 -0.023732 33 29 39
-0.164062 -0.710938 -0.046293 39 31 42
-0.160156 -0.710938 -0.053197 37 31 40
-0.156250 -0.710938 -0.056882 33 29 39
-0.152344 -0.710938 -0.059926 30 28 38
-0.148438 -0.710938 -0.062315 30 27 38
-0.144531 -0.710938 -0.064505 26 23 34
-0.140625 -0.710938 -0.066369 25 21 31
-0.136719 -0.710938 -0.067363 24 20 30
-0.132812 -0.710938 -0.067588 22 18 28
-0.128906 -0.710938 -0.067960 22 19 28
-0.125000 -0.710938 -0.067903 23 20 29
-0.121094 -0.710938 -0.067229 28 25 34
-0.117188 -0.710938 -0.065476 33 30 38
-0.113281 -0.710938 -0.063908 31 28 35
-0.109375 -0.710938 -0.061818 23 20 26
-0.105469 -0.710938 -0.059719 17 14 19
-0.101562 -0.710938 -0.055178 18 15 20
-0.097656 -0.710938 -0.050843 13 11 18
0.113281 -0.710938 -0.073570 39 28 39
0.117188 -0.710938 -0.080382 40 32 43
0.121094 -0.710938 -0.085611 36 34 45
0.125000 -0.710938 -0.090605 29 30 40
0.128906 -0.710938 -0.093540 30 31 42
0.132812 -0.710938 -0.095525 32 34 46
0.136719 -0.710938 -0.097098 39 42 56
0.140625 -0.710938 -0.098157 37 39 53
0.144531 -0.710938 -0.098692 33 35 48
0.148438 -0.710938 -0.098394 35 36 50
0.152344 -0.710938 -0.098280 38 39 52
0.156250 -0.710938 -0.097449 39 39 53
0.160156 -0.710938 -0.096163 35 35 48
0.164062 -0.710938 -0.093705 34 35 48
0.167969 -0.710938 -0.090474 36 37 51
0.171875 -0.710938 -0.086800 41 40 55
0.175781 -0.710938 -0.081895 34 26 46
0.179688 -0.710938 -0.075743 25 16 34
-0.164062 -0.714844 -0.043847 23 18 26
-0.160156 -0.714844 -0.052108 33 29 37
-0.156250 -0.714844 -0.056198 32 29 39
-0.152344 -0.714844 -0.059259 31 29 41
-0.148438 -0.714844 -0.061701 33 30 42
-0.144531 -0.714844 -0.064008 28 25 36
-0.140625 -0.714844 -0.065920 26 23 34
-0.136719 -0.714844 -0.066917 25 21 32
-0.132812 -0.714844 -0.067170 21 18 28
-0.128906 -0.714844 -0.067550 21 18 28
-0.125000 -0.714844 -0.067519 22 19 28
-0.121094 -0.714844 -0.066842 25 23 31
-0.117188 -0.714844 -0.065114 28 25 33
-0.113281 -0.714844 -0.063497 26 23 30
-0.109375 -0.714844 -0.061321 22 19 25
-0.105469 -0.714844 -0.059253 21 17 23
-0.101562 -0.714844 -0.054578 24 19 26
-0.097656 -0.714844 -0.050066 21 18 27
0.113281 -0.714844 -0.069448 50 36 47
0.117188 -0.714844 -0.079142 39 31 42
0.121094 -0.714844 -0.086095 35 32 44
0.125000 -0.714844 -0.089995 28 27 37
0.128906 -0.714844 -0.093431 29 28 37
0.132812 -0.714844 -0.095320 33 33 42
0.136719 -0.714844 -0.096807 39 39 51
0.140625 -0.714844 -0.097852 37 37 49
0.144531 -0.714844 -0.098305 36 37 48
0.148438 -0.714844 -0.097906 41 41 53
0.152344 -0.714844 -0.097739 42 43 55
0.156250 -0.714844 -0.096827 39 39 52
0.160156 -0.714844 -0.095567 32 32 45
0.164062 -0.714844 -0.093021 31 32 45
0.167969 -0.714844 -0.089489 33 34 48
0.171875 -0.714844 -0.086335 36 35 52
0.175781 -0.714844 -0.081353 31 23 43
0.179688 -0.714844 -0.077121 52 31 61
-0.164062 -0.718750 -0.043372 18 14 22
-0.160156 -0.718750 -0.050766 36 30 39
-0.156250 -0.718750 -0.055219 32 29 39
-0.152344 -0.718750 -0.058545 31 29 40
-0.148438 -0.718750 -0.061092 31 29 40
-0.144531 -0.718750 -0.063451 27 25 36
-0.140625 -0.718750 -0.065429 26 23 34
-0.136719 -0.718750 -0.066447 25 22 33
-0.132812 -0.718750 -0.066686 22 19 30
-0.128906 -0.718750 -0.067060 23 20 29
-0.125000 -0.718750 -0.067045 24 22 30
-0.121094 -0.718750 -0.066373 25 23 31
-0.117188 -0.718750 -0.064640 27 23 31
-0.113281 -0.718750 -0.062990 24 21 28
-0.109375 -0.718750 -0.060893 21 17 25
-0.105469 -0.718750 -0.058704 23 18 25
-0.101562 -0.718750 -0.053909 24 19 26
-0.097656 -0.718750 -0.049437 20 17 27
0.113281 -0.718750 -0.075638 33 24 35
0.117188 -0.718750 -0.077665 39 31 41
0.121094 -0.718750 -0.085709 37 33 45
0.125000 -0.718750 -0.089639 28 27 36
0.128906 -0.718750 -0.093131 28 27 35
0.132812 -0.718750 -0.095033 29 28 36
0.136719 -0.718750 -0.096587 32 31 41
0.140625 -0.718750 -0.097658 34 33 44
0.144531 -0.718750 -0.098000 37 36 47
0.148438 -0.718750 -0.097457 39 38 48
0.152344 -0.718750 -0.097185 38 37 48
0.156250 -0.718750 -0.096111 35 35 47
0.160156 -0.718750 -0.094804 31 31 44
0.164062 -0.718750 -0.092016 33 34 47
0.167969 -0.718750 -0.088692 34 35 50
0.171875 -0.718750 -0.084901 38 36 55
0.175781 -0.718750 -0.078951 28 22 41
0.179688 -0.718750 -0.070064 22 13 30
-0.164062 -0.722656 -0.043055 30 27 38
-0.160156 -0.722656 -0.049791 38 33 42
-0.156250 -0.722656 -0.054514 26 23 33
-0.152344 -0.722656 -0.058042 26 24 34
-0.148438 -0.722656 -0.060598 28 25 36
-0.144531 -0.722656 -0.062946 27 24 34
-0.140625 -0.722656 -0.064934 26 23 33
-0.136719 -0.722656 -0.065985 25 22 32
-0.132812 -0.722656 -0.066221 22 20 30
-0.128906 -0.722656 -0.066611 23 21 30
-0.125000 -0.722656 -0.066607 24 22 31
-0.121094 -0.722656 -0.065935 23 22 30
-0.117188 -0.722656 -0.064142 25 22 31
-0.113281 -0.722656 -0.062508 25 20 29
-0.109375 -0.722656 -0.060598 20 17 25
-0.105469 -0.722656 -0.058093 21 17 25
-0.101562 -0.722656 -0.053081 17 13 20
-0.097656 -0.722656 -0.049196 12 10 19
0.113281 -0.722656 -0.028965 30 26 35
0.117188 -0.722656 -0.076484 46 39 48
0.121094 -0.722656 -0.085647 40 38 49
0.125000 -0.722656 -0.089943 29 29 38
0.128906 -0.722656 -0.093097 28 27 35
0.132812 -0.722656 -0.094915 26 25 33
0.136719 -0.722656 -0.096483 29 29 39
0.140625 -0.722656 -0.097565 36 34 45
0.144531 -0.722656 -0.097813 37 35 47
0.148438 -0.722656 -0.097154 34 32 44
0.152344 -0.722656 -0.096737 32 31 42
0.156250 -0.722656 -0.095474 32 31 42
0.160156 -0.722656 -0.094052 31 30 42
0.164062 -0.722656 -0.090695 34 34 47
0.167969 -0.722656 -0.088206 34 35 49
0.171875 -0.722656 -0.083524 39 38 55
0.175781 -0.722656 -0.077655 32 28 45
-0.164062 -0.726562 -0.041383 30 29 42
-0.160156 -0.726562 -0.048865 39 36 44
-0.156250 -0.726562 -0.053840 29 26 35
-0.152344 -0.726562 -0.057439 29 27 38
-0.148438 -0.726562 -0.059995 30 26 37
-0.144531 -0.726562 -0.062396 29 25 36
-0.140625 -0.726562 -0.064417 27 24 34
-0.136719 -0.726562 -0.065465 26 23 33
-0.132812 -0.726562 -0.065697 23 21 31
-0.128906 -0.726562 -0.066095 23 21 30
-0.125000 -0.726562 -0.066088 23 22 31
-0.121094 -0.726562 -0.065421 21 21 29
-0.117188 -0.726562 -0.063603 23 21 30
-0.113281 -0.726562 -0.062029 23 19 29
-0.109375 -0.726562 -0.059928 20 17 26
-0.105469 -0.726562 -0.057363 23 18 27
-0.101562 -0.726562 -0.052371 21 16 25
-0.097656 -0.726562 -0.048999 25 22 37
0.117188 -0.726562 -0.075718 49 43 51
0.121094 -0.726562 -0.085821 41 39 50
0.125000 -0.726562 -0.090328 30 29 38
0.128906 -0.726562 -0.093172 27 25 32
0.132812 -0.726562 -0.095147 23 23 30
0.136719 -0.726562 -0.096560 28 27 36
0.140625 -0.726562 -0.097567 32 30 40
0.144531 -0.726562 -0.097681 29 26 37
0.148438 -0.726562 -0.096835 26 25 34
0.152344 -0.726562 -0.096226 27 26 36
0.156250 -0.726562 -0.094805 29 28 38
0.160156 -0.726562 -0.093337 30 29 39
0.164062 -0.726562 -0.089569 34 34 45
0.167969 -0.726562 -0.087341 33 34 47
0.171875 -0.726562 -0.082427 35 37 51
0.175781 -0.726562 -0.076853 31 30 46
-0.164062 -0.730469 -0.039655 41 40 53
-0.160156 -0.730469 -0.047888 47 42 48
-0.156250 -0.730469 -0.053040 34 30 39
-0.152344 -0.730469 -0.056754 32 30 40
-0.148438 -0.730469 -0.059381 28 24 35
-0.144531 -0.730469 -0.061849 27 23 33
-0.140625 -0.730469 -0.063906 27 23 34
-0.136719 -0.730469 -0.064954 26 22 33
-0.132812 -0.730469 -0.065174 24 21 31
-0.128906 -0.730469 -0.065578 24 22 32
-0.125000 -0.730469 -0.065577 26 25 34
-0.121094 -0.730469 -0.064924 26 26 35
-0.117188 -0.730469 -0.063050 29 27 37
-0.113281 -0.730469 -0.061552 27 23 35
-0.109375 -0.730469 -0.059250 21 17 28
-0.105469 -0.730469 -0.056580 21 17 26
-0.101562 -0.730469 -0.052196 19 15 24
0.117188 -0.730469 -0.080140 41 36 45
0.121094 -0.730469 -0.084917 41 40 50
0.125000 -0.730469 -0.090283 28 28 37
0.128906 -0.730469 -0.093630 24 23 31
0.132812 -0.730469 -0.095470 24 24 32
0.136719 -0.730469 -0.096856 30 31 40
0.140625 -0.730469 -0.097819 31 31 41
0.144531 -0.730469 -0.097830 24 24 34
0.148438 -0.730469 -0.096784 24 23 33
0.152344 -0.730469 -0.095940 28 27 37
0.156250 -0.730469 -0.094296 29 28 37
0.160156 -0.730469 -0.092662 31 30 38
0.164062 -0.730469 -0.088839 36 35 44
0.167969 -0.730469 -0.086182 36 36 48
0.171875 -0.730469 -0.080999 37 39 52
0.175781 -0.730469 -0.074475 27 29 42
-0.164062 -0.734375 -0.039326 43 42 53
-0.160156 -0.734375 -0.047137 43 38 44
-0.156250 -0.734375 -0.052403 35 30 39
-0.152344 -0.734375 -0.056161 38 34 45
-0.148438 -0.734375 -0.058833 32 28 39
-0.144531 -0.734375 -0.061297 28 24 35
-0.140625 -0.734375 -0.063353 26 22 33
-0.136719 -0.734375 -0.064418 25 20 31
-0.132812 -0.734375 -0.064657 23 20 30
-0.128906 -0.734375 -0.065078 23 21 31
-0.125000 -0.734375 -0.065079 26 25 35
-0.121094 -0.734375 -0.064449 30 29 40
-0.117188 -0.734375 -0.062534 35 33 46
-0.113281 -0.734375 -0.061069 32 30 43
-0.109375 -0.734375 -0.058710 24 21 33
-0.105469 -0.734375 -0.056004 21 17 27
-0.101562 -0.734375 -0.049737 18 14 24
0.117188 -0.734375 -0.077967 36 33 43
0.121094 -0.734375 -0.085396 41 40 50
0.125000 -0.734375 -0.090967 27 27 36
0.128906 -0.734375 -0.094476 24 24 32
0.132812 -0.734375 -0.096048 28 28 37
0.136719 -0.734375 -0.097368 36 36 46
0.140625 -0.734375 -0.098253 34 34 43
0.144531 -0.734375 -0.098096 27 26 36
0.148438 -0.734375 -0.096911 28 27 36
0.152344 -0.734375 -0.095893 31 29 38
0.156250 -0.734375 -0.094030 29 28 35
0.160156 -0.734375 -0.092194 30 29 36
0.164062 -0.734375 -0.088329 34 33 42
0.167969 -0.734375 -0.085470 35 36 47
0.171875 -0.734375 -0.080684 39 41 54
0.175781 -0.734375 -0.074583 33 35 49
-0.164062 -0.738281 -0.038938 27 26 36
-0.160156 -0.738281 -0.046604 35 31 37
-0.156250 -0.738281 -0.051977 33 29 38
-0.152344 -0.738281 -0.055593 40 37 47
-0.148438 -0.738281 -0.058323 37 32 44
-0.144531 -0.738281 -0.060790 30 26 37
-0.140625 -0.738281 -0.062852 25 21 33
-0.136719 -0.738281 -0.063923 22 18 29
-0.132812 -0.738281 -0.064161 21 18 29
-0.128906 -0.738281 -0.064555 22 20 31
-0.125000 -0.738281 -0.064528 25 23 34
-0.121094 -0.738281 -0.063885 28 28 39
-0.117188 -0.738281 -0.061925 34 33 45
-0.113281 -0.738281 -0.060459 31 30 43
-0.109375 -0.738281 -0.058155 24 23 34
-0.105469 -0.738281 -0.054855 20 17 28
-0.101562 -0.738281 -0.049193 23 19 31
0.117188 -0.738281 -0.078671 35 33 43
0.121094 -0.738281 -0.085981 43 41 50
0.125000 -0.738281 -0.092635 31 30 38
0.128906 -0.738281 -0.095568 30 29 36
0.132812 -0.738281 -0.096943 35 33 41
0.136719 -0.738281 -0.098123 36 35 43
0.140625 -0.738281 -0.098819 32 30 39
0.144531 -0.738281 -0.098479 29 28 36
0.148438 -0.738281 -0.097115 30 28 36
0.152344 -0.738281 -0.095890 29 27 34
0.156250 -0.738281 -0.093830 28 26 33
0.160156 -0.738281 -0.091796 31 30 37
0.164062 -0.738281 -0.087735 36 35 44
0.167969 -0.738281 -0.084947 37 37 49
0.171875 -0.738281 -0.080457 39 41 54
0.175781 -0.738281 -0.073884 36 37 50
-0.164062 -0.742188 -0.039059 33 33 43
-0.160156 -0.742188 -0.046544 42 39 45
-0.156250 -0.742188 -0.051510 31 29 37
-0.152344 -0.742188 -0.055008 33 31 41
-0.148438 -0.742188 -0.057828 32 29 40
-0.144531 -0.742188 -0.060338 27 25 37
-0.140625 -0.742188 -0.062406 25 23 36
-0.136719 -0.742188 -0.063482 22 20 32
-0.132812 -0.742188 -0.063723 19 17 28
-0.128906 -0.742188 -0.064088 21 19 29
-0.125000 -0.742188 -0.064026 23 22 32
-0.121094 -0.742188 -0.063377 28 27 38
-0.117188 -0.742188 -0.061426 36 34 46
-0.113281 -0.742188 -0.059932 33 32 43
-0.109375 -0.742188 -0.057937 26 25 36
-0.105469 -0.742188 -0.053879 19 16 27
-0.101562 -0.742188 -0.048499 21 18 30
0.117188 -0.742188 -0.079177 36 35 46
0.121094 -0.742188 -0.088044 43 42 50
0.125000 -0.742188 -0.094345 34 32 40
0.128906 -0.742188 -0.097081 35 33 41
0.132812 -0.742188 -0.098259 37 35 43
0.136719 -0.742188 -0.099303 35 34 43
0.140625 -0.742188 -0.099784 34 33 42
0.144531 -0.742188 -0.099271 35 34 44
0.148438 -0.742188 -0.097725 34 32 40
0.152344 -0.742188 -0.096232 28 26 34
0.156250 -0.742188 -0.093912 27 26 33
0.160156 -0.742188 -0.091632 32 31 39
0.164062 -0.742188 -0.087381 37 37 47
0.167969 -0.742188 -0.084500 37 38 51
0.171875 -0.742188 -0.080004 36 37 51
0.175781 -0.742188 -0.073442 32 33 46
-0.164062 -0.746094 -0.038297 45 45 58
-0.160156 -0.746094 -0.046446 57 54 61
-0.156250 -0.746094 -0.051159 41 38 48
-0.152344 -0.746094 -0.054546 41 39 49
-0.148438 -0.746094 -0.057351 39 37 48
-0.144531 -0.746094 -0.059866 34 32 45
-0.140625 -0.746094 -0.061930 37 35 50
-0.136719 -0.746094 -0.062998 32 30 45
-0.132812 -0.746094 -0.063235 22 20 33
-0.128906 -0.746094 -0.063591 20 19 30
-0.125000 -0.746094 -0.063517 21 20 31
-0.121094 -0.746094 -0.062852 24 24 34
-0.117188 -0.746094 -0.060921 30 28 39
-0.113281 -0.746094 -0.059282 27 26 36
-0.109375 -0.746094 -0.057148 24 23 33
-0.105469 -0.746094 -0.052898 19 17 27
-0.101562 -0.746094 -0.047852 22 18 31
0.113281 -0.746094 -0.071425 15 16 23
0.117188 -0.746094 -0.083086 40 39 51
0.121094 -0.746094 -0.091102 50 48 56
0.125000 -0.746094 -0.095720 41 38 46
0.128906 -0.746094 -0.098648 38 35 43
0.132812 -0.746094 -0.099733 38 35 43
0.136719 -0.746094 -0.100587 39 37 46
0.140625 -0.746094 -0.100817 42 40 51
0.144531 -0.746094 -0.100075 41 40 50
0.148438 -0.746094 -0.098375 36 33 42
0.152344 -0.746094 -0.096652 29 27 34
0.156250 -0.746094 -0.094076 28 26 34
0.160156 -0.746094 -0.091610 32 30 39
0.164062 -0.746094 -0.087261 37 36 47
0.167969 -0.746094 -0.084226 36 36 50
0.171875 -0.746094 -0.079676 34 34 47
0.175781 -0.746094 -0.073396 35 33 46
-0.164062 -0.750000 -0.038225 41 39 53
-0.160156 -0.750000 -0.046214 54 52 61
-0.156250 -0.750000 -0.050837 43 41 51
-0.152344 -0.750000 -0.054204 46 44 54
-0.148438 -0.750000 -0.057000 44 41 53
-0.144531 -0.750000 -0.059482 37 35 48
-0.140625 -0.750000 -0.061523 43 40 55
-0.136719 -0.750000 -0.062605 39 36 53
-0.132812 -0.750000 -0.062794 27 25 39
-0.128906 -0.750000 -0.063109 25 22 35
-0.125000 -0.750000 -0.062997 23 21 33
-0.121094 -0.750000 -0.062288 22 21 32
-0.117188 -0.750000 -0.060348 23 21 32
-0.113281 -0.750000 -0.058661 19 18 27
-0.109375 -0.750000 -0.056246 19 17 26
-0.105469 -0.750000 -0.052822 17 15 24
-0.101562 -0.750000 -0.045146 24 21 34
0.113281 -0.750000 -0.077106 10 10 17
0.117188 -0.750000 -0.086918 38 38 50
0.121094 -0.750000 -0.093265 59 56 63
0.125000 -0.750000 -0.097191 50 45 53
0.128906 -0.750000 -0.100411 39 36 44
0.132812 -0.750000 -0.101357 37 35 42
0.136719 -0.750000 -0.101963 44 42 50
0.140625 -0.750000 -0.101911 46 44 53
0.144531 -0.750000 -0.101005 39 36 46
0.148438 -0.750000 -0.099061 31 28 37
0.152344 -0.750000 -0.097046 26 23 31
0.156250 -0.750000 -0.094228 24 22 29
0.160156 -0.750000 -0.091599 26 24 32
0.164062 -0.750000 -0.087103 30 28 39
0.167969 -0.750000 -0.083978 30 29 42
0.171875 -0.750000 -0.079514 31 30 44
0.175781 -0.750000 -0.073495 41 38 52
-0.164062 -0.753906 -0.039350 34 32 46
-0.160156 -0.753906 -0.046256 51 50 59
-0.156250 -0.753906 -0.050375 43 42 52
-0.152344 -0.753906 -0.053872 43 42 53
-0.148438 -0.753906 -0.056614 39 36 48
-0.144531 -0.753906 -0.058997 31 29 40
-0.140625 -0.753906 -0.061006 34 31 43
-0.136719 -0.753906 -0.062116 33 31 44
-0.132812 -0.753906 -0.062275 26 25 37
-0.128906 -0.753906 -0.062542 28 26 38
-0.125000 -0.753906 -0.062377 27 25 37
-0.121094 -0.753906 -0.061668 24 23 34
-0.117188 -0.753906 -0.059540 23 21 32
-0.113281 -0.753906 -0.058106 19 17 27
-0.109375 -0.753906 -0.055768 19 17 26
-0.105469 -0.753906 -0.052824 19 17 26
0.109375 -0.753906 -0.038821 63 59 66
0.113281 -0.753906 -0.080666 8 8 15
0.117188 -0.753906 -0.088657 36 36 50
0.121094 -0.753906 -0.094067 63 59 66
0.125000 -0.753906 -0.099092 53 47 56
0.128906 -0.753906 -0.101747 37 34 43
0.132812 -0.753906 -0.102819 34 32 41
0.136719 -0.753906 -0.103309 44 41 49
0.140625 -0.753906 -0.103121 44 41 49
0.144531 -0.753906 -0.102049 33 30 40
0.148438 -0.753906 -0.099872 25 22 31
0.152344 -0.753906 -0.097589 21 18 27
0.156250 -0.753906 -0.094518 20 18 26
0.160156 -0.753906 -0.091763 21 19 28
0.164062 -0.753906 -0.087123 24 22 33
0.167969 -0.753906 -0.083663 24 23 36
0.171875 -0.753906 -0.078743 29 27 41
0.175781 -0.753906 -0.074133 40 35 52
-0.164062 -0.757812 -0.039807 46 45 58
-0.160156 -0.757812 -0.045836 60 58 66
-0.156250 -0.757812 -0.049899 55 52 62
-0.152344 -0.757812 -0.053529 54 51 63
-0.148438 -0.757812 -0.056136 54 50 62
-0.144531 -0.757812 -0.058426 47 43 55
-0.140625 -0.757812 -0.060375 49 46 57
-0.136719 -0.757812 -0.061472 51 47 60
-0.132812 -0.757812 -0.061599 45 43 56
-0.128906 -0.757812 -0.061832 43 42 55
-0.125000 -0.757812 -0.061602 33 32 44
-0.121094 -0.757812 -0.060934 25 24 34
-0.117188 -0.757812 -0.058723 22 20 31
-0.113281 -0.757812 -0.057568 19 16 26
-0.109375 -0.757812 -0.054820 21 19 28
-0.105469 -0.757812 -0.051153 22 19 32
0.109375 -0.757812 -0.066767 67 63 66
0.113281 -0.757812 -0.082355 5 5 11
0.117188 -0.757812 -0.088732 35 33 46
0.121094 -0.757812 -0.095760 67 63 66
0.125000 -0.757812 -0.100271 50 44 51
0.128906 -0.757812 -0.102703 33 29 37
0.132812 -0.757812 -0.104007 32 30 38
0.136719 -0.757812 -0.104562 40 38 46
0.140625 -0.757812 -0.104270 38 35 43
0.144531 -0.757812 -0.103018 26 24 32
0.148438 -0.757812 -0.100605 20 18 27
0.152344 -0.757812 -0.098100 21 19 28
0.156250 -0.757812 -0.094871 23 21 30
0.160156 -0.757812 -0.091892 22 21 30
0.164062 -0.757812 -0.087015 24 23 34
0.167969 -0.757812 -0.083400 26 25 38
0.171875 -0.757812 -0.077842 33 31 45
0.175781 -0.757812 -0.072797 43 37 53
-0.164062 -0.761719 -0.039590 42 39 51
-0.160156 -0.761719 -0.045257 47 44 51
-0.156250 -0.761719 -0.049389 43 40 50
-0.152344 -0.761719 -0.052983 50 47 58
-0.148438 -0.761719 -0.055536 59 53 66
-0.144531 -0.761719 -0.057783 52 47 59
-0.140625 -0.761719 -0.059632 54 49 61
-0.136719 -0.761719 -0.060673 61 55 68
-0.132812 -0.761719 -0.060753 64 58 71
-0.128906 -0.761719 -0.061002 61 56 68
-0.125000 -0.761719 -0.060763 41 37 48
-0.121094 -0.761719 -0.060192 27 24 34
-0.117188 -0.761719 -0.058049 23 21 32
-0.113281 -0.761719 -0.057136 22 19 29
-0.109375 -0.761719 -0.053976 31 27 37
-0.105469 -0.761719 -0.049140 35 32 47
0.109375 -0.761719 -0.049659 57 54 59
0.113281 -0.761719 -0.083691 4 4 9
0.117188 -0.761719 -0.089449 27 25 37
0.121094 -0.761719 -0.096435 57 54 59
0.125000 -0.761719 -0.100687 38 35 42
0.128906 -0.761719 -0.103338 29 27 35
0.132812 -0.761719 -0.104838 34 32 42
0.136719 -0.761719 -0.105412 40 38 48
0.140625 -0.761719 -0.105038 34 32 42
0.144531 -0.761719 -0.103735 24 22 32
0.148438 -0.761719 -0.101147 22 20 30
0.152344 -0.761719 -0.098475 27 26 36
0.156250 -0.761719 -0.095210 31 29 39
0.160156 -0.761719 -0.091802 28 27 36
0.164062 -0.761719 -0.086483 30 30 40
0.167969 -0.761719 -0.082943 33 34 47
0.171875 -0.761719 -0.077761 40 39 52
0.175781 -0.761719 -0.072303 43 39 53
-0.167969 -0.765625 -0.022707 29 27 37
-0.164062 -0.765625 -0.039241 25 21 30
-0.160156 -0.765625 -0.044919 31 28 36
-0.156250 -0.765625 -0.048982 29 27 37
-0.152344 -0.765625 -0.052400 35 33 44
-0.148438 -0.765625 -0.054809 35 32 44
-0.144531 -0.765625 -0.056969 25 22 33
-0.140625 -0.765625 -0.058728 27 24 34
-0.136719 -0.765625 -0.059711 34 30 41
-0.132812 -0.765625 -0.059797 37 32 43
-0.128906 -0.765625 -0.060074 42 35 46
-0.125000 -0.765625 -0.059881 36 30 41
-0.121094 -0.765625 -0.059496 29 25 36
-0.117188 -0.765625 -0.057459 35 31 44
-0.113281 -0.765625 -0.056555 37 33 45
-0.109375 -0.765625 -0.053494 50 44 55
-0.105469 -0.765625 -0.049834 63 58 75
0.109375 -0.765625 -0.039567 49 47 56
0.113281 -0.765625 -0.084098 17 19 29
0.117188 -0.765625 -0.089862 29 28 39
0.121094 -0.765625 -0.096350 49 47 56
0.125000 -0.765625 -0.100637 37 36 46
0.128906 -0.765625 -0.103539 38 37 48
0.132812 -0.765625 -0.105184 42 41 53
0.136719 -0.765625 -0.105833 36 35 47
0.140625 -0.765625 -0.105543 29 29 39
0.144531 -0.765625 -0.104234 23 22 32
0.148438 -0.765625 -0.101600 22 21 32
0.152344 -0.765625 -0.098833 28 27 38
0.156250 -0.765625 -0.095480 29 28 38
0.160156 -0.765625 -0.091675 28 26 36
0.164062 -0.765625 -0.086152 37 36 47
0.167969 -0.765625 -0.081850 48 48 61
0.171875 -0.765625 -0.076811 52 53 64
0.175781 -0.765625 -0.071123 48 47 60
-0.167969 -0.769531 -0.026820 34 31 41
-0.164062 -0.769531 -0.038831 33 28 37
-0.160156 -0.769531 -0.044663 40 34 43
-0.156250 -0.769531 -0.048623 34 31 41
-0.152344 -0.769531 -0.051906 36 33 44
-0.148438 -0.769531 -0.054214 32 27 38
-0.144531 -0.769531 -0.056255 22 18 27
-0.140625 -0.769531 -0.057945 28 22 31
-0.136719 -0.769531 -0.058871 36 28 39
-0.132812 -0.769531 -0.058856 29 23 32
-0.128906 -0.769531 -0.059066 27 21 30
-0.125000 -0.769531 -0.058882 26 21 30
-0.121094 -0.769531 -0.058618 24 21 29
-0.117188 -0.769531 -0.056874 36 32 43
-0.113281 -0.769531 -0.055584 39 36 47
-0.109375 -0.769531 -0.052349 41 39 48
-0.105469 -0.769531 -0.050642 42 38 54
0.109375 -0.769531 -0.038570 58 57 63
0.113281 -0.769531 -0.084222 35 40 50
0.117188 -0.769531 -0.089638 29 27 35
0.121094 -0.769531 -0.095795 58 57 63
0.125000 -0.769531 -0.100263 57 57 66
0.128906 -0.769531 -0.103220 62 61 72
0.132812 -0.769531 -0.104975 55 55 67
0.136719 -0.769531 -0.105819 38 39 50
0.140625 -0.769531 -0.105648 35 35 46
0.144531 -0.769531 -0.104342 30 30 40
0.148438 -0.769531 -0.101721 28 27 36
0.152344 -0.769531 -0.098909 32 32 41
0.156250 -0.769531 -0.095592 30 29 38
0.160156 -0.769531 -0.091473 27 26 34
0.164062 -0.769531 -0.085965 37 35 44
0.167969 -0.769531 -0.080738 51 52 62
0.171875 -0.769531 -0.074912 64 64 74
0.175781 -0.769531 -0.069616 64 63 75
0.179688 -0.769531 -0.057313 58 55 69
-0.167969 -0.773438 -0.028932 35 31 36
-0.164062 -0.773438 -0.038857 35 29 36
-0.160156 -0.773438 -0.044562 41 33 39
-0.156250 -0.773438 -0.048406 35 31 36
-0.152344 -0.773438 -0.051552 35 31 37
-0.148438 -0.773438 -0.053876 34 29 36
-0.144531 -0.773438 -0.055797 28 21 29
-0.140625 -0.773438 -0.057355 35 25 34
-0.136719 -0.773438 -0.058200 46 33 44
-0.132812 -0.773438 -0.058150 33 25 34
-0.128906 -0.773438 -0.058349 25 20 28
-0.125000 -0.773438 -0.058242 24 20 27
-0.121094 -0.773438 -0.058052 20 17 24
-0.117188 -0.773438 -0.056445 28 25 33
-0.113281 -0.773438 -0.055321 33 31 40
-0.109375 -0.773438 -0.052275 31 28 37
-0.105469 -0.773438 -0.050400 27 24 34
0.109375 -0.773438 -0.031988 53 51 55
0.113281 -0.773438 -0.083192 35 36 47
0.117188 -0.773438 -0.088480 22 20 26
0.121094 -0.773438 -0.094761 53 51 55
0.125000 -0.773438 -0.099408 58 57 64
0.128906 -0.773438 -0.102402 67 66 75
0.132812 -0.773438 -0.104360 65 64 74
0.136719 -0.773438 -0.105347 52 51 62
0.140625 -0.773438 -0.105364 59 56 67
0.144531 -0.773438 -0.104185 52 50 61
0.148438 -0.773438 -0.101693 47 46 56
0.152344 -0.773438 -0.098932 59 57 66
0.156250 -0.773438 -0.095671 55 53 62
0.160156 -0.773438 -0.091385 42 41 50
0.164062 -0.773438 -0.085896 45 44 54
0.167969 -0.773438 -0.079577 54 55 65
0.171875 -0.773438 -0.074159 63 63 72
0.175781 -0.773438 -0.070876 55 55 67
0.179688 -0.773438 -0.065994 37 36 50
-0.167969 -0.777344 -0.029554 182 163 170
-0.164062 -0.777344 -0.038810 52 40 47
-0.160156 -0.777344 -0.044304 50 37 42
-0.156250 -0.777344 -0.048282 40 30 35
-0.152344 -0.777344 -0.051269 36 26 32
-0.148438 -0.777344 -0.053604 38 26 33
-0.144531 -0.777344 -0.055513 30 20 27
-0.140625 -0.777344 -0.056950 30 20 28
-0.136719 -0.777344 -0.057662 36 25 36
-0.132812 -0.777344 -0.057676 29 21 30
-0.128906 -0.777344 -0.057739 25 18 27
-0.125000 -0.777344 -0.057533 26 19 28
-0.121094 -0.777344 -0.057338 20 16 22
-0.117188 -0.777344 -0.055899 28 22 30
-0.113281 -0.777344 -0.055629 37 30 39
-0.109375 -0.777344 -0.054229 35 28 34
-0.105469 -0.777344 -0.049847 31 24 32
0.109375 -0.777344 -0.023032 35 33 37
0.113281 -0.777344 -0.081177 40 41 46
0.117188 -0.777344 -0.087377 20 19 22
0.121094 -0.777344 -0.093611 35 33 37
0.125000 -0.777344 -0.098302 35 34 40
0.128906 -0.777344 -0.101439 43 42 51
0.132812 -0.777344 -0.103774 46 44 54
0.136719 -0.777344 -0.105098 39 37 46
0.140625 -0.777344 -0.105517 47 43 52
0.144531 -0.777344 -0.104619 42 40 49
0.148438 -0.777344 -0.102240 38 36 45
0.152344 -0.777344 -0.099622 48 45 54
0.156250 -0.777344 -0.096464 47 44 54
0.160156 -0.777344 -0.092506 39 38 48
0.164062 -0.777344 -0.087030 47 47 58
0.167969 -0.777344 -0.079794 56 55 67
0.171875 -0.777344 -0.074709 55 55 64
0.175781 -0.777344 -0.073464 47 47 59
0.179688 -0.777344 -0.070039 30 29 43
-0.167969 -0.781250 -0.030406 186 184 185
-0.164062 -0.781250 -0.039210 111 86 95
-0.160156 -0.781250 -0.044240 102 72 81
-0.156250 -0.781250 -0.048326 88 59 66
-0.152344 -0.781250 -0.051267 69 43 49
-0.148438 -0.781250 -0.053674 66 39 45
-0.144531 -0.781250 -0.055559 50 29 36
-0.140625 -0.781250 -0.056982 35 22 29
-0.136719 -0.781250 -0.057644 33 21 29
-0.132812 -0.781250 -0.057543 24 16 23
-0.128906 -0.781250 -0.057302 21 14 20
-0.125000 -0.781250 -0.056880 22 15 20
-0.121094 -0.781250 -0.056584 18 12 16
-0.117188 -0.781250 -0.055428 25 17 21
-0.113281 -0.781250 -0.055536 34 24 29
-0.109375 -0.781250 -0.054504 36 26 29
-0.105469 -0.781250 -0.052994 34 25 32
0.113281 -0.781250 -0.078944 38 39 41
0.117188 -0.781250 -0.086160 22 20 22
0.121094 -0.781250 -0.092467 32 29 32
0.125000 -0.781250 -0.097301 28 27 32
0.128906 -0.781250 -0.100555 30 29 37
0.132812 -0.781250 -0.103137 32 30 39
0.136719 -0.781250 -0.104924 27 25 33
0.140625 -0.781250 -0.105775 32 29 37
0.144531 -0.781250 -0.105297 32 28 37
0.148438 -0.781250 -0.103224 27 25 33
0.152344 -0.781250 -0.100954 27 24 33
0.156250 -0.781250 -0.097959 25 23 31
0.160156 -0.781250 -0.094045 25 24 32
0.164062 -0.781250 -0.088148 36 35 45
0.167969 -0.781250 -0.080691 42 40 51
0.171875 -0.781250 -0.073170 43 42 50
0.175781 -0.781250 -0.072732 48 47 58
-0.167969 -0.785156 -0.032011 162 171 178
-0.164062 -0.785156 -0.039777 159 134 144
-0.160156 -0.785156 -0.044508 184 149 153
-0.156250 -0.785156 -0.048513 194 156 154
-0.152344 -0.785156 -0.051453 161 118 115
-0.148438 -0.785156 -0.053975 132 90 87
-0.144531 -0.785156 -0.055914 106 69 68
-0.140625 -0.785156 -0.057476 84 53 54
-0.136719 -0.785156 -0.058174 78 51 51
-0.132812 -0.785156 -0.058119 63 41 41
-0.128906 -0.785156 -0.057837 57 35 36
-0.125000 -0.785156 -0.057343 57 35 34
-0.121094 -0.785156 -0.057096 48 29 29
-0.117188 -0.785156 -0.056110 50 30 31
-0.113281 -0.785156 -0.056809 52 33 34
-0.109375 -0.785156 -0.056137 58 38 39
-0.105469 -0.785156 -0.055548 63 41 50
0.113281 -0.785156 -0.076877 34 36 37
