ply
    format ascii 1.0
    element vertex 62938
    property float x
    property float y
    property float z
    property uchar red
    property uchar green
    property uchar blue
    end_header
0.078125 0.003906 0.090602 95 79 72
0.082031 0.003906 0.095633 105 85 75
0.085938 0.003906 0.100537 118 94 81
0.089844 0.003906 0.104429 126 97 82
0.093750 0.003906 0.107155 138 105 87
0.097656 0.003906 0.108055 148 114 93
0.101562 0.003906 0.107287 149 115 94
0.105469 0.003906 0.105583 150 117 96
0.109375 0.003906 0.103383 157 122 100
0.113281 0.003906 0.099846 158 123 101
0.117188 0.003906 0.094705 152 117 96
0.121094 0.003906 0.089098 137 104 86
0.125000 0.003906 0.083357 125 96 81
0.128906 0.003906 0.077948 127 99 86
0.132812 0.003906 0.073361 127 101 92
0.136719 0.003906 0.069267 128 104 97
0.140625 0.003906 0.064753 127 107 100
0.144531 0.003906 0.057572 130 107 100
0.148438 0.003906 0.049762 165 124 116
-0.167969 0.000000 -0.002766 126 77 82
-0.164062 0.000000 0.018024 139 85 98
-0.160156 0.000000 0.025407 109 74 78
-0.156250 0.000000 0.032439 104 85 86
-0.152344 0.000000 0.038496 118 106 106
-0.148438 0.000000 0.044553 134 125 124
-0.144531 0.000000 0.050456 139 129 129
-0.140625 0.000000 0.056488 138 126 127
-0.136719 0.000000 0.061743 139 123 124
-0.132812 0.000000 0.066097 143 120 123
-0.128906 0.000000 0.070329 150 119 124
-0.125000 0.000000 0.074424 157 116 123
-0.121094 0.000000 0.078230 163 113 120
-0.117188 0.000000 0.081737 171 113 122
-0.113281 0.000000 0.085089 177 113 122
-0.109375 0.000000 0.088251 179 112 122
-0.105469 0.000000 0.091074 184 115 125
-0.101562 0.000000 0.093544 187 117 128
-0.097656 0.000000 0.095843 188 118 129
-0.093750 0.000000 0.097990 193 121 134
-0.089844 0.000000 0.100153 196 126 140
-0.085938 0.000000 0.102437 193 129 141
-0.082031 0.000000 0.104521 191 136 147
-0.078125 0.000000 0.106384 183 140 148
-0.074219 0.000000 0.107915 170 142 147
-0.070312 0.000000 0.109019 159 139 144
-0.066406 0.000000 0.109917 151 145 147
-0.062500 0.000000 0.110629 156 154 155
-0.058594 0.000000 0.111195 168 168 169
-0.054688 0.000000 0.111620 181 183 183
-0.050781 0.000000 0.111885 191 194 194
-0.046875 0.000000 0.112001 197 201 201
-0.042969 0.000000 0.111887 200 203 203
-0.039062 0.000000 0.111478 201 204 204
-0.035156 0.000000 0.110902 195 199 202
-0.031250 0.000000 0.110173 200 204 204
-0.027344 0.000000 0.109345 203 206 206
-0.023438 0.000000 0.108449 203 207 207
-0.019531 0.000000 0.107436 206 209 209
-0.015625 0.000000 0.106384 208 211 211
-0.011719 0.000000 0.105295 210 214 214
-0.007812 0.000000 0.104220 211 215 217
-0.003906 0.000000 0.103064 217 219 219
0.000000 0.000000 0.101777 218 221 221
0.003906 0.000000 0.100271 218 221 221
0.007812 0.000000 0.098472 215 217 217
0.011719 0.000000 0.096527 209 211 211
0.015625 0.000000 0.094342 201 204 204
0.019531 0.000000 0.092055 193 196 196
0.023438 0.000000 0.089660 184 187 187
0.027344 0.000000 0.087046 173 175 175
0.031250 0.000000 0.084468 161 162 163
0.035156 0.000000 0.081737 145 145 146
0.039062 0.000000 0.078854 125 124 127
0.042969 0.000000 0.076269 115 109 118
0.046875 0.000000 0.073917 112 91 108
0.050781 0.000000 0.072131 110 74 93
0.054688 0.000000 0.070581 90 57 68
0.058594 0.000000 0.068255 49 30 32
0.062500 0.000000 0.066645 39 26 24
0.066406 0.000000 0.070491 63 45 42
0.070312 0.000000 0.076352 104 82 76
0.074219 0.000000 0.081030 106 88 83
0.078125 0.000000 0.084299 90 74 70
0.082031 0.000000 0.088633 102 81 73
0.085938 0.000000 0.094172 117 91 80
0.089844 0.000000 0.099057 122 94 81
0.093750 0.000000 0.102772 134 102 85
0.097656 0.000000 0.104770 146 112 93
0.101562 0.000000 0.105275 153 118 97
0.105469 0.000000 0.104765 154 120 97
0.109375 0.000000 0.103464 159 124 101
0.113281 0.000000 0.100490 162 126 102
0.117188 0.000000 0.095862 159 123 100
0.121094 0.000000 0.090365 153 118 98
0.125000 0.000000 0.083860 139 107 92
0.128906 0.000000 0.077205 119 93 82
0.132812 0.000000 0.071219 110 88 80
0.136719 0.000000 0.066398 126 100 94
0.140625 0.000000 0.062602 158 130 120
0.144531 0.000000 0.057239 166 138 126
0.148438 0.000000 0.050918 131 88 82
-0.164062 -0.003906 0.017559 163 111 125
-0.160156 -0.003906 0.026663 116 77 82
-0.156250 -0.003906 0.033608 96 79 79
-0.152344 -0.003906 0.039616 105 98 97
-0.148438 -0.003906 0.045672 122 117 116
-0.144531 -0.003906 0.051643 129 124 123
-0.140625 -0.003906 0.057587 129 121 121
-0.136719 -0.003906 0.062599 127 115 117
-0.132812 -0.003906 0.066811 128 111 114
-0.128906 -0.003906 0.070910 134 110 114
-0.125000 -0.003906 0.074871 143 110 115
-0.121094 -0.003906 0.078560 152 110 116
-0.117188 -0.003906 0.081977 162 110 118
-0.113281 -0.003906 0.085266 170 112 121
-0.109375 -0.003906 0.088381 175 114 124
-0.105469 -0.003906 0.091161 181 117 128
-0.101562 -0.003906 0.093586 188 122 134
-0.097656 -0.003906 0.095843 197 127 140
-0.093750 -0.003906 0.097952 204 132 147
-0.089844 -0.003906 0.100071 210 138 154
-0.085938 -0.003906 0.102320 211 144 159
-0.082031 -0.003906 0.104353 210 150 163
-0.078125 -0.003906 0.106145 204 156 165
-0.074219 -0.003906 0.107603 195 159 165
-0.070312 -0.003906 0.108638 184 161 164
-0.066406 -0.003906 0.109492 177 164 165
-0.062500 -0.003906 0.110159 178 170 171
-0.058594 -0.003906 0.110693 184 179 180
-0.054688 -0.003906 0.111111 192 190 190
-0.050781 -0.003906 0.111385 200 199 199
-0.046875 -0.003906 0.111514 206 205 205
-0.042969 -0.003906 0.111437 208 208 208
-0.039062 -0.003906 0.111100 209 209 209
-0.035156 -0.003906 0.110597 210 209 209
-0.031250 -0.003906 0.109957 209 209 209
-0.027344 -0.003906 0.109189 209 209 209
-0.023438 -0.003906 0.108303 210 210 210
-0.019531 -0.003906 0.107298 211 211 211
-0.015625 -0.003906 0.106263 213 213 213
-0.011719 -0.003906 0.105204 216 216 216
-0.007812 -0.003906 0.104163 218 218 218
-0.003906 -0.003906 0.103039 221 221 221
0.000000 -0.003906 0.101743 222 222 222
0.003906 -0.003906 0.100165 221 221 221
0.007812 -0.003906 0.098272 218 218 218
0.011719 -0.003906 0.096200 214 214 214
0.015625 -0.003906 0.093919 207 207 207
0.019531 -0.003906 0.091614 201 201 201
0.023438 -0.003906 0.089271 192 192 192
0.027344 -0.003906 0.086787 181 181 181
0.031250 -0.003906 0.084270 171 171 171
0.035156 -0.003906 0.081567 157 157 157
0.039062 -0.003906 0.078702 143 142 143
0.042969 -0.003906 0.076045 144 141 144
0.046875 -0.003906 0.073578 146 138 144
0.050781 -0.003906 0.071459 126 107 121
0.054688 -0.003906 0.069226 79 55 68
0.058594 -0.003906 0.066882 37 23 26
0.062500 -0.003906 0.065144 33 22 21
0.066406 -0.003906 0.069033 57 43 36
0.070312 -0.003906 0.074473 105 85 71
0.074219 -0.003906 0.078066 117 95 90
0.078125 -0.003906 0.079594 93 74 75
0.082031 -0.003906 0.081949 91 71 68
0.085938 -0.003906 0.086567 100 78 71
0.089844 -0.003906 0.092102 112 86 75
0.093750 -0.003906 0.096950 124 94 80
0.097656 -0.003906 0.100318 138 105 88
0.101562 -0.003906 0.102383 151 117 96
0.105469 -0.003906 0.103194 154 119 97
0.109375 -0.003906 0.102974 159 124 100
0.113281 -0.003906 0.100729 161 125 102
0.117188 -0.003906 0.096600 160 124 101
0.121094 -0.003906 0.091417 165 130 108
0.125000 -0.003906 0.084905 158 124 107
0.128906 -0.003906 0.077396 132 104 92
0.132812 -0.003906 0.069193 107 87 79
0.136719 -0.003906 0.062817 110 86 83
0.140625 -0.003906 0.058963 162 130 120
0.144531 -0.003906 0.055353 201 169 151
0.148438 -0.003906 0.049703 174 132 114
0.152344 -0.003906 0.044272 163 121 103
-0.164062 -0.007812 0.016351 178 146 157
-0.160156 -0.007812 0.026843 134 102 105
-0.156250 -0.007812 0.034334 97 85 82
-0.152344 -0.007812 0.040548 93 89 87
-0.148438 -0.007812 0.046575 106 105 103
-0.144531 -0.007812 0.052510 117 115 114
-0.140625 -0.007812 0.058332 120 116 116
-0.136719 -0.007812 0.063209 119 110 112
-0.132812 -0.007812 0.067339 119 105 108
-0.128906 -0.007812 0.071317 125 104 108
-0.125000 -0.007812 0.075147 134 104 109
-0.121094 -0.007812 0.078743 143 105 111
-0.117188 -0.007812 0.082040 153 106 113
-0.113281 -0.007812 0.085269 160 109 116
-0.109375 -0.007812 0.088349 164 112 120
-0.105469 -0.007812 0.091085 169 117 124
-0.101562 -0.007812 0.093451 176 122 130
-0.097656 -0.007812 0.095647 185 129 138
-0.093750 -0.007812 0.097702 195 136 146
-0.089844 -0.007812 0.099767 203 143 154
-0.085938 -0.007812 0.101981 206 150 160
-0.082031 -0.007812 0.103977 205 156 164
-0.078125 -0.007812 0.105722 201 162 168
-0.074219 -0.007812 0.107133 194 166 170
-0.070312 -0.007812 0.108133 188 168 171
-0.066406 -0.007812 0.108976 183 171 173
-0.062500 -0.007812 0.109633 184 177 178
-0.058594 -0.007812 0.110170 188 184 185
-0.054688 -0.007812 0.110599 194 191 191
-0.050781 -0.007812 0.110894 199 198 198
-0.046875 -0.007812 0.111047 204 203 203
-0.042969 -0.007812 0.111013 207 206 206
-0.039062 -0.007812 0.110764 209 208 208
-0.035156 -0.007812 0.110347 210 209 209
-0.031250 -0.007812 0.109784 210 210 210
-0.027344 -0.007812 0.109074 210 210 210
-0.023438 -0.007812 0.108217 210 210 210
-0.019531 -0.007812 0.107233 210 210 210
-0.015625 -0.007812 0.106206 211 211 211
-0.011719 -0.007812 0.105130 212 212 212
-0.007812 -0.007812 0.104063 213 213 213
-0.003906 -0.007812 0.102930 215 215 215
0.000000 -0.007812 0.101634 215 215 215
0.003906 -0.007812 0.100029 215 215 215
0.007812 -0.007812 0.098064 214 214 214
0.011719 -0.007812 0.095902 212 212 212
0.015625 -0.007812 0.093525 208 208 208
0.019531 -0.007812 0.091126 205 205 205
0.023438 -0.007812 0.088719 200 200 200
0.027344 -0.007812 0.086224 193 193 193
0.031250 -0.007812 0.083692 186 186 186
0.035156 -0.007812 0.081001 176 176 176
0.039062 -0.007812 0.078129 169 169 169
0.042969 -0.007812 0.075357 175 173 174
0.046875 -0.007812 0.072857 178 175 177
0.050781 -0.007812 0.070449 172 164 170
0.054688 -0.007812 0.067671 137 123 132
0.058594 -0.007812 0.064844 70 54 59
0.062500 -0.007812 0.062603 51 36 34
0.066406 -0.007812 0.066247 53 40 32
0.070312 -0.007812 0.071748 66 51 40
0.074219 -0.007812 0.075838 91 70 66
0.078125 -0.007812 0.077336 103 81 80
0.082031 -0.007812 0.077766 95 77 74
0.085938 -0.007812 0.079467 89 71 66
0.089844 -0.007812 0.083925 103 80 71
0.093750 -0.007812 0.089218 115 87 76
0.097656 -0.007812 0.093754 129 98 84
0.101562 -0.007812 0.097407 145 111 93
0.105469 -0.007812 0.099716 148 114 93
0.109375 -0.007812 0.100809 157 122 99
0.113281 -0.007812 0.099509 161 124 101
0.117188 -0.007812 0.096157 159 122 100
0.121094 -0.007812 0.091425 161 125 105
0.125000 -0.007812 0.085096 150 116 101
0.128906 -0.007812 0.077146 129 100 90
0.132812 -0.007812 0.066596 113 89 82
0.136719 -0.007812 0.057639 99 77 75
0.140625 -0.007812 0.053217 127 99 92
0.144531 -0.007812 0.051138 178 141 123
0.148438 -0.007812 0.047878 184 145 125
0.152344 -0.007812 0.048618 182 153 135
-0.164062 -0.011719 0.016044 186 175 189
-0.160156 -0.011719 0.026980 150 139 145
-0.156250 -0.011719 0.034203 121 120 113
-0.152344 -0.011719 0.040161 106 107 102
-0.148438 -0.011719 0.046282 105 107 104
-0.144531 -0.011719 0.052240 109 110 108
-0.140625 -0.011719 0.058032 109 108 107
-0.136719 -0.011719 0.062987 104 99 100
-0.132812 -0.011719 0.067216 101 92 95
-0.128906 -0.011719 0.071271 106 90 94
-0.125000 -0.011719 0.075162 115 91 96
-0.121094 -0.011719 0.078828 126 95 100
-0.117188 -0.011719 0.082168 139 99 105
-0.113281 -0.011719 0.085398 149 104 111
-0.109375 -0.011719 0.088450 155 110 116
-0.105469 -0.011719 0.091158 160 117 122
-0.101562 -0.011719 0.093451 166 123 128
-0.097656 -0.011719 0.095549 172 130 135
-0.093750 -0.011719 0.097519 179 137 142
-0.089844 -0.011719 0.099502 184 143 148
-0.085938 -0.011719 0.101653 185 149 153
-0.082031 -0.011719 0.103583 183 154 157
-0.078125 -0.011719 0.105261 179 158 160
-0.074219 -0.011719 0.106615 175 162 163
-0.070312 -0.011719 0.107569 172 164 164
-0.066406 -0.011719 0.108378 172 167 168
-0.062500 -0.011719 0.109014 177 174 174
-0.058594 -0.011719 0.109543 183 181 182
-0.054688 -0.011719 0.109966 190 189 189
-0.050781 -0.011719 0.110265 197 196 196
-0.046875 -0.011719 0.110438 203 202 202
-0.042969 -0.011719 0.110448 207 207 207
-0.039062 -0.011719 0.110273 211 210 210
-0.035156 -0.011719 0.109926 213 213 213
-0.031250 -0.011719 0.109424 215 214 214
-0.027344 -0.011719 0.108764 215 215 215
-0.023438 -0.011719 0.107936 215 215 215
-0.019531 -0.011719 0.106975 214 214 214
-0.015625 -0.011719 0.105960 214 214 214
-0.011719 -0.011719 0.104880 214 214 214
-0.007812 -0.011719 0.103785 214 214 214
-0.003906 -0.011719 0.102615 214 214 214
0.000000 -0.011719 0.101304 215 215 215
0.003906 -0.011719 0.099669 215 215 215
0.007812 -0.011719 0.097651 215 215 215
0.011719 -0.011719 0.095429 215 215 215
0.015625 -0.011719 0.092963 214 214 214
0.019531 -0.011719 0.090495 213 213 213
0.023438 -0.011719 0.088030 211 211 211
0.027344 -0.011719 0.085494 207 207 207
0.031250 -0.011719 0.082982 202 201 202
0.035156 -0.011719 0.080314 193 193 193
0.039062 -0.011719 0.077487 188 187 188
0.042969 -0.011719 0.074689 192 190 191
0.046875 -0.011719 0.072080 195 193 195
0.050781 -0.011719 0.069293 202 198 200
0.054688 -0.011719 0.066181 199 192 195
0.058594 -0.011719 0.062698 152 139 142
0.062500 -0.011719 0.059727 89 67 65
0.066406 -0.011719 0.063087 58 39 32
0.070312 -0.011719 0.068571 47 33 25
0.074219 -0.011719 0.073203 60 43 37
0.078125 -0.011719 0.075345 96 75 68
0.082031 -0.011719 0.074960 113 91 84
0.085938 -0.011719 0.073943 100 79 75
0.089844 -0.011719 0.076158 105 82 77
0.093750 -0.011719 0.080683 108 84 76
0.097656 -0.011719 0.085805 114 87 76
0.101562 -0.011719 0.090806 130 98 83
0.105469 -0.011719 0.094871 139 105 86
0.109375 -0.011719 0.097408 152 116 94
0.113281 -0.011719 0.097117 156 119 97
0.117188 -0.011719 0.094746 156 118 97
0.121094 -0.011719 0.090796 156 119 101
0.125000 -0.011719 0.084951 145 111 98
0.128906 -0.011719 0.076376 127 99 89
0.132812 -0.011719 0.063267 123 95 88
0.136719 -0.011719 0.052077 109 85 80
0.140625 -0.011719 0.046462 108 86 77
0.144531 -0.011719 0.043198 133 100 87
0.148438 -0.011719 0.043336 159 118 106
-0.167969 -0.015625 -0.008990 234 239 235
-0.164062 -0.015625 0.018135 218 223 227
-0.160156 -0.015625 0.027092 169 182 185
-0.156250 -0.015625 0.033379 154 164 158
-0.152344 -0.015625 0.039001 146 153 146
-0.148438 -0.015625 0.045360 133 140 133
-0.144531 -0.015625 0.051478 122 127 121
-0.140625 -0.015625 0.057388 112 113 111
-0.136719 -0.015625 0.062471 101 99 99
-0.132812 -0.015625 0.066841 96 89 91
-0.128906 -0.015625 0.071076 100 86 90
-0.125000 -0.015625 0.075133 108 87 92
-0.121094 -0.015625 0.078943 119 91 96
-0.117188 -0.015625 0.082375 131 96 101
-0.113281 -0.015625 0.085635 140 100 106
-0.109375 -0.015625 0.088643 146 105 111
-0.105469 -0.015625 0.091269 151 111 116
-0.101562 -0.015625 0.093484 154 117 121
-0.097656 -0.015625 0.095488 158 124 128
-0.093750 -0.015625 0.097358 161 131 134
-0.089844 -0.015625 0.099249 163 137 140
-0.085938 -0.015625 0.101334 162 142 144
-0.082031 -0.015625 0.103201 160 145 147
-0.078125 -0.015625 0.104823 157 148 149
-0.074219 -0.015625 0.106139 155 150 150
-0.070312 -0.015625 0.107069 154 151 152
-0.066406 -0.015625 0.107866 156 154 154
-0.062500 -0.015625 0.108496 160 159 159
-0.058594 -0.015625 0.109032 165 165 165
-0.054688 -0.015625 0.109465 171 170 170
-0.050781 -0.015625 0.109786 177 177 177
-0.046875 -0.015625 0.109994 184 183 183
-0.042969 -0.015625 0.110052 190 190 190
-0.039062 -0.015625 0.109956 195 195 195
-0.035156 -0.015625 0.109688 199 199 199
-0.031250 -0.015625 0.109269 202 201 201
-0.027344 -0.015625 0.108688 202 202 202
-0.023438 -0.015625 0.107926 203 202 202
-0.019531 -0.015625 0.107030 202 202 202
-0.015625 -0.015625 0.106056 203 203 203
-0.011719 -0.015625 0.104993 203 203 203
-0.007812 -0.015625 0.103876 204 204 204
-0.003906 -0.015625 0.102652 205 205 205
0.000000 -0.015625 0.101292 206 206 206
0.003906 -0.015625 0.099588 207 207 207
0.007812 -0.015625 0.097478 208 208 208
0.011719 -0.015625 0.095164 209 209 209
0.015625 -0.015625 0.092590 211 211 211
0.019531 -0.015625 0.090049 212 212 212
0.023438 -0.015625 0.087548 212 212 212
0.027344 -0.015625 0.085010 211 211 211
0.031250 -0.015625 0.082546 209 209 209
0.035156 -0.015625 0.079927 205 204 205
0.039062 -0.015625 0.077110 204 202 203
0.042969 -0.015625 0.074260 207 204 206
0.046875 -0.015625 0.071499 210 208 209
0.050781 -0.015625 0.068427 217 214 216
0.054688 -0.015625 0.064849 219 216 217
0.058594 -0.015625 0.060806 200 193 195
0.062500 -0.015625 0.056675 124 108 109
0.066406 -0.015625 0.059397 67 45 42
0.070312 -0.015625 0.065346 67 43 33
0.074219 -0.015625 0.070224 59 41 31
0.078125 -0.015625 0.072736 67 50 43
0.082031 -0.015625 0.072251 86 64 60
0.085938 -0.015625 0.070081 94 69 68
0.089844 -0.015625 0.070570 115 88 85
0.093750 -0.015625 0.073690 117 95 87
0.097656 -0.015625 0.078117 107 87 76
0.101562 -0.015625 0.083195 113 86 74
0.105469 -0.015625 0.088221 129 96 81
0.109375 -0.015625 0.091935 143 107 88
0.113281 -0.015625 0.092779 148 110 90
0.117188 -0.015625 0.091626 151 112 93
0.121094 -0.015625 0.088801 154 117 100
0.125000 -0.015625 0.084049 151 117 102
0.128906 -0.015625 0.075963 125 97 87
0.132812 -0.015625 0.061382 116 90 84
0.136719 -0.015625 0.047987 120 93 88
0.140625 -0.015625 0.041899 113 91 81
0.144531 -0.015625 0.038547 114 87 79
0.148438 -0.015625 0.038447 121 85 86
-0.167969 -0.019531 0.007000 208 219 217
-0.164062 -0.019531 0.021389 179 198 208
-0.160156 -0.019531 0.027790 124 160 170
-0.156250 -0.019531 0.033591 136 157 157
-0.152344 -0.019531 0.039329 163 177 170
-0.148438 -0.019531 0.045434 166 177 168
-0.144531 -0.019531 0.050950 157 167 158
-0.140625 -0.019531 0.056486 144 149 144
-0.136719 -0.019531 0.061488 125 125 124
-0.132812 -0.019531 0.066048 114 106 109
-0.128906 -0.019531 0.070620 114 96 102
-0.125000 -0.019531 0.074952 116 93 99
-0.121094 -0.019531 0.079006 120 92 98
-0.117188 -0.019531 0.082620 124 92 98
-0.113281 -0.019531 0.085978 127 92 98
-0.109375 -0.019531 0.088999 128 93 98
-0.105469 -0.019531 0.091555 130 95 100
-0.101562 -0.019531 0.093639 131 99 103
-0.097656 -0.019531 0.095524 133 106 109
-0.093750 -0.019531 0.097304 136 114 117
-0.089844 -0.019531 0.099104 139 123 124
-0.085938 -0.019531 0.101114 141 129 130
-0.082031 -0.019531 0.102908 140 133 133
-0.078125 -0.019531 0.104477 140 135 136
-0.074219 -0.019531 0.105769 141 138 138
-0.070312 -0.019531 0.106690 142 140 141
-0.066406 -0.019531 0.107488 145 144 144
-0.062500 -0.019531 0.108123 149 148 148
-0.058594 -0.019531 0.108671 152 151 151
-0.054688 -0.019531 0.109110 154 154 154
-0.050781 -0.019531 0.109437 158 157 157
-0.046875 -0.019531 0.109656 162 162 162
-0.042969 -0.019531 0.109736 168 168 168
-0.039062 -0.019531 0.109698 174 174 174
-0.035156 -0.019531 0.109505 178 178 178
-0.031250 -0.019531 0.109172 181 181 181
-0.027344 -0.019531 0.108679 182 182 182
-0.023438 -0.019531 0.108002 182 181 181
-0.019531 -0.019531 0.107194 181 181 181
-0.015625 -0.019531 0.106286 182 182 182
-0.011719 -0.019531 0.105256 183 183 183
-0.007812 -0.019531 0.104148 186 186 186
-0.003906 -0.019531 0.102904 188 188 188
0.000000 -0.019531 0.101517 190 190 190
0.003906 -0.019531 0.099790 192 192 192
0.007812 -0.019531 0.097619 194 194 194
0.011719 -0.019531 0.095228 197 197 197
0.015625 -0.019531 0.092560 201 201 201
0.019531 -0.019531 0.089938 205 205 205
0.023438 -0.019531 0.087404 207 207 207
0.027344 -0.019531 0.084871 207 207 207
0.031250 -0.019531 0.082455 207 206 206
0.035156 -0.019531 0.079861 204 203 203
0.039062 -0.019531 0.077033 203 201 202
0.042969 -0.019531 0.074104 205 202 203
0.046875 -0.019531 0.071190 207 204 206
0.050781 -0.019531 0.067858 212 209 210
0.054688 -0.019531 0.063586 211 209 210
0.058594 -0.019531 0.058830 199 194 196
0.062500 -0.019531 0.053496 141 132 136
0.066406 -0.019531 0.054752 64 48 50
0.070312 -0.019531 0.061457 75 51 43
0.074219 -0.019531 0.066943 65 43 33
0.078125 -0.019531 0.069835 54 35 29
0.082031 -0.019531 0.069621 50 33 29
0.085938 -0.019531 0.067222 57 40 36
0.089844 -0.019531 0.066727 96 70 67
0.093750 -0.019531 0.068636 129 103 97
0.097656 -0.019531 0.071918 124 101 94
0.101562 -0.019531 0.076183 110 84 77
0.105469 -0.019531 0.081130 116 85 75
0.109375 -0.019531 0.085271 128 94 79
0.113281 -0.019531 0.087154 142 104 86
0.117188 -0.019531 0.087304 153 113 95
0.121094 -0.019531 0.085781 153 114 98
0.125000 -0.019531 0.083263 151 115 100
0.128906 -0.019531 0.077747 112 85 78
0.132812 -0.019531 0.063353 98 74 73
0.136719 -0.019531 0.046882 119 90 86
0.140625 -0.019531 0.038171 124 96 89
0.144531 -0.019531 0.033581 124 97 97
-0.167969 -0.023438 0.015084 110 132 148
-0.164062 -0.023438 0.024670 77 110 148
-0.160156 -0.023438 0.030239 65 108 140
-0.156250 -0.023438 0.035730 87 129 146
-0.152344 -0.023438 0.040889 132 167 165
-0.148438 -0.023438 0.046483 158 175 167
-0.144531 -0.023438 0.051742 174 183 177
-0.140625 -0.023438 0.056992 172 178 174
-0.136719 -0.023438 0.061766 152 154 152
-0.132812 -0.023438 0.066185 128 122 125
-0.128906 -0.023438 0.070741 112 97 103
-0.125000 -0.023438 0.075115 101 82 88
-0.121094 -0.023438 0.079188 94 74 79
-0.117188 -0.023438 0.082837 95 73 78
-0.113281 -0.023438 0.086229 103 77 82
-0.109375 -0.023438 0.089227 111 82 87
-0.105469 -0.023438 0.091722 114 83 88
-0.101562 -0.023438 0.093693 115 85 90
-0.097656 -0.023438 0.095435 116 90 94
-0.093750 -0.023438 0.097119 115 97 99
-0.089844 -0.023438 0.098851 117 105 107
-0.085938 -0.023438 0.100819 119 112 112
-0.082031 -0.023438 0.102590 119 115 115
-0.078125 -0.023438 0.104142 120 118 118
-0.074219 -0.023438 0.105433 123 122 122
-0.070312 -0.023438 0.106373 127 126 126
-0.066406 -0.023438 0.107198 132 131 131
-0.062500 -0.023438 0.107851 137 136 136
-0.058594 -0.023438 0.108421 141 141 141
-0.054688 -0.023438 0.108871 146 145 145
-0.050781 -0.023438 0.109204 152 152 152
-0.046875 -0.023438 0.109425 160 160 160
-0.042969 -0.023438 0.109512 169 168 168
-0.039062 -0.023438 0.109507 177 177 177
-0.035156 -0.023438 0.109346 184 183 183
-0.031250 -0.023438 0.109061 188 188 188
-0.027344 -0.023438 0.108608 189 189 189
-0.023438 -0.023438 0.107954 189 189 189
-0.019531 -0.023438 0.107159 189 189 189
-0.015625 -0.023438 0.106257 189 189 189
-0.011719 -0.023438 0.105228 190 190 190
-0.007812 -0.023438 0.104105 193 193 193
-0.003906 -0.023438 0.102832 196 196 196
0.000000 -0.023438 0.101430 198 198 198
0.003906 -0.023438 0.099697 200 200 200
0.007812 -0.023438 0.097474 202 202 202
0.011719 -0.023438 0.095008 204 204 204
0.015625 -0.023438 0.092262 208 208 208
0.019531 -0.023438 0.089582 211 210 211
0.023438 -0.023438 0.087028 212 212 212
0.027344 -0.023438 0.084499 213 212 212
0.031250 -0.023438 0.082086 210 210 210
0.035156 -0.023438 0.079425 206 204 205
0.039062 -0.023438 0.076475 202 199 200
0.042969 -0.023438 0.073359 199 196 197
0.046875 -0.023438 0.070205 201 197 199
0.050781 -0.023438 0.066458 203 200 201
0.054688 -0.023438 0.061371 199 196 198
0.058594 -0.023438 0.056244 194 190 192
0.062500 -0.023438 0.050542 163 157 159
0.066406 -0.023438 0.049422 79 67 69
0.070312 -0.023438 0.056456 70 48 44
0.074219 -0.023438 0.063365 74 43 37
0.078125 -0.023438 0.067386 73 39 31
0.082031 -0.023438 0.068270 57 32 26
0.085938 -0.023438 0.066361 43 28 24
0.089844 -0.023438 0.065093 57 39 37
0.093750 -0.023438 0.065858 104 78 74
0.097656 -0.023438 0.068228 140 109 104
0.101562 -0.023438 0.071467 125 96 91
0.105469 -0.023438 0.075328 112 86 77
0.109375 -0.023438 0.078616 113 84 73
0.113281 -0.023438 0.080392 131 95 80
0.117188 -0.023438 0.081069 146 107 90
0.121094 -0.023438 0.081381 145 104 89
0.125000 -0.023438 0.082153 164 122 107
0.128906 -0.023438 0.081023 157 122 111
0.132812 -0.023438 0.068949 139 110 103
0.136719 -0.023438 0.050549 111 83 78
0.140625 -0.023438 0.037000 93 68 67
0.144531 -0.023438 0.026196 112 88 98
-0.171875 -0.027344 0.002046 106 125 106
-0.167969 -0.027344 0.019932 94 127 147
-0.164062 -0.027344 0.027167 48 83 125
-0.160156 -0.027344 0.032763 44 84 126
-0.156250 -0.027344 0.038087 57 102 135
-0.152344 -0.027344 0.043089 79 127 146
-0.148438 -0.027344 0.048337 97 126 133
-0.144531 -0.027344 0.053415 137 150 151
-0.140625 -0.027344 0.058521 164 170 171
-0.136719 -0.027344 0.063108 166 168 170
-0.132812 -0.027344 0.067159 150 147 151
-0.128906 -0.027344 0.071218 126 115 122
-0.125000 -0.027344 0.075273 103 87 94
-0.121094 -0.027344 0.079040 85 68 74
-0.117188 -0.027344 0.082493 79 63 68
-0.113281 -0.027344 0.085806 88 70 75
-0.109375 -0.027344 0.088732 100 79 84
-0.105469 -0.027344 0.091163 105 81 86
-0.101562 -0.027344 0.093057 105 81 86
-0.097656 -0.027344 0.094712 105 85 88
-0.093750 -0.027344 0.096366 103 89 91
-0.089844 -0.027344 0.098117 104 96 97
-0.085938 -0.027344 0.100129 106 102 103
-0.082031 -0.027344 0.101990 108 106 106
-0.078125 -0.027344 0.103619 112 110 111
-0.074219 -0.027344 0.104975 117 116 116
-0.070312 -0.027344 0.105987 121 120 120
-0.066406 -0.027344 0.106875 125 125 125
-0.062500 -0.027344 0.107559 129 129 129
-0.058594 -0.027344 0.108140 134 133 133
-0.054688 -0.027344 0.108587 139 139 139
-0.050781 -0.027344 0.108917 148 148 148
-0.046875 -0.027344 0.109123 158 158 158
-0.042969 -0.027344 0.109207 169 168 168
-0.039062 -0.027344 0.109219 179 178 179
-0.035156 -0.027344 0.109054 187 187 187
-0.031250 -0.027344 0.108791 193 192 192
-0.027344 -0.027344 0.108358 195 195 195
-0.023438 -0.027344 0.107704 195 194 194
-0.019531 -0.027344 0.106933 194 193 193
-0.015625 -0.027344 0.106049 193 193 193
-0.011719 -0.027344 0.105011 194 194 194
-0.007812 -0.027344 0.103837 198 197 197
-0.003906 -0.027344 0.102490 201 201 201
0.000000 -0.027344 0.101014 204 204 204
0.003906 -0.027344 0.099163 205 205 205
0.007812 -0.027344 0.096761 206 206 206
0.011719 -0.027344 0.094092 207 207 207
0.015625 -0.027344 0.091148 210 210 210
0.019531 -0.027344 0.088282 212 212 212
0.023438 -0.027344 0.085602 215 214 215
0.027344 -0.027344 0.083013 215 215 215
0.031250 -0.027344 0.080554 213 212 213
0.035156 -0.027344 0.077823 209 207 208
0.039062 -0.027344 0.074703 203 200 201
0.042969 -0.027344 0.071296 198 193 195
0.046875 -0.027344 0.067804 197 192 194
0.050781 -0.027344 0.063604 195 190 192
0.054688 -0.027344 0.058302 185 181 183
0.058594 -0.027344 0.053018 183 177 179
0.062500 -0.027344 0.047443 165 159 161
0.066406 -0.027344 0.044438 92 81 85
0.070312 -0.027344 0.050768 63 41 43
0.074219 -0.027344 0.059619 79 42 40
0.078125 -0.027344 0.065114 96 47 39
0.082031 -0.027344 0.067293 86 46 35
0.085938 -0.027344 0.066433 61 36 29
0.089844 -0.027344 0.065077 49 33 28
0.093750 -0.027344 0.064936 71 51 44
0.097656 -0.027344 0.066355 111 79 74
0.101562 -0.027344 0.068546 113 83 80
0.105469 -0.027344 0.071111 116 90 82
0.109375 -0.027344 0.073462 121 91 83
0.113281 -0.027344 0.074417 126 92 83
0.117188 -0.027344 0.074820 127 94 82
0.121094 -0.027344 0.075968 124 89 77
0.125000 -0.027344 0.078534 169 128 110
0.128906 -0.027344 0.081792 211 179 160
0.132812 -0.027344 0.074569 214 185 172
0.136719 -0.027344 0.057641 133 99 93
0.140625 -0.027344 0.042624 96 72 72
0.144531 -0.027344 0.013414 162 138 136
-0.171875 -0.031250 0.009850 115 138 138
-0.167969 -0.031250 0.022656 72 110 138
-0.164062 -0.031250 0.029506 40 73 113
-0.160156 -0.031250 0.035262 39 74 116
-0.156250 -0.031250 0.040670 35 69 111
-0.152344 -0.031250 0.045465 37 73 112
-0.148438 -0.031250 0.050400 45 78 113
-0.144531 -0.031250 0.055180 69 99 125
-0.140625 -0.031250 0.059949 103 123 138
-0.136719 -0.031250 0.064259 139 147 155
-0.132812 -0.031250 0.068096 151 152 158
-0.128906 -0.031250 0.071880 141 135 143
-0.125000 -0.031250 0.075625 124 114 122
-0.121094 -0.031250 0.079068 106 94 101
-0.117188 -0.031250 0.082285 97 84 90
-0.113281 -0.031250 0.085408 104 90 95
-0.109375 -0.031250 0.088180 114 100 105
-0.105469 -0.031250 0.090498 117 101 107
-0.101562 -0.031250 0.092311 116 100 105
-0.097656 -0.031250 0.093963 115 101 104
-0.093750 -0.031250 0.095614 113 103 105
-0.089844 -0.031250 0.097385 115 110 111
-0.085938 -0.031250 0.099445 118 115 116
-0.082031 -0.031250 0.101381 120 118 119
-0.078125 -0.031250 0.103095 125 124 124
-0.074219 -0.031250 0.104542 133 132 132
-0.070312 -0.031250 0.105641 140 140 140
-0.066406 -0.031250 0.106589 148 148 148
-0.062500 -0.031250 0.107301 155 154 155
-0.058594 -0.031250 0.107894 162 161 161
-0.054688 -0.031250 0.108325 169 168 168
-0.050781 -0.031250 0.108634 177 177 177
-0.046875 -0.031250 0.108815 185 185 185
-0.042969 -0.031250 0.108900 192 192 192
-0.039062 -0.031250 0.108947 199 199 199
-0.035156 -0.031250 0.108808 205 204 204
-0.031250 -0.031250 0.108572 208 208 208
-0.027344 -0.031250 0.108137 209 209 209
-0.023438 -0.031250 0.107470 207 207 207
-0.019531 -0.031250 0.106690 205 205 205
-0.015625 -0.031250 0.105768 202 202 202
-0.011719 -0.031250 0.104672 201 201 201
-0.007812 -0.031250 0.103408 202 202 202
-0.003906 -0.031250 0.101952 205 205 205
0.000000 -0.031250 0.100369 207 207 207
0.003906 -0.031250 0.098365 208 208 208
0.007812 -0.031250 0.095739 208 208 208
0.011719 -0.031250 0.092840 208 208 208
0.015625 -0.031250 0.089706 210 210 210
0.019531 -0.031250 0.086721 213 213 213
0.023438 -0.031250 0.083934 217 216 217
0.027344 -0.031250 0.081223 218 218 218
0.031250 -0.031250 0.078659 217 216 217
0.035156 -0.031250 0.075827 213 211 212
0.039062 -0.031250 0.072646 205 202 204
0.042969 -0.031250 0.069186 194 190 192
0.046875 -0.031250 0.065598 186 180 183
0.050781 -0.031250 0.061165 173 166 170
0.054688 -0.031250 0.055589 154 147 150
0.058594 -0.031250 0.050255 150 140 144
0.062500 -0.031250 0.044711 139 131 134
0.066406 -0.031250 0.041193 96 85 88
0.070312 -0.031250 0.046271 66 45 47
0.074219 -0.031250 0.056442 86 47 44
0.078125 -0.031250 0.063078 106 54 43
0.082031 -0.031250 0.065915 103 55 39
0.085938 -0.031250 0.065940 89 52 38
0.089844 -0.031250 0.065414 74 49 35
0.093750 -0.031250 0.065110 69 48 38
0.097656 -0.031250 0.065751 66 44 42
0.101562 -0.031250 0.067262 60 42 42
0.105469 -0.031250 0.069134 96 70 65
0.109375 -0.031250 0.070952 146 111 102
0.113281 -0.031250 0.071413 151 117 107
0.117188 -0.031250 0.070755 133 105 92
0.121094 -0.031250 0.071161 119 91 79
0.125000 -0.031250 0.073475 152 113 97
0.128906 -0.031250 0.077605 211 173 153
0.132812 -0.031250 0.075336 229 200 186
0.136719 -0.031250 0.063026 176 136 129
0.140625 -0.031250 0.046120 157 133 127
-0.171875 -0.035156 0.013290 76 101 122
-0.167969 -0.035156 0.025031 55 90 124
-0.164062 -0.035156 0.031821 38 67 107
-0.160156 -0.035156 0.037544 39 68 109
-0.156250 -0.035156 0.042892 32 57 98
-0.152344 -0.035156 0.047618 25 47 86
-0.148438 -0.035156 0.052293 28 52 92
-0.144531 -0.035156 0.056792 41 72 111
-0.140625 -0.035156 0.061304 52 84 114
-0.136719 -0.035156 0.065428 69 94 115
-0.132812 -0.035156 0.069145 86 97 115
-0.128906 -0.035156 0.072803 95 95 111
-0.125000 -0.035156 0.076278 107 102 115
-0.121094 -0.035156 0.079341 118 113 122
-0.117188 -0.035156 0.082207 131 125 132
-0.113281 -0.035156 0.084968 150 142 147
-0.109375 -0.035156 0.087543 165 157 161
-0.105469 -0.035156 0.089760 170 161 166
-0.101562 -0.035156 0.091491 169 158 163
-0.097656 -0.035156 0.093127 166 157 161
-0.093750 -0.035156 0.094764 163 157 159
-0.089844 -0.035156 0.096554 164 161 162
-0.085938 -0.035156 0.098672 163 161 162
-0.082031 -0.035156 0.100674 159 158 158
-0.078125 -0.035156 0.102480 158 157 157
-0.074219 -0.035156 0.104038 161 161 161
-0.070312 -0.035156 0.105238 169 169 169
-0.066406 -0.035156 0.106259 180 179 179
-0.062500 -0.035156 0.107004 189 189 189
-0.058594 -0.035156 0.107622 199 198 198
-0.054688 -0.035156 0.108038 208 207 208
-0.050781 -0.035156 0.108315 217 216 216
-0.046875 -0.035156 0.108474 224 224 224
-0.042969 -0.035156 0.108547 230 230 230
-0.039062 -0.035156 0.108597 235 235 235
-0.035156 -0.035156 0.108474 238 238 238
-0.031250 -0.035156 0.108253 239 239 239
-0.027344 -0.035156 0.107792 239 239 239
-0.023438 -0.035156 0.107095 238 237 237
-0.019531 -0.035156 0.106241 235 235 235
-0.015625 -0.035156 0.105208 232 232 232
-0.011719 -0.035156 0.103998 230 230 230
-0.007812 -0.035156 0.102607 230 229 229
-0.003906 -0.035156 0.101019 230 230 230
0.000000 -0.035156 0.099344 231 231 231
0.003906 -0.035156 0.097233 231 231 231
0.007812 -0.035156 0.094519 230 230 230
0.011719 -0.035156 0.091630 229 229 229
0.015625 -0.035156 0.088496 230 230 230
0.019531 -0.035156 0.085536 232 232 232
0.023438 -0.035156 0.082747 235 235 235
0.027344 -0.035156 0.079996 237 236 237
0.031250 -0.035156 0.077378 237 236 237
0.035156 -0.035156 0.074460 235 234 235
0.039062 -0.035156 0.071175 230 228 229
0.042969 -0.035156 0.067576 220 216 218
0.046875 -0.035156 0.063857 205 199 203
0.050781 -0.035156 0.059282 182 172 178
0.054688 -0.035156 0.053678 154 140 148
0.058594 -0.035156 0.048399 134 116 124
0.062500 -0.035156 0.042918 103 90 93
0.066406 -0.035156 0.039417 76 65 66
0.070312 -0.035156 0.043257 66 44 44
0.074219 -0.035156 0.054227 89 48 43
0.078125 -0.035156 0.061497 112 60 46
0.082031 -0.035156 0.064836 112 61 43
0.085938 -0.035156 0.065240 104 62 43
0.089844 -0.035156 0.065469 101 69 48
0.093750 -0.035156 0.065622 95 67 52
0.097656 -0.035156 0.066089 72 50 43
0.101562 -0.035156 0.067208 53 37 34
0.105469 -0.035156 0.068506 81 56 50
0.109375 -0.035156 0.069660 138 101 87
0.113281 -0.035156 0.069456 152 114 102
0.117188 -0.035156 0.068052 148 115 106
0.121094 -0.035156 0.067425 140 109 101
0.125000 -0.035156 0.068116 137 101 90
0.128906 -0.035156 0.070038 170 126 108
0.132812 -0.035156 0.068960 200 159 139
0.136719 -0.035156 0.062860 193 152 141
0.140625 -0.035156 0.044160 194 165 163
-0.175781 -0.039062 -0.009670 6 6 10
-0.171875 -0.039062 0.017037 65 93 127
-0.167969 -0.039062 0.027345 52 84 119
-0.164062 -0.039062 0.033719 41 68 103
-0.160156 -0.039062 0.039308 40 67 103
-0.156250 -0.039062 0.044519 34 59 96
-0.152344 -0.039062 0.049256 28 48 85
-0.148438 -0.039062 0.053867 26 47 85
-0.144531 -0.039062 0.058199 29 51 90
-0.140625 -0.039062 0.062568 28 50 88
-0.136719 -0.039062 0.066611 36 62 98
-0.132812 -0.039062 0.070203 51 78 111
-0.128906 -0.039062 0.073679 58 78 110
-0.125000 -0.039062 0.076877 68 79 108
-0.121094 -0.039062 0.079672 85 89 109
-0.117188 -0.039062 0.082353 128 128 137
-0.113281 -0.039062 0.084955 169 168 172
-0.109375 -0.039062 0.087466 194 192 195
-0.105469 -0.039062 0.089607 204 201 204
-0.101562 -0.039062 0.091255 206 203 206
-0.097656 -0.039062 0.092868 209 206 209
-0.093750 -0.039062 0.094488 212 210 212
-0.089844 -0.039062 0.096284 217 216 217
-0.085938 -0.039062 0.098432 220 219 220
-0.082031 -0.039062 0.100471 220 219 219
-0.078125 -0.039062 0.102367 219 218 218
-0.074219 -0.039062 0.104040 219 219 219
-0.070312 -0.039062 0.105341 222 221 221
-0.066406 -0.039062 0.106432 225 225 225
-0.062500 -0.039062 0.107208 228 228 228
-0.058594 -0.039062 0.107837 231 231 231
-0.054688 -0.039062 0.108227 235 235 235
-0.050781 -0.039062 0.108452 239 239 239
-0.046875 -0.039062 0.108562 242 242 242
-0.042969 -0.039062 0.108565 244 244 244
-0.039062 -0.039062 0.108544 246 246 246
-0.035156 -0.039062 0.108373 247 247 247
-0.031250 -0.039062 0.108117 248 247 248
-0.027344 -0.039062 0.107605 247 247 247
-0.023438 -0.039062 0.106856 246 246 246
-0.019531 -0.039062 0.105928 244 244 244
-0.015625 -0.039062 0.104794 241 241 241
-0.011719 -0.039062 0.103523 239 239 239
-0.007812 -0.039062 0.102118 238 238 238
-0.003906 -0.039062 0.100554 239 239 239
0.000000 -0.039062 0.098938 240 240 240
0.003906 -0.039062 0.096838 240 240 240
0.007812 -0.039062 0.094089 239 238 239
0.011719 -0.039062 0.091167 237 237 237
0.015625 -0.039062 0.088015 237 237 237
0.019531 -0.039062 0.085066 239 238 239
0.023438 -0.039062 0.082268 241 241 242
0.027344 -0.039062 0.079486 243 243 244
0.031250 -0.039062 0.076812 244 243 244
0.035156 -0.039062 0.073805 243 242 243
0.039062 -0.039062 0.070427 240 239 240
0.042969 -0.039062 0.066711 233 231 233
0.046875 -0.039062 0.062938 216 213 216
0.050781 -0.039062 0.058354 187 179 186
0.054688 -0.039062 0.052871 150 138 147
0.058594 -0.039062 0.047546 104 91 98
0.062500 -0.039062 0.042150 49 42 44
0.066406 -0.039062 0.038725 31 26 27
0.070312 -0.039062 0.041864 37 24 24
0.074219 -0.039062 0.053121 65 35 31
0.078125 -0.039062 0.060258 102 57 44
0.082031 -0.039062 0.063999 117 65 46
0.085938 -0.039062 0.064636 116 67 47
0.089844 -0.039062 0.065105 125 82 56
0.093750 -0.039062 0.065677 130 90 66
0.097656 -0.039062 0.066462 119 81 64
0.101562 -0.039062 0.067486 100 67 56
0.105469 -0.039062 0.068342 99 67 55
0.109375 -0.039062 0.068973 99 65 56
0.113281 -0.039062 0.068138 95 61 57
0.117188 -0.039062 0.066527 132 94 88
0.121094 -0.039062 0.065406 161 123 116
0.125000 -0.039062 0.063804 144 108 99
0.128906 -0.039062 0.062888 130 98 84
0.132812 -0.039062 0.060363 139 104 90
0.136719 -0.039062 0.057566 195 154 142
0.140625 -0.039062 0.039306 234 210 204
-0.175781 -0.042969 0.003533 44 55 71
-0.171875 -0.042969 0.020613 79 116 148
-0.167969 -0.042969 0.029484 45 78 111
-0.164062 -0.042969 0.035546 40 67 98
-0.160156 -0.042969 0.040892 41 68 101
-0.156250 -0.042969 0.045957 37 62 95
-0.152344 -0.042969 0.050601 33 54 89
-0.148438 -0.042969 0.055191 31 51 88
-0.144531 -0.042969 0.059540 27 45 81
-0.140625 -0.042969 0.063944 23 40 74
-0.136719 -0.042969 0.068044 31 52 87
-0.132812 -0.042969 0.071546 45 72 106
-0.128906 -0.042969 0.074856 47 76 110
-0.125000 -0.042969 0.077896 48 77 109
-0.121094 -0.042969 0.080629 39 62 91
-0.117188 -0.042969 0.083317 52 63 84
-0.113281 -0.042969 0.085938 96 99 112
-0.109375 -0.042969 0.088412 140 140 150
-0.105469 -0.042969 0.090448 170 168 176
-0.101562 -0.042969 0.091956 186 184 191
-0.097656 -0.042969 0.093416 199 197 203
-0.093750 -0.042969 0.094931 214 212 216
-0.089844 -0.042969 0.096678 228 226 229
-0.085938 -0.042969 0.098765 237 236 237
-0.082031 -0.042969 0.100746 242 241 242
-0.078125 -0.042969 0.102687 244 243 244
-0.074219 -0.042969 0.104450 245 245 245
-0.070312 -0.042969 0.105825 246 246 246
-0.066406 -0.042969 0.106977 247 246 246
-0.062500 -0.042969 0.107786 247 246 246
-0.058594 -0.042969 0.108431 247 246 246
-0.054688 -0.042969 0.108809 247 247 247
-0.050781 -0.042969 0.109003 248 247 247
-0.046875 -0.042969 0.109062 247 247 247
-0.042969 -0.042969 0.108970 247 246 247
-0.039062 -0.042969 0.108847 245 245 245
-0.035156 -0.042969 0.108605 243 243 244
-0.031250 -0.042969 0.108250 242 242 242
-0.027344 -0.042969 0.107641 240 240 240
-0.023438 -0.042969 0.106807 237 236 237
-0.019531 -0.042969 0.105784 232 231 232
-0.015625 -0.042969 0.104632 226 225 226
-0.011719 -0.042969 0.103435 220 220 221
-0.007812 -0.042969 0.102157 218 217 219
-0.003906 -0.042969 0.100776 218 217 220
0.000000 -0.042969 0.099401 220 218 221
0.003906 -0.042969 0.097480 220 219 221
0.007812 -0.042969 0.094800 217 216 219
0.011719 -0.042969 0.091957 213 211 214
0.015625 -0.042969 0.088894 211 210 212
0.019531 -0.042969 0.086027 214 213 215
0.023438 -0.042969 0.083263 220 219 221
0.027344 -0.042969 0.080472 224 224 226
0.031250 -0.042969 0.077721 225 225 227
0.035156 -0.042969 0.074571 224 223 225
0.039062 -0.042969 0.071019 218 217 220
0.042969 -0.042969 0.067114 203 201 206
0.046875 -0.042969 0.063199 172 169 176
0.050781 -0.042969 0.058509 132 126 137
0.054688 -0.042969 0.052958 102 95 107
0.058594 -0.042969 0.047545 70 65 72
0.062500 -0.042969 0.042132 37 34 35
0.066406 -0.042969 0.038581 29 26 25
0.070312 -0.042969 0.041916 35 27 25
0.074219 -0.042969 0.052991 50 31 27
0.078125 -0.042969 0.059718 85 49 38
0.082031 -0.042969 0.063557 116 64 46
0.085938 -0.042969 0.064396 126 69 48
0.089844 -0.042969 0.065085 143 85 61
0.093750 -0.042969 0.065760 152 98 74
0.097656 -0.042969 0.066645 151 98 79
0.101562 -0.042969 0.067662 149 99 80
0.105469 -0.042969 0.068366 141 98 76
0.109375 -0.042969 0.068925 107 73 58
0.113281 -0.042969 0.067950 80 51 44
0.117188 -0.042969 0.065894 109 74 63
0.121094 -0.042969 0.064239 148 106 96
0.125000 -0.042969 0.061038 152 113 105
0.128906 -0.042969 0.057352 135 107 95
0.132812 -0.042969 0.053140 102 83 75
0.136719 -0.042969 0.047542 144 117 106
-0.175781 -0.046875 0.010865 53 73 99
-0.171875 -0.046875 0.023407 66 104 138
-0.167969 -0.046875 0.031276 39 72 104
-0.164062 -0.046875 0.037133 39 68 99
-0.160156 -0.046875 0.042174 44 72 104
-0.156250 -0.046875 0.047191 40 64 97
-0.152344 -0.046875 0.051880 35 57 90
-0.148438 -0.046875 0.056494 33 53 87
-0.144531 -0.046875 0.060945 30 47 81
-0.140625 -0.046875 0.065479 31 49 83
-0.136719 -0.046875 0.069592 42 64 99
-0.132812 -0.046875 0.072926 44 68 103
-0.128906 -0.046875 0.076000 31 54 89
-0.125000 -0.046875 0.078843 24 46 80
-0.121094 -0.046875 0.081520 19 39 73
-0.117188 -0.046875 0.084217 20 39 73
-0.113281 -0.046875 0.086885 28 44 78
-0.109375 -0.046875 0.089393 35 47 82
-0.105469 -0.046875 0.091388 46 56 92
-0.101562 -0.046875 0.092795 60 66 101
-0.097656 -0.046875 0.094120 77 81 116
-0.093750 -0.046875 0.095520 110 111 142
-0.089844 -0.046875 0.097184 158 157 175
-0.085938 -0.046875 0.099222 202 201 208
-0.082031 -0.046875 0.101211 226 225 228
-0.078125 -0.046875 0.103209 237 235 238
-0.074219 -0.046875 0.104989 241 240 241
-0.070312 -0.046875 0.106368 242 241 243
-0.066406 -0.046875 0.107542 243 242 243
-0.062500 -0.046875 0.108360 242 241 242
-0.058594 -0.046875 0.108980 242 241 242
-0.054688 -0.046875 0.109329 242 241 242
-0.050781 -0.046875 0.109498 241 240 241
-0.046875 -0.046875 0.109510 238 237 238
-0.042969 -0.046875 0.109351 230 228 231
-0.039062 -0.046875 0.109144 214 213 219
-0.035156 -0.046875 0.108800 194 193 203
-0.031250 -0.046875 0.108329 175 174 187
-0.027344 -0.046875 0.107644 159 158 173
-0.023438 -0.046875 0.106783 146 144 161
-0.019531 -0.046875 0.105772 132 131 149
-0.015625 -0.046875 0.104684 117 116 135
-0.011719 -0.046875 0.103602 105 104 124
-0.007812 -0.046875 0.102470 98 96 116
-0.003906 -0.046875 0.101271 95 93 115
0.000000 -0.046875 0.100162 97 93 119
0.003906 -0.046875 0.098468 94 90 118
0.007812 -0.046875 0.095894 86 83 107
0.011719 -0.046875 0.093128 76 74 95
0.015625 -0.046875 0.090156 70 70 90
0.019531 -0.046875 0.087372 72 72 92
0.023438 -0.046875 0.084637 77 77 97
0.027344 -0.046875 0.081834 81 81 103
0.031250 -0.046875 0.079018 81 82 104
0.035156 -0.046875 0.075754 78 78 101
0.039062 -0.046875 0.072059 71 71 96
0.042969 -0.046875 0.068026 61 61 87
0.046875 -0.046875 0.063976 50 51 76
0.050781 -0.046875 0.059123 45 49 72
0.054688 -0.046875 0.053328 42 47 63
0.058594 -0.046875 0.047711 40 45 52
0.062500 -0.046875 0.042231 46 51 48
0.066406 -0.046875 0.038465 57 58 51
0.070312 -0.046875 0.041989 48 44 37
0.074219 -0.046875 0.053070 42 28 25
0.078125 -0.046875 0.059503 69 40 33
0.082031 -0.046875 0.063366 110 62 46
0.085938 -0.046875 0.064314 128 71 51
0.089844 -0.046875 0.065154 151 88 65
0.093750 -0.046875 0.065825 170 105 81
0.097656 -0.046875 0.066602 176 112 88
0.101562 -0.046875 0.067544 180 119 91
0.105469 -0.046875 0.068222 177 125 92
0.109375 -0.046875 0.069032 152 105 80
0.113281 -0.046875 0.068525 115 77 60
0.117188 -0.046875 0.066153 102 69 54
0.121094 -0.046875 0.063611 101 66 58
0.125000 -0.046875 0.059519 130 91 83
0.128906 -0.046875 0.054176 154 120 108
0.132812 -0.046875 0.048086 121 100 88
0.136719 -0.046875 0.037365 113 102 91
-0.179688 -0.050781 -0.005389 2 2 7
-0.175781 -0.050781 0.014970 39 57 92
-0.171875 -0.050781 0.025199 48 78 116
-0.167969 -0.050781 0.032582 39 72 105
-0.164062 -0.050781 0.038371 40 70 102
-0.160156 -0.050781 0.043343 42 69 102
-0.156250 -0.050781 0.048300 40 64 96
-0.152344 -0.050781 0.053020 38 60 92
-0.148438 -0.050781 0.057744 38 59 92
-0.144531 -0.050781 0.062332 38 58 91
-0.140625 -0.050781 0.066963 40 61 95
-0.136719 -0.050781 0.070989 46 69 104
-0.132812 -0.050781 0.074085 40 61 96
-0.128906 -0.050781 0.076925 25 44 77
-0.125000 -0.050781 0.079627 17 33 66
-0.121094 -0.050781 0.082301 14 29 62
-0.117188 -0.050781 0.085026 17 33 67
-0.113281 -0.050781 0.087715 23 43 78
-0.109375 -0.050781 0.090324 25 46 81
-0.105469 -0.050781 0.092380 25 44 79
-0.101562 -0.050781 0.093775 25 43 77
-0.097656 -0.050781 0.095093 28 45 81
-0.093750 -0.050781 0.096445 33 51 90
-0.089844 -0.050781 0.098047 41 57 94
-0.085938 -0.050781 0.100088 56 66 99
-0.082031 -0.050781 0.102153 84 87 117
-0.078125 -0.050781 0.104204 112 110 140
-0.074219 -0.050781 0.105975 128 124 150
-0.070312 -0.050781 0.107346 133 128 148
-0.066406 -0.050781 0.108519 134 127 146
-0.062500 -0.050781 0.109327 133 125 143
-0.058594 -0.050781 0.109881 129 122 138
-0.054688 -0.050781 0.110164 126 120 135
-0.050781 -0.050781 0.110291 120 115 131
-0.046875 -0.050781 0.110245 104 101 119
-0.042969 -0.050781 0.110031 83 83 104
-0.039062 -0.050781 0.109741 64 70 96
-0.035156 -0.050781 0.109279 50 61 89
-0.031250 -0.050781 0.108702 43 57 84
-0.027344 -0.050781 0.107969 40 54 81
-0.023438 -0.050781 0.107122 38 51 77
-0.019531 -0.050781 0.106180 38 52 77
-0.015625 -0.050781 0.105152 36 48 73
-0.011719 -0.050781 0.104158 33 43 68
-0.007812 -0.050781 0.103143 29 38 62
-0.003906 -0.050781 0.102060 32 40 64
0.000000 -0.050781 0.101113 44 53 79
0.003906 -0.050781 0.099555 50 62 88
0.007812 -0.050781 0.097043 43 55 80
0.011719 -0.050781 0.094279 31 42 64
0.015625 -0.050781 0.091317 24 35 57
0.019531 -0.050781 0.088553 22 34 57
0.023438 -0.050781 0.085807 21 32 57
0.027344 -0.050781 0.082972 20 33 59
0.031250 -0.050781 0.080111 21 33 60
0.035156 -0.050781 0.076778 20 33 60
0.039062 -0.050781 0.072997 22 35 63
0.042969 -0.050781 0.068891 23 37 65
0.046875 -0.050781 0.064799 24 39 64
0.050781 -0.050781 0.059936 28 44 66
0.054688 -0.050781 0.053862 25 39 55
0.058594 -0.050781 0.047856 29 43 52
0.062500 -0.050781 0.042099 54 68 65
0.066406 -0.050781 0.037924 59 63 54
0.070312 -0.050781 0.041402 39 35 31
0.074219 -0.050781 0.053196 39 27 23
0.078125 -0.050781 0.059495 66 42 35
0.082031 -0.050781 0.063238 108 67 50
0.085938 -0.050781 0.064286 132 77 56
0.089844 -0.050781 0.065340 159 92 68
0.093750 -0.050781 0.066195 183 112 84
0.097656 -0.050781 0.067068 193 122 93
0.101562 -0.050781 0.068003 196 128 97
0.105469 -0.050781 0.068628 190 127 95
0.109375 -0.050781 0.069351 170 112 85
0.113281 -0.050781 0.069133 143 98 76
0.117188 -0.050781 0.066817 121 85 67
0.121094 -0.050781 0.063674 89 59 48
0.125000 -0.050781 0.058997 96 63 53
0.128906 -0.050781 0.052459 123 83 74
0.132812 -0.050781 0.044908 129 93 84
0.136719 -0.050781 0.029240 151 127 116
-0.179688 -0.054688 0.001801 25 35 60
-0.175781 -0.054688 0.017440 55 82 118
-0.171875 -0.054688 0.026858 45 72 110
-0.167969 -0.054688 0.033835 43 73 108
-0.164062 -0.054688 0.039589 40 69 104
-0.160156 -0.054688 0.044553 39 66 99
-0.156250 -0.054688 0.049461 39 64 96
-0.152344 -0.054688 0.054180 37 60 92
-0.148438 -0.054688 0.058872 40 61 92
-0.144531 -0.054688 0.063516 46 67 100
-0.140625 -0.054688 0.068158 45 67 100
-0.136719 -0.054688 0.072025 40 61 95
-0.132812 -0.054688 0.074871 31 49 81
-0.128906 -0.054688 0.077533 21 37 68
-0.125000 -0.054688 0.080142 17 32 64
-0.121094 -0.054688 0.082801 17 32 64
-0.117188 -0.054688 0.085533 17 32 64
-0.113281 -0.054688 0.088196 20 36 68
-0.109375 -0.054688 0.090819 23 40 72
-0.105469 -0.054688 0.092889 23 39 72
-0.101562 -0.054688 0.094290 24 40 73
-0.097656 -0.054688 0.095645 24 41 74
-0.093750 -0.054688 0.096992 23 39 73
-0.089844 -0.054688 0.098583 23 39 75
-0.085938 -0.054688 0.100632 25 40 77
-0.082031 -0.054688 0.102702 25 37 74
-0.078125 -0.054688 0.104752 28 38 77
-0.074219 -0.054688 0.106554 28 36 73
-0.070312 -0.054688 0.107992 28 33 64
-0.066406 -0.054688 0.109210 37 38 68
-0.062500 -0.054688 0.110025 38 37 65
-0.058594 -0.054688 0.110544 33 31 55
-0.054688 -0.054688 0.110770 31 31 54
-0.050781 -0.054688 0.110836 34 36 59
-0.046875 -0.054688 0.110717 33 36 59
-0.042969 -0.054688 0.110429 29 35 57
-0.039062 -0.054688 0.110048 27 36 60
-0.035156 -0.054688 0.109476 24 34 59
-0.031250 -0.054688 0.108800 24 35 59
-0.027344 -0.054688 0.108015 25 36 61
-0.023438 -0.054688 0.107156 24 36 60
-0.019531 -0.054688 0.106219 25 36 60
-0.015625 -0.054688 0.105204 23 34 57
-0.011719 -0.054688 0.104278 23 32 55
-0.007812 -0.054688 0.103382 23 30 52
-0.003906 -0.054688 0.102416 24 30 52
0.000000 -0.054688 0.101597 32 40 64
0.003906 -0.054688 0.100150 43 53 78
0.007812 -0.054688 0.097731 42 53 78
0.011719 -0.054688 0.095001 31 40 63
0.015625 -0.054688 0.092041 22 31 52
