ply
    format ascii 1.0
    element vertex 65888
    property float x
    property float y
    property float z
    property uchar red
    property uchar green
    property uchar blue
    end_header
0.214844 -0.511719 -0.086451 19 32 75
0.218750 -0.511719 -0.084527 21 34 77
0.222656 -0.511719 -0.082286 21 34 74
0.226562 -0.511719 -0.078296 26 39 78
0.230469 -0.511719 -0.074115 24 36 73
0.234375 -0.511719 -0.067025 26 39 75
0.238281 -0.511719 -0.055971 34 45 79
-0.089844 -0.515625 -0.070117 11 18 40
-0.085938 -0.515625 -0.079659 19 29 59
-0.082031 -0.515625 -0.086816 14 22 46
-0.078125 -0.515625 -0.091690 11 18 40
-0.074219 -0.515625 -0.095214 12 21 47
-0.070312 -0.515625 -0.097853 13 23 51
-0.066406 -0.515625 -0.100593 13 23 53
-0.062500 -0.515625 -0.102785 13 23 53
-0.058594 -0.515625 -0.104122 12 23 53
-0.054688 -0.515625 -0.104609 12 22 52
-0.050781 -0.515625 -0.105119 12 22 51
-0.046875 -0.515625 -0.105348 12 22 52
-0.042969 -0.515625 -0.105001 11 21 49
-0.039062 -0.515625 -0.103726 11 20 47
-0.035156 -0.515625 -0.102696 12 22 50
-0.031250 -0.515625 -0.101124 12 22 49
-0.027344 -0.515625 -0.098865 12 21 48
-0.023438 -0.515625 -0.094621 13 22 51
-0.019531 -0.515625 -0.091110 15 23 52
-0.015625 -0.515625 -0.084876 16 22 51
-0.011719 -0.515625 -0.077209 15 19 44
0.148438 -0.515625 -0.047064 12 14 50
0.152344 -0.515625 -0.057667 29 36 84
0.156250 -0.515625 -0.065382 15 20 61
0.160156 -0.515625 -0.071378 14 21 66
0.164062 -0.515625 -0.075586 12 20 63
0.167969 -0.515625 -0.079641 11 19 63
0.171875 -0.515625 -0.083318 12 20 63
0.175781 -0.515625 -0.085863 12 21 66
0.179688 -0.515625 -0.087721 12 21 66
0.183594 -0.515625 -0.089445 13 22 69
0.187500 -0.515625 -0.090965 13 24 72
0.191406 -0.515625 -0.091733 14 25 73
0.195312 -0.515625 -0.091796 15 27 75
0.199219 -0.515625 -0.091858 15 28 75
0.203125 -0.515625 -0.091724 15 28 73
0.207031 -0.515625 -0.091001 16 29 73
0.210938 -0.515625 -0.089365 17 29 72
0.214844 -0.515625 -0.087964 18 31 74
0.218750 -0.515625 -0.086121 20 33 76
0.222656 -0.515625 -0.083868 21 34 74
0.226562 -0.515625 -0.079914 26 39 79
0.230469 -0.515625 -0.075938 25 38 75
0.234375 -0.515625 -0.069203 30 45 83
0.238281 -0.515625 -0.059122 29 37 71
-0.089844 -0.519531 -0.071327 11 19 42
-0.085938 -0.519531 -0.081087 20 32 64
-0.082031 -0.519531 -0.088050 15 23 48
-0.078125 -0.519531 -0.092896 11 19 42
-0.074219 -0.519531 -0.096407 12 22 48
-0.070312 -0.519531 -0.099042 12 22 50
-0.066406 -0.519531 -0.101752 12 23 51
-0.062500 -0.519531 -0.103908 12 23 52
-0.058594 -0.519531 -0.105218 12 23 52
-0.054688 -0.519531 -0.105658 12 22 52
-0.050781 -0.519531 -0.106126 12 23 53
-0.046875 -0.519531 -0.106309 12 23 53
-0.042969 -0.519531 -0.105905 12 22 50
-0.039062 -0.519531 -0.104564 11 21 49
-0.035156 -0.519531 -0.103477 12 23 51
-0.031250 -0.519531 -0.101870 12 22 50
-0.027344 -0.519531 -0.099571 12 21 49
-0.023438 -0.519531 -0.095336 13 22 50
-0.019531 -0.519531 -0.091698 14 21 50
-0.015625 -0.519531 -0.084994 17 23 51
-0.011719 -0.519531 -0.075683 16 21 46
0.148438 -0.519531 -0.045837 28 30 77
0.152344 -0.519531 -0.058128 20 24 65
0.156250 -0.519531 -0.065598 13 17 56
0.160156 -0.519531 -0.071830 13 20 65
0.164062 -0.519531 -0.076290 13 21 65
0.167969 -0.519531 -0.080472 13 21 67
0.171875 -0.519531 -0.084213 13 22 68
0.175781 -0.519531 -0.086852 13 23 70
0.179688 -0.519531 -0.088790 13 22 68
0.183594 -0.519531 -0.090573 12 21 66
0.187500 -0.519531 -0.092147 12 22 67
0.191406 -0.519531 -0.092954 13 23 70
0.195312 -0.519531 -0.093042 14 25 73
0.199219 -0.519531 -0.093121 14 27 73
0.203125 -0.519531 -0.093020 15 28 73
0.207031 -0.519531 -0.092340 16 29 74
0.210938 -0.519531 -0.090746 17 30 74
0.214844 -0.519531 -0.089370 18 32 75
0.218750 -0.519531 -0.087542 19 33 75
0.222656 -0.519531 -0.085265 20 34 74
0.226562 -0.519531 -0.081484 24 39 77
0.230469 -0.519531 -0.077408 23 37 72
0.234375 -0.519531 -0.071265 30 45 83
0.238281 -0.519531 -0.061940 24 32 64
-0.089844 -0.523438 -0.072297 11 18 41
-0.085938 -0.523438 -0.082275 20 31 63
-0.082031 -0.523438 -0.089228 14 22 46
-0.078125 -0.523438 -0.094040 11 18 41
-0.074219 -0.523438 -0.097544 12 22 48
-0.070312 -0.523438 -0.100171 12 22 49
-0.066406 -0.523438 -0.102858 12 23 51
-0.062500 -0.523438 -0.104980 12 23 52
-0.058594 -0.523438 -0.106262 12 23 52
-0.054688 -0.523438 -0.106656 12 22 51
-0.050781 -0.523438 -0.107090 13 24 53
-0.046875 -0.523438 -0.107237 13 24 53
-0.042969 -0.523438 -0.106782 12 22 49
-0.039062 -0.523438 -0.105376 11 21 47
-0.035156 -0.523438 -0.104221 12 21 49
-0.031250 -0.523438 -0.102528 11 21 48
-0.027344 -0.523438 -0.100148 12 22 50
-0.023438 -0.523438 -0.095924 13 22 51
-0.019531 -0.523438 -0.091998 14 21 48
-0.015625 -0.523438 -0.085273 17 23 49
-0.011719 -0.523438 -0.076019 15 18 44
0.148438 -0.523438 -0.033075 26 26 68
0.152344 -0.523438 -0.058578 19 21 57
0.156250 -0.523438 -0.065969 13 16 53
0.160156 -0.523438 -0.072255 13 19 63
0.164062 -0.523438 -0.077003 12 19 63
0.167969 -0.523438 -0.081345 12 20 65
0.171875 -0.523438 -0.085116 12 21 66
0.175781 -0.523438 -0.087837 12 22 68
0.179688 -0.523438 -0.089831 12 22 68
0.183594 -0.523438 -0.091661 12 21 67
0.187500 -0.523438 -0.093282 12 21 67
0.191406 -0.523438 -0.094119 13 23 70
0.195312 -0.523438 -0.094218 14 25 73
0.199219 -0.523438 -0.094314 15 27 74
0.203125 -0.523438 -0.094250 15 28 75
0.207031 -0.523438 -0.093604 16 30 76
0.210938 -0.523438 -0.092045 17 31 75
0.214844 -0.523438 -0.090704 18 32 75
0.218750 -0.523438 -0.088936 19 33 75
0.222656 -0.523438 -0.086658 21 35 75
0.226562 -0.523438 -0.082997 24 38 77
0.230469 -0.523438 -0.078789 23 35 70
0.234375 -0.523438 -0.073006 32 47 85
0.238281 -0.523438 -0.064486 34 45 79
-0.089844 -0.527344 -0.073626 11 17 40
-0.085938 -0.527344 -0.083506 20 31 62
-0.082031 -0.527344 -0.090340 14 21 45
-0.078125 -0.527344 -0.095154 11 17 40
-0.074219 -0.527344 -0.098659 12 22 48
-0.070312 -0.527344 -0.101258 13 23 51
-0.066406 -0.527344 -0.103924 13 24 53
-0.062500 -0.527344 -0.106010 13 25 53
-0.058594 -0.527344 -0.107265 12 23 51
-0.054688 -0.527344 -0.107609 11 22 49
-0.050781 -0.527344 -0.108008 12 22 51
-0.046875 -0.527344 -0.108122 12 22 51
-0.042969 -0.527344 -0.107615 11 21 48
-0.039062 -0.527344 -0.106136 11 20 46
-0.035156 -0.527344 -0.104902 11 20 47
-0.031250 -0.527344 -0.103087 11 20 47
-0.027344 -0.527344 -0.100676 12 21 50
-0.023438 -0.527344 -0.096634 14 23 52
-0.019531 -0.527344 -0.092401 14 21 47
-0.015625 -0.527344 -0.084841 19 24 51
-0.011719 -0.527344 -0.074852 20 22 52
0.152344 -0.527344 -0.056928 33 35 78
0.156250 -0.527344 -0.066145 17 20 61
0.160156 -0.527344 -0.072842 14 20 66
0.164062 -0.527344 -0.077778 12 19 63
0.167969 -0.527344 -0.082179 11 19 63
0.171875 -0.527344 -0.085980 12 21 65
0.175781 -0.527344 -0.088768 12 21 68
0.179688 -0.527344 -0.090808 13 23 70
0.183594 -0.527344 -0.092693 13 23 70
0.187500 -0.527344 -0.094358 13 23 70
0.191406 -0.527344 -0.095217 13 24 71
0.195312 -0.527344 -0.095329 14 25 73
0.199219 -0.527344 -0.095442 15 28 76
0.203125 -0.527344 -0.095409 16 29 77
0.207031 -0.527344 -0.094788 16 30 76
0.210938 -0.527344 -0.093263 17 30 75
0.214844 -0.527344 -0.091958 18 31 74
0.218750 -0.527344 -0.090226 19 33 73
0.222656 -0.527344 -0.087930 22 36 75
0.226562 -0.527344 -0.084417 25 39 77
0.230469 -0.527344 -0.079927 23 34 68
0.234375 -0.527344 -0.074565 30 42 77
0.238281 -0.527344 -0.066917 29 37 71
0.242188 -0.527344 -0.044453 23 34 68
-0.089844 -0.531250 -0.074653 11 17 39
-0.085938 -0.531250 -0.084651 22 33 65
-0.082031 -0.531250 -0.091403 14 22 46
-0.078125 -0.531250 -0.096206 11 17 39
-0.074219 -0.531250 -0.099699 13 22 48
-0.070312 -0.531250 -0.102284 13 23 51
-0.066406 -0.531250 -0.104929 12 24 51
-0.062500 -0.531250 -0.106981 12 24 51
-0.058594 -0.531250 -0.108206 12 22 49
-0.054688 -0.531250 -0.108504 11 21 48
-0.050781 -0.531250 -0.108877 12 22 49
-0.046875 -0.531250 -0.108960 12 23 51
-0.042969 -0.531250 -0.108404 12 22 49
-0.039062 -0.531250 -0.106855 11 21 49
-0.035156 -0.531250 -0.105541 11 21 49
-0.031250 -0.531250 -0.103640 11 20 48
-0.027344 -0.531250 -0.101231 12 22 51
-0.023438 -0.531250 -0.097043 14 24 53
-0.019531 -0.531250 -0.092299 14 21 47
-0.015625 -0.531250 -0.084274 19 24 50
-0.011719 -0.531250 -0.074969 22 24 56
0.152344 -0.531250 -0.055560 22 20 50
0.156250 -0.531250 -0.066077 17 19 58
0.160156 -0.531250 -0.073121 17 24 75
0.164062 -0.531250 -0.078480 13 20 67
0.167969 -0.531250 -0.082993 12 20 65
0.171875 -0.531250 -0.086771 13 22 70
0.175781 -0.531250 -0.089647 13 23 72
0.179688 -0.531250 -0.091714 14 24 72
0.183594 -0.531250 -0.093641 12 22 69
0.187500 -0.531250 -0.095348 12 22 69
0.191406 -0.531250 -0.096231 13 23 69
0.195312 -0.531250 -0.096363 13 24 71
0.199219 -0.531250 -0.096488 15 26 74
0.203125 -0.531250 -0.096467 16 28 75
0.207031 -0.531250 -0.095869 16 30 75
0.210938 -0.531250 -0.094371 17 30 75
0.214844 -0.531250 -0.093092 17 31 73
0.218750 -0.531250 -0.091395 18 32 71
0.222656 -0.531250 -0.089087 21 34 72
0.226562 -0.531250 -0.085630 23 36 73
0.230469 -0.531250 -0.081111 21 32 65
0.234375 -0.531250 -0.076009 27 38 72
0.238281 -0.531250 -0.068540 24 32 64
0.242188 -0.531250 -0.054337 21 32 65
-0.089844 -0.535156 -0.075723 10 16 38
-0.085938 -0.535156 -0.085805 21 32 65
-0.082031 -0.535156 -0.092419 14 21 45
-0.078125 -0.535156 -0.097221 10 16 38
-0.074219 -0.535156 -0.100701 12 21 47
-0.070312 -0.535156 -0.103269 12 23 49
-0.066406 -0.535156 -0.105892 12 22 48
-0.062500 -0.535156 -0.107917 12 23 49
-0.058594 -0.535156 -0.109115 11 22 49
-0.054688 -0.535156 -0.109367 11 21 48
-0.050781 -0.535156 -0.109715 12 22 49
-0.046875 -0.535156 -0.109761 12 23 51
-0.042969 -0.535156 -0.109154 12 23 51
-0.039062 -0.535156 -0.107528 12 22 51
-0.035156 -0.535156 -0.106124 11 21 50
-0.031250 -0.535156 -0.104176 11 20 48
-0.027344 -0.535156 -0.101750 13 22 51
-0.023438 -0.535156 -0.097294 15 24 54
-0.019531 -0.535156 -0.092164 14 21 47
-0.015625 -0.535156 -0.085672 17 21 46
-0.011719 -0.535156 -0.070612 14 15 40
0.152344 -0.535156 -0.056926 19 21 57
0.156250 -0.535156 -0.065764 15 16 52
0.160156 -0.535156 -0.073329 16 21 71
0.164062 -0.535156 -0.078921 11 17 60
0.167969 -0.535156 -0.083763 11 17 60
0.171875 -0.535156 -0.087482 12 20 67
0.175781 -0.535156 -0.090435 13 22 70
0.179688 -0.535156 -0.092542 13 24 71
0.183594 -0.535156 -0.094505 13 23 69
0.187500 -0.535156 -0.096259 13 23 70
0.191406 -0.535156 -0.097169 13 24 72
0.195312 -0.535156 -0.097312 14 24 72
0.199219 -0.535156 -0.097445 14 25 73
0.203125 -0.535156 -0.097437 15 27 73
0.207031 -0.535156 -0.096855 16 29 74
0.210938 -0.535156 -0.095382 17 30 75
0.214844 -0.535156 -0.094130 17 31 73
0.218750 -0.535156 -0.092442 18 32 72
0.222656 -0.535156 -0.090117 20 34 73
0.226562 -0.535156 -0.086612 23 36 73
0.230469 -0.535156 -0.082214 22 34 68
0.234375 -0.535156 -0.077368 28 40 75
0.238281 -0.535156 -0.069460 27 35 66
0.242188 -0.535156 -0.057644 22 34 68
-0.089844 -0.539062 -0.076785 10 17 38
-0.085938 -0.539062 -0.086930 21 31 64
-0.082031 -0.539062 -0.093395 14 21 45
-0.078125 -0.539062 -0.098192 10 17 38
-0.074219 -0.539062 -0.101638 12 22 48
-0.070312 -0.539062 -0.104178 12 23 49
-0.066406 -0.539062 -0.106770 11 22 47
-0.062500 -0.539062 -0.108770 11 22 48
-0.058594 -0.539062 -0.109945 12 22 48
-0.054688 -0.539062 -0.110153 12 22 49
-0.050781 -0.539062 -0.110474 12 22 49
-0.046875 -0.539062 -0.110490 12 23 50
-0.042969 -0.539062 -0.109838 13 23 52
-0.039062 -0.539062 -0.108124 13 23 53
-0.035156 -0.539062 -0.106620 12 22 51
-0.031250 -0.539062 -0.104591 11 20 49
-0.027344 -0.539062 -0.102004 12 22 51
-0.023438 -0.539062 -0.097592 14 24 52
-0.019531 -0.539062 -0.092442 14 21 45
-0.015625 -0.539062 -0.085302 20 24 50
0.152344 -0.539062 -0.055955 33 35 78
0.156250 -0.539062 -0.065936 12 14 49
0.160156 -0.539062 -0.073548 11 15 59
0.164062 -0.539062 -0.079195 10 14 56
0.167969 -0.539062 -0.084317 11 17 61
0.171875 -0.539062 -0.088097 12 20 67
0.175781 -0.539062 -0.091143 13 22 69
0.179688 -0.539062 -0.093267 14 24 72
0.183594 -0.539062 -0.095255 13 24 72
0.187500 -0.539062 -0.097054 14 24 72
0.191406 -0.539062 -0.097994 14 24 72
0.195312 -0.539062 -0.098148 13 24 71
0.199219 -0.539062 -0.098294 13 24 71
0.203125 -0.539062 -0.098303 14 26 71
0.207031 -0.539062 -0.097732 15 28 73
0.210938 -0.539062 -0.096276 16 30 74
0.214844 -0.539062 -0.095049 17 31 74
0.218750 -0.539062 -0.093386 19 33 73
0.222656 -0.539062 -0.091051 20 34 74
0.226562 -0.539062 -0.087471 23 36 75
0.230469 -0.539062 -0.083241 23 35 71
0.234375 -0.539062 -0.078588 29 40 74
0.238281 -0.539062 -0.070515 29 37 69
0.242188 -0.539062 -0.059980 32 34 58
-0.089844 -0.542969 -0.077708 10 17 39
-0.085938 -0.542969 -0.087948 21 32 64
-0.082031 -0.542969 -0.094279 14 21 45
-0.078125 -0.542969 -0.099071 10 17 39
-0.074219 -0.542969 -0.102509 13 22 48
-0.070312 -0.542969 -0.105045 12 23 49
-0.066406 -0.542969 -0.107607 11 22 48
-0.062500 -0.542969 -0.109578 11 22 48
-0.058594 -0.542969 -0.110727 12 22 48
-0.054688 -0.542969 -0.110887 12 23 49
-0.050781 -0.542969 -0.111187 12 22 48
-0.046875 -0.542969 -0.111171 11 21 48
-0.042969 -0.542969 -0.110469 12 22 51
-0.039062 -0.542969 -0.108667 12 23 52
-0.035156 -0.542969 -0.107096 12 22 52
-0.031250 -0.542969 -0.104992 11 20 49
-0.027344 -0.542969 -0.102210 12 22 50
-0.023438 -0.542969 -0.098141 14 23 50
-0.019531 -0.542969 -0.092454 13 19 42
-0.015625 -0.542969 -0.081122 20 25 50
0.152344 -0.542969 -0.045990 22 20 50
0.156250 -0.542969 -0.065925 23 26 77
0.160156 -0.542969 -0.073445 15 21 71
0.164062 -0.542969 -0.079258 11 16 60
0.167969 -0.542969 -0.084661 12 18 64
0.171875 -0.542969 -0.088673 12 20 66
0.175781 -0.542969 -0.091761 12 21 67
0.179688 -0.542969 -0.093895 14 24 71
0.183594 -0.542969 -0.095913 14 24 71
0.187500 -0.542969 -0.097747 14 25 72
0.191406 -0.542969 -0.098714 13 24 71
0.195312 -0.542969 -0.098882 13 24 70
0.199219 -0.542969 -0.099041 13 24 71
0.203125 -0.542969 -0.099063 14 26 72
0.207031 -0.542969 -0.098504 15 28 72
0.210938 -0.542969 -0.097066 15 28 72
0.214844 -0.542969 -0.095854 17 30 73
0.218750 -0.542969 -0.094214 18 32 73
0.222656 -0.542969 -0.091871 20 33 73
0.226562 -0.542969 -0.088211 22 35 75
0.230469 -0.542969 -0.084097 22 34 70
0.234375 -0.542969 -0.079519 26 36 69
0.238281 -0.542969 -0.071622 27 35 65
0.242188 -0.542969 -0.061131 41 46 71
-0.089844 -0.546875 -0.078852 10 16 38
-0.085938 -0.546875 -0.088874 21 33 65
-0.082031 -0.546875 -0.095087 13 21 44
-0.078125 -0.546875 -0.099883 10 16 38
-0.074219 -0.546875 -0.103302 12 21 47
-0.070312 -0.546875 -0.105826 12 22 48
-0.066406 -0.546875 -0.108358 12 22 48
-0.062500 -0.546875 -0.110300 12 23 49
-0.058594 -0.546875 -0.111422 11 22 48
-0.054688 -0.546875 -0.111533 12 22 48
-0.050781 -0.546875 -0.111816 11 21 48
-0.046875 -0.546875 -0.111777 11 21 48
-0.042969 -0.546875 -0.111025 12 22 50
-0.039062 -0.546875 -0.109102 12 22 51
-0.035156 -0.546875 -0.107486 11 22 52
-0.031250 -0.546875 -0.105417 11 21 51
-0.027344 -0.546875 -0.102340 12 21 49
-0.023438 -0.546875 -0.098669 14 22 48
-0.019531 -0.546875 -0.091496 12 18 38
-0.015625 -0.546875 -0.079369 18 23 46
0.156250 -0.546875 -0.063656 16 18 62
0.160156 -0.546875 -0.073173 16 22 70
0.164062 -0.546875 -0.079412 10 15 55
0.167969 -0.546875 -0.084857 11 18 62
0.171875 -0.546875 -0.089156 11 19 65
0.175781 -0.546875 -0.092254 12 21 68
0.179688 -0.546875 -0.094411 14 24 71
0.183594 -0.546875 -0.096458 13 24 70
0.187500 -0.546875 -0.098320 13 24 70
0.191406 -0.546875 -0.099311 13 24 70
0.195312 -0.546875 -0.099498 13 24 71
0.199219 -0.546875 -0.099675 13 25 72
0.203125 -0.546875 -0.099706 14 26 71
0.207031 -0.546875 -0.099158 14 27 71
0.210938 -0.546875 -0.097734 15 28 71
0.214844 -0.546875 -0.096539 16 30 74
0.218750 -0.546875 -0.094911 18 32 74
0.222656 -0.546875 -0.092562 20 34 75
0.226562 -0.546875 -0.088864 23 36 78
0.230469 -0.546875 -0.084820 23 35 72
0.234375 -0.546875 -0.080242 25 36 70
0.238281 -0.546875 -0.072591 27 36 66
0.242188 -0.546875 -0.062123 34 40 64
-0.089844 -0.550781 -0.079915 10 16 38
-0.085938 -0.550781 -0.089673 20 32 64
-0.082031 -0.550781 -0.095812 13 21 45
-0.078125 -0.550781 -0.100617 10 16 38
-0.074219 -0.550781 -0.104021 12 21 46
-0.070312 -0.550781 -0.106531 12 22 48
-0.066406 -0.550781 -0.109031 12 23 49
-0.062500 -0.550781 -0.110935 12 23 49
-0.058594 -0.550781 -0.112030 12 22 48
-0.054688 -0.550781 -0.112098 12 22 49
-0.050781 -0.550781 -0.112365 12 22 50
-0.046875 -0.550781 -0.112299 12 23 51
-0.042969 -0.550781 -0.111498 12 23 52
-0.039062 -0.550781 -0.109491 12 23 52
-0.035156 -0.550781 -0.107847 12 23 54
-0.031250 -0.550781 -0.105786 12 23 53
-0.027344 -0.550781 -0.102287 12 21 48
-0.023438 -0.550781 -0.098596 14 22 46
-0.019531 -0.550781 -0.090393 13 19 40
-0.015625 -0.550781 -0.081079 21 28 52
0.156250 -0.550781 -0.060862 16 16 54
0.160156 -0.550781 -0.072126 23 29 81
0.164062 -0.550781 -0.079514 12 16 56
0.167969 -0.550781 -0.085098 12 19 65
0.171875 -0.550781 -0.089535 11 20 66
0.175781 -0.550781 -0.092640 12 22 70
0.179688 -0.550781 -0.094805 13 24 72
0.183594 -0.550781 -0.096883 13 23 69
0.187500 -0.550781 -0.098795 13 23 69
0.191406 -0.550781 -0.099809 13 24 70
0.195312 -0.550781 -0.100010 14 25 71
0.199219 -0.550781 -0.100211 14 26 71
0.203125 -0.550781 -0.100251 14 26 70
0.207031 -0.550781 -0.099712 14 27 70
0.210938 -0.550781 -0.098305 15 28 72
0.214844 -0.550781 -0.097130 17 30 74
0.218750 -0.550781 -0.095505 17 31 73
0.222656 -0.550781 -0.093171 19 32 73
0.226562 -0.550781 -0.089448 22 35 76
0.230469 -0.550781 -0.085431 22 34 71
0.234375 -0.550781 -0.080857 25 36 71
0.238281 -0.550781 -0.073308 28 37 68
0.242188 -0.550781 -0.062958 32 34 58
-0.089844 -0.554688 -0.080881 10 16 39
-0.085938 -0.554688 -0.090382 18 28 59
-0.082031 -0.554688 -0.096454 13 20 44
-0.078125 -0.554688 -0.101282 10 16 39
-0.074219 -0.554688 -0.104689 12 21 47
-0.070312 -0.554688 -0.107173 12 22 49
-0.066406 -0.554688 -0.109627 12 22 48
-0.062500 -0.554688 -0.111491 12 22 47
-0.058594 -0.554688 -0.112560 11 21 47
-0.054688 -0.554688 -0.112586 12 22 49
-0.050781 -0.554688 -0.112831 12 22 50
-0.046875 -0.554688 -0.112733 11 21 49
-0.042969 -0.554688 -0.111886 11 22 50
-0.039062 -0.554688 -0.109774 12 22 52
-0.035156 -0.554688 -0.108111 12 23 54
-0.031250 -0.554688 -0.106082 13 23 54
-0.027344 -0.554688 -0.102476 12 21 46
-0.023438 -0.554688 -0.098362 14 22 45
-0.019531 -0.554688 -0.090150 13 19 41
-0.015625 -0.554688 -0.075969 15 19 41
0.156250 -0.554688 -0.061329 23 26 77
0.160156 -0.554688 -0.071148 27 34 82
0.164062 -0.554688 -0.079337 12 16 54
0.167969 -0.554688 -0.085193 11 18 62
0.171875 -0.554688 -0.089838 10 18 61
0.175781 -0.554688 -0.092946 11 20 66
0.179688 -0.554688 -0.095137 13 22 69
0.183594 -0.554688 -0.097253 12 22 67
0.187500 -0.554688 -0.099178 13 23 68
0.191406 -0.554688 -0.100212 14 24 70
0.195312 -0.554688 -0.100422 14 26 72
0.199219 -0.554688 -0.100641 14 26 72
0.203125 -0.554688 -0.100691 14 27 71
0.207031 -0.554688 -0.100164 14 28 71
0.210938 -0.554688 -0.098768 15 28 72
0.214844 -0.554688 -0.097604 16 29 72
0.218750 -0.554688 -0.095975 17 30 71
0.222656 -0.554688 -0.093658 18 31 72
0.226562 -0.554688 -0.089928 21 34 74
0.230469 -0.554688 -0.085938 22 33 70
0.234375 -0.554688 -0.081404 25 37 72
0.238281 -0.554688 -0.073769 30 40 72
0.242188 -0.554688 -0.063056 41 46 71
-0.089844 -0.558594 -0.081631 10 17 40
-0.085938 -0.558594 -0.091046 17 27 56
-0.082031 -0.558594 -0.097020 12 20 43
-0.078125 -0.558594 -0.101870 10 17 40
-0.074219 -0.558594 -0.105260 12 22 48
-0.070312 -0.558594 -0.107709 12 22 49
-0.066406 -0.558594 -0.110132 11 21 46
-0.062500 -0.558594 -0.111970 11 20 45
-0.058594 -0.558594 -0.113016 11 20 45
-0.054688 -0.558594 -0.112997 11 21 48
-0.050781 -0.558594 -0.113225 12 22 50
-0.046875 -0.558594 -0.113097 11 21 49
-0.042969 -0.558594 -0.112211 12 22 50
-0.039062 -0.558594 -0.110001 12 23 52
-0.035156 -0.558594 -0.108355 13 24 55
-0.031250 -0.558594 -0.106113 14 24 55
-0.027344 -0.558594 -0.102795 12 21 46
-0.023438 -0.558594 -0.097823 15 24 48
-0.019531 -0.558594 -0.090167 18 27 54
0.156250 -0.558594 -0.058698 16 18 62
0.160156 -0.558594 -0.071161 13 16 46
0.164062 -0.558594 -0.078821 11 16 50
0.167969 -0.558594 -0.085127 13 21 65
0.171875 -0.558594 -0.089915 11 19 63
0.175781 -0.558594 -0.093082 12 21 66
0.179688 -0.558594 -0.095352 13 22 68
0.183594 -0.558594 -0.097523 13 22 68
0.187500 -0.558594 -0.099459 14 24 69
0.191406 -0.558594 -0.100508 14 25 70
0.195312 -0.558594 -0.100726 15 26 71
0.199219 -0.558594 -0.100963 14 27 71
0.203125 -0.558594 -0.101032 14 28 71
0.207031 -0.558594 -0.100528 15 28 72
0.210938 -0.558594 -0.099140 15 28 71
0.214844 -0.558594 -0.097985 15 29 71
0.218750 -0.558594 -0.096368 17 30 72
0.222656 -0.558594 -0.094069 19 32 74
0.226562 -0.558594 -0.090345 21 34 74
0.230469 -0.558594 -0.086362 21 33 69
0.234375 -0.558594 -0.081815 24 36 70
0.238281 -0.558594 -0.074226 27 38 68
0.242188 -0.558594 -0.063413 34 40 64
-0.089844 -0.562500 -0.081919 10 17 39
-0.085938 -0.562500 -0.091488 17 27 56
-0.082031 -0.562500 -0.097535 13 20 44
-0.078125 -0.562500 -0.102374 10 17 39
-0.074219 -0.562500 -0.105759 12 21 47
-0.070312 -0.562500 -0.108171 12 22 48
-0.066406 -0.562500 -0.110580 12 21 47
-0.062500 -0.562500 -0.112397 11 20 46
-0.058594 -0.562500 -0.113416 11 20 46
-0.054688 -0.562500 -0.113357 11 21 49
-0.050781 -0.562500 -0.113572 12 22 50
-0.046875 -0.562500 -0.113409 12 22 51
-0.042969 -0.562500 -0.112479 12 23 52
-0.039062 -0.562500 -0.110191 13 24 53
-0.035156 -0.562500 -0.108582 13 24 55
-0.031250 -0.562500 -0.106169 14 25 55
-0.027344 -0.562500 -0.103136 13 22 47
-0.023438 -0.562500 -0.097172 15 23 46
-0.019531 -0.562500 -0.088855 20 29 56
0.156250 -0.562500 -0.024505 16 16 54
0.160156 -0.562500 -0.069277 17 23 53
0.164062 -0.562500 -0.078718 13 19 55
0.167969 -0.562500 -0.084786 13 21 66
0.171875 -0.562500 -0.089877 11 19 62
0.175781 -0.562500 -0.093208 11 19 63
0.179688 -0.562500 -0.095472 13 22 67
0.183594 -0.562500 -0.097723 14 23 69
0.187500 -0.562500 -0.099669 14 24 70
0.191406 -0.562500 -0.100722 14 24 68
0.195312 -0.562500 -0.100954 14 25 68
0.199219 -0.562500 -0.101216 14 26 69
0.203125 -0.562500 -0.101304 14 27 70
0.207031 -0.562500 -0.100821 14 28 71
0.210938 -0.562500 -0.099443 15 28 71
0.214844 -0.562500 -0.098297 16 29 72
0.218750 -0.562500 -0.096679 17 31 73
0.222656 -0.562500 -0.094392 19 33 75
0.226562 -0.562500 -0.090681 21 34 73
0.230469 -0.562500 -0.086674 20 33 68
0.234375 -0.562500 -0.082110 23 35 69
0.238281 -0.562500 -0.074529 24 35 63
0.242188 -0.562500 -0.063600 23 28 51
-0.089844 -0.566406 -0.081854 10 16 39
-0.085938 -0.566406 -0.091635 17 26 54
-0.082031 -0.566406 -0.097973 13 20 43
-0.078125 -0.566406 -0.102805 10 16 39
-0.074219 -0.566406 -0.106189 12 20 46
-0.070312 -0.566406 -0.108554 12 22 49
-0.066406 -0.566406 -0.110951 12 21 48
-0.062500 -0.566406 -0.112747 12 21 47
-0.058594 -0.566406 -0.113747 11 20 46
-0.054688 -0.566406 -0.113655 11 20 47
-0.050781 -0.566406 -0.113858 11 20 47
-0.046875 -0.566406 -0.113657 11 20 47
-0.042969 -0.566406 -0.112690 12 22 50
-0.039062 -0.566406 -0.110322 12 23 52
-0.035156 -0.566406 -0.108756 14 24 54
-0.031250 -0.566406 -0.106312 15 26 56
-0.027344 -0.566406 -0.103501 14 23 48
-0.023438 -0.566406 -0.096954 15 21 42
-0.019531 -0.566406 -0.086094 13 18 40
0.160156 -0.566406 -0.065246 27 34 82
0.164062 -0.566406 -0.077172 11 17 50
0.167969 -0.566406 -0.084779 11 18 57
0.171875 -0.566406 -0.089529 11 19 59
0.175781 -0.566406 -0.093277 11 20 61
0.179688 -0.566406 -0.095499 13 22 67
0.183594 -0.566406 -0.097782 14 24 69
0.187500 -0.566406 -0.099781 14 24 68
0.191406 -0.566406 -0.100846 13 23 66
0.195312 -0.566406 -0.101098 13 24 66
0.199219 -0.566406 -0.101393 13 25 68
0.203125 -0.566406 -0.101502 14 26 69
0.207031 -0.566406 -0.101042 14 27 69
0.210938 -0.566406 -0.099677 14 27 69
0.214844 -0.566406 -0.098545 15 28 71
0.218750 -0.566406 -0.096932 17 30 72
0.222656 -0.566406 -0.094663 18 32 72
0.226562 -0.566406 -0.090968 20 33 71
0.230469 -0.566406 -0.086943 21 34 70
0.234375 -0.566406 -0.082394 25 38 75
0.238281 -0.566406 -0.074898 29 42 74
0.242188 -0.566406 -0.063824 41 46 71
-0.089844 -0.570312 -0.081944 10 16 39
-0.085938 -0.570312 -0.091800 16 25 51
-0.082031 -0.570312 -0.098301 13 20 43
-0.078125 -0.570312 -0.103163 10 16 39
-0.074219 -0.570312 -0.106555 12 20 46
-0.070312 -0.570312 -0.108876 13 22 49
-0.066406 -0.570312 -0.111266 12 22 48
-0.062500 -0.570312 -0.113049 12 22 48
-0.058594 -0.570312 -0.114038 12 21 47
-0.054688 -0.570312 -0.113910 11 21 47
-0.050781 -0.570312 -0.114104 11 20 47
-0.046875 -0.570312 -0.113869 11 21 47
-0.042969 -0.570312 -0.112869 12 22 50
-0.039062 -0.570312 -0.110414 13 23 52
-0.035156 -0.570312 -0.108855 14 25 55
-0.031250 -0.570312 -0.106365 16 27 57
-0.027344 -0.570312 -0.103501 15 24 49
-0.023438 -0.570312 -0.096789 17 24 47
-0.019531 -0.570312 -0.086559 18 24 48
0.160156 -0.570312 -0.071397 13 16 46
0.164062 -0.570312 -0.075519 13 19 58
0.167969 -0.570312 -0.084049 13 20 58
0.171875 -0.570312 -0.089100 13 21 61
0.175781 -0.570312 -0.093126 13 22 64
0.179688 -0.570312 -0.095369 14 23 67
0.183594 -0.570312 -0.097755 14 24 68
0.187500 -0.570312 -0.099825 14 24 67
0.191406 -0.570312 -0.100891 13 23 65
0.195312 -0.570312 -0.101169 13 24 66
0.199219 -0.570312 -0.101498 13 25 68
0.203125 -0.570312 -0.101633 14 26 69
0.207031 -0.570312 -0.101196 14 27 70
0.210938 -0.570312 -0.099842 14 27 70
0.214844 -0.570312 -0.098726 15 28 70
0.218750 -0.570312 -0.097128 16 29 70
0.222656 -0.570312 -0.094878 17 30 69
0.226562 -0.570312 -0.091205 18 32 69
0.230469 -0.570312 -0.087206 20 34 70
0.234375 -0.570312 -0.082683 23 37 73
0.238281 -0.570312 -0.075354 27 41 73
0.242188 -0.570312 -0.064313 34 40 64
-0.089844 -0.574219 -0.082331 10 16 39
-0.085938 -0.574219 -0.091825 15 23 48
-0.082031 -0.574219 -0.098567 13 20 43
-0.078125 -0.574219 -0.103465 10 16 39
-0.074219 -0.574219 -0.106852 11 20 45
-0.070312 -0.574219 -0.109127 13 22 49
-0.066406 -0.574219 -0.111508 12 22 48
-0.062500 -0.574219 -0.113284 12 22 48
-0.058594 -0.574219 -0.114266 12 22 47
-0.054688 -0.574219 -0.114104 12 22 48
-0.050781 -0.574219 -0.114292 12 21 48
-0.046875 -0.574219 -0.114021 11 21 47
-0.042969 -0.574219 -0.112990 12 22 50
-0.039062 -0.574219 -0.110441 13 23 51
-0.035156 -0.574219 -0.108878 14 25 54
-0.031250 -0.574219 -0.106534 16 26 56
-0.027344 -0.574219 -0.103315 15 22 47
-0.023438 -0.574219 -0.096140 18 25 48
-0.019531 -0.574219 -0.086725 21 29 52
0.160156 -0.574219 -0.034860 17 23 53
0.164062 -0.574219 -0.073493 10 13 49
0.167969 -0.574219 -0.082948 11 16 48
0.171875 -0.574219 -0.088678 10 16 49
0.175781 -0.574219 -0.092804 11 19 57
0.179688 -0.574219 -0.095232 13 23 65
0.183594 -0.574219 -0.097657 14 24 68
0.187500 -0.574219 -0.099777 14 24 67
0.191406 -0.574219 -0.100868 13 23 65
0.195312 -0.574219 -0.101187 13 23 65
0.199219 -0.574219 -0.101548 12 24 66
0.203125 -0.574219 -0.101712 13 25 67
0.207031 -0.574219 -0.101299 14 26 69
0.210938 -0.574219 -0.099953 14 27 70
0.214844 -0.574219 -0.098853 15 28 70
0.218750 -0.574219 -0.097274 16 29 71
0.222656 -0.574219 -0.095050 17 30 70
0.226562 -0.574219 -0.091407 18 32 70
0.230469 -0.574219 -0.087450 20 34 71
0.234375 -0.574219 -0.082965 22 36 72
0.238281 -0.574219 -0.075763 26 41 72
0.242188 -0.574219 -0.064777 23 28 51
-0.089844 -0.578125 -0.082972 10 17 39
-0.085938 -0.578125 -0.091940 16 23 48
-0.082031 -0.578125 -0.098783 13 20 44
-0.078125 -0.578125 -0.103719 10 17 39
-0.074219 -0.578125 -0.107113 11 19 43
-0.070312 -0.578125 -0.109343 12 21 47
-0.066406 -0.578125 -0.111713 12 21 47
-0.062500 -0.578125 -0.113484 12 22 47
-0.058594 -0.578125 -0.114457 12 21 46
-0.054688 -0.578125 -0.114270 11 21 46
-0.050781 -0.578125 -0.114452 11 20 46
-0.046875 -0.578125 -0.114147 11 20 45
-0.042969 -0.578125 -0.113103 12 21 48
-0.039062 -0.578125 -0.110471 12 22 50
-0.035156 -0.578125 -0.108851 14 25 54
-0.031250 -0.578125 -0.106567 16 26 55
-0.027344 -0.578125 -0.103038 14 21 45
-0.023438 -0.578125 -0.095366 18 23 45
-0.019531 -0.578125 -0.082442 17 21 40
0.164062 -0.578125 -0.071730 11 17 50
0.167969 -0.578125 -0.081535 15 21 54
0.171875 -0.578125 -0.088001 11 16 46
0.175781 -0.578125 -0.092187 12 20 58
0.179688 -0.578125 -0.095062 14 24 66
0.183594 -0.578125 -0.097489 15 25 68
0.187500 -0.578125 -0.099670 14 25 67
0.191406 -0.578125 -0.100804 13 24 66
0.195312 -0.578125 -0.101152 13 24 67
0.199219 -0.578125 -0.101544 13 24 67
0.203125 -0.578125 -0.101744 13 25 67
0.207031 -0.578125 -0.101360 13 26 68
0.210938 -0.578125 -0.100026 14 26 68
0.214844 -0.578125 -0.098940 14 27 69
0.218750 -0.578125 -0.097382 15 29 69
0.222656 -0.578125 -0.095193 17 30 70
0.226562 -0.578125 -0.091594 18 32 70
0.230469 -0.578125 -0.087703 20 34 71
0.234375 -0.578125 -0.083266 23 36 72
0.238281 -0.578125 -0.076176 28 43 75
0.242188 -0.578125 -0.065277 29 37 65
-0.089844 -0.582031 -0.083234 10 17 40
-0.085938 -0.582031 -0.091880 15 23 46
-0.082031 -0.582031 -0.098989 13 20 43
-0.078125 -0.582031 -0.103908 10 17 40
-0.074219 -0.582031 -0.107338 11 19 43
-0.070312 -0.582031 -0.109530 11 21 46
-0.066406 -0.582031 -0.111888 11 20 45
-0.062500 -0.582031 -0.113659 12 21 46
-0.058594 -0.582031 -0.114626 11 21 45
-0.054688 -0.582031 -0.114414 11 21 46
-0.050781 -0.582031 -0.114586 11 21 46
-0.046875 -0.582031 -0.114246 11 21 46
-0.042969 -0.582031 -0.113175 11 22 49
-0.039062 -0.582031 -0.110490 12 22 51
-0.035156 -0.582031 -0.108714 14 25 54
-0.031250 -0.582031 -0.106319 16 26 55
-0.027344 -0.582031 -0.102523 14 21 44
-0.023438 -0.582031 -0.095935 19 25 47
-0.019531 -0.582031 -0.078171 21 26 44
0.164062 -0.582031 -0.073745 13 19 58
0.167969 -0.582031 -0.080447 23 29 63
0.171875 -0.582031 -0.086863 12 16 45
0.175781 -0.582031 -0.091756 13 22 61
0.179688 -0.582031 -0.094759 14 24 65
0.183594 -0.582031 -0.097244 14 24 65
0.187500 -0.582031 -0.099499 14 24 65
0.191406 -0.582031 -0.100685 13 23 64
0.195312 -0.582031 -0.101064 13 24 66
0.199219 -0.582031 -0.101490 13 25 67
0.203125 -0.582031 -0.101724 13 26 68
0.207031 -0.582031 -0.101369 14 26 68
0.210938 -0.582031 -0.100049 14 26 68
0.214844 -0.582031 -0.098982 14 27 68
0.218750 -0.582031 -0.097454 15 28 68
0.222656 -0.582031 -0.095300 16 30 69
0.226562 -0.582031 -0.091724 17 30 67
0.230469 -0.582031 -0.087926 19 31 66
0.234375 -0.582031 -0.083589 21 33 68
0.238281 -0.582031 -0.076628 25 39 70
0.242188 -0.582031 -0.065848 31 39 69
-0.089844 -0.585938 -0.083426 10 17 40
-0.085938 -0.585938 -0.091754 15 23 46
-0.082031 -0.585938 -0.099157 13 20 42
-0.078125 -0.585938 -0.104004 10 17 40
-0.074219 -0.585938 -0.107533 11 19 44
-0.070312 -0.585938 -0.109670 12 22 48
-0.066406 -0.585938 -0.112012 12 21 46
-0.062500 -0.585938 -0.113774 12 21 46
-0.058594 -0.585938 -0.114737 11 21 45
-0.054688 -0.585938 -0.114510 11 20 45
-0.050781 -0.585938 -0.114674 11 21 46
-0.046875 -0.585938 -0.114309 11 21 47
-0.042969 -0.585938 -0.113219 12 22 50
-0.039062 -0.585938 -0.110491 12 23 51
-0.035156 -0.585938 -0.108567 14 25 54
-0.031250 -0.585938 -0.106193 16 26 54
-0.027344 -0.585938 -0.102129 14 21 43
-0.023438 -0.585938 -0.095751 20 27 49
-0.019531 -0.585938 -0.069337 21 29 52
0.164062 -0.585938 -0.046812 10 13 49
0.167969 -0.585938 -0.079304 18 22 48
0.171875 -0.585938 -0.086070 10 12 37
0.175781 -0.585938 -0.091249 12 19 55
0.179688 -0.585938 -0.094355 13 22 61
0.183594 -0.585938 -0.096910 13 24 62
0.187500 -0.585938 -0.099304 14 25 64
0.191406 -0.585938 -0.100555 13 24 65
0.195312 -0.585938 -0.100955 13 25 66
0.199219 -0.585938 -0.101420 13 25 66
0.203125 -0.585938 -0.101690 13 25 67
0.207031 -0.585938 -0.101371 14 26 67
0.210938 -0.585938 -0.100070 14 26 67
0.214844 -0.585938 -0.099029 14 27 68
0.218750 -0.585938 -0.097530 15 29 69
0.222656 -0.585938 -0.095407 16 30 69
0.226562 -0.585938 -0.091871 17 30 67
0.230469 -0.585938 -0.088154 19 30 65
0.234375 -0.585938 -0.083893 21 33 68
0.238281 -0.585938 -0.077046 26 39 71
0.242188 -0.585938 -0.066495 37 45 78
-0.089844 -0.589844 -0.082381 11 18 40
-0.085938 -0.589844 -0.091604 16 24 46
-0.082031 -0.589844 -0.099232 13 20 42
-0.078125 -0.589844 -0.104011 11 18 40
-0.074219 -0.589844 -0.107692 11 19 43
-0.070312 -0.589844 -0.109778 13 22 48
-0.066406 -0.589844 -0.112105 12 22 48
-0.062500 -0.589844 -0.113852 12 22 47
-0.058594 -0.589844 -0.114809 11 21 46
-0.054688 -0.589844 -0.114569 11 21 46
-0.050781 -0.589844 -0.114730 11 21 47
-0.046875 -0.589844 -0.114340 11 21 47
-0.042969 -0.589844 -0.113215 12 23 51
-0.039062 -0.589844 -0.110452 12 23 53
-0.035156 -0.589844 -0.108403 14 24 54
-0.031250 -0.589844 -0.106039 17 27 55
-0.027344 -0.589844 -0.101804 16 22 45
-0.023438 -0.589844 -0.094769 24 29 51
0.167969 -0.589844 -0.076199 27 31 59
0.171875 -0.589844 -0.085441 17 19 50
0.175781 -0.589844 -0.090523 15 22 61
0.179688 -0.589844 -0.093941 14 23 61
0.183594 -0.589844 -0.096547 13 23 61
0.187500 -0.589844 -0.099029 13 24 62
0.191406 -0.589844 -0.100353 13 24 64
0.195312 -0.589844 -0.100796 13 24 66
0.199219 -0.589844 -0.101301 13 25 66
0.203125 -0.589844 -0.101602 14 26 67
0.207031 -0.589844 -0.101322 14 27 68
0.210938 -0.589844 -0.100046 14 27 68
0.214844 -0.589844 -0.099042 15 28 69
0.218750 -0.589844 -0.097577 16 30 70
0.222656 -0.589844 -0.095490 17 31 70
0.226562 -0.589844 -0.091974 18 31 67
0.230469 -0.589844 -0.088342 20 32 67
0.234375 -0.589844 -0.084188 22 34 70
0.238281 -0.589844 -0.077503 25 38 70
0.242188 -0.589844 -0.067296 29 37 65
-0.089844 -0.593750 -0.080670 11 18 40
-0.085938 -0.593750 -0.091329 13 20 41
-0.082031 -0.593750 -0.099278 13 20 41
-0.078125 -0.593750 -0.103970 11 18 40
-0.074219 -0.593750 -0.107781 11 20 43
-0.070312 -0.593750 -0.109870 13 22 48
-0.066406 -0.593750 -0.112170 12 22 47
-0.062500 -0.593750 -0.113894 12 22 46
-0.058594 -0.593750 -0.114843 11 21 46
-0.054688 -0.593750 -0.114586 11 21 46
-0.050781 -0.593750 -0.114746 11 21 47
-0.046875 -0.593750 -0.114323 11 21 48
-0.042969 -0.593750 -0.113141 12 23 51
-0.039062 -0.593750 -0.110343 13 23 53
-0.035156 -0.593750 -0.108179 13 23 52
-0.031250 -0.593750 -0.105854 16 26 54
-0.027344 -0.593750 -0.101584 16 22 44
-0.023438 -0.593750 -0.093768 24 28 49
0.167969 -0.593750 -0.074311 23 29 63
0.171875 -0.593750 -0.084758 19 21 54
0.175781 -0.593750 -0.089692 14 21 56
0.179688 -0.593750 -0.093526 13 21 57
0.183594 -0.593750 -0.096230 12 22 59
0.187500 -0.593750 -0.098653 12 23 61
0.191406 -0.593750 -0.100092 12 23 62
0.195312 -0.593750 -0.100593 13 23 63
0.199219 -0.593750 -0.101140 13 24 65
0.203125 -0.593750 -0.101487 13 24 65
0.207031 -0.593750 -0.101260 13 25 65
0.210938 -0.593750 -0.100024 14 26 66
0.214844 -0.593750 -0.099068 14 27 68
0.218750 -0.593750 -0.097646 16 29 68
0.222656 -0.593750 -0.095599 17 30 69
0.226562 -0.593750 -0.092111 17 30 65
0.230469 -0.593750 -0.088594 19 31 65
0.234375 -0.593750 -0.084541 21 33 68
0.238281 -0.593750 -0.078022 25 37 70
0.242188 -0.593750 -0.068105 31 39 69
-0.089844 -0.597656 -0.078721 12 19 42
-0.085938 -0.597656 -0.091445 16 25 50
-0.082031 -0.597656 -0.099336 15 23 47
-0.078125 -0.597656 -0.104017 12 19 42
-0.074219 -0.597656 -0.107893 12 20 43
-0.070312 -0.597656 -0.109939 13 22 47
-0.066406 -0.597656 -0.112201 12 22 47
-0.062500 -0.597656 -0.113907 12 21 46
-0.058594 -0.597656 -0.114845 11 20 45
-0.054688 -0.597656 -0.114570 11 20 45
-0.050781 -0.597656 -0.114731 11 21 47
-0.046875 -0.597656 -0.114272 11 22 49
-0.042969 -0.597656 -0.113082 12 23 52
-0.039062 -0.597656 -0.110275 13 24 53
-0.035156 -0.597656 -0.108017 13 23 50
-0.031250 -0.597656 -0.106069 16 25 51
-0.027344 -0.597656 -0.101488 17 23 45
-0.023438 -0.597656 -0.090612 27 30 51
0.167969 -0.597656 -0.073750 18 22 48
0.171875 -0.597656 -0.082499 24 27 66
0.175781 -0.597656 -0.089312 13 19 53
0.179688 -0.597656 -0.092575 11 18 51
0.183594 -0.597656 -0.095848 11 20 56
0.187500 -0.597656 -0.098228 12 22 60
0.191406 -0.597656 -0.099700 13 23 63
0.195312 -0.597656 -0.100313 13 24 65
0.199219 -0.597656 -0.100939 13 25 66
0.203125 -0.597656 -0.101345 13 25 66
0.207031 -0.597656 -0.101182 13 24 64
0.210938 -0.597656 -0.100002 13 25 66
0.214844 -0.597656 -0.099103 14 27 67
0.218750 -0.597656 -0.097737 15 28 67
0.222656 -0.597656 -0.095735 17 30 68
0.226562 -0.597656 -0.092310 18 31 67
0.230469 -0.597656 -0.088940 19 32 67
0.234375 -0.597656 -0.084902 21 33 68
0.238281 -0.597656 -0.078703 27 40 74
0.242188 -0.597656 -0.068626 37 45 78
-0.089844 -0.601562 -0.078077 11 18 40
-0.085938 -0.601562 -0.091129 15 24 49
-0.082031 -0.601562 -0.099300 14 22 46
-0.078125 -0.601562 -0.104066 11 18 40
-0.074219 -0.601562 -0.108034 11 19 41
-0.070312 -0.601562 -0.109993 12 21 45
-0.066406 -0.601562 -0.112206 12 21 46
-0.062500 -0.601562 -0.113910 12 21 45
-0.058594 -0.601562 -0.114833 11 20 45
-0.054688 -0.601562 -0.114533 11 20 46
-0.050781 -0.601562 -0.114694 11 21 48
-0.046875 -0.601562 -0.114183 12 22 50
-0.042969 -0.601562 -0.112983 13 24 53
-0.039062 -0.601562 -0.110179 13 24 53
-0.035156 -0.601562 -0.107703 13 22 49
-0.031250 -0.601562 -0.105997 15 24 49
-0.027344 -0.601562 -0.100246 18 25 47
-0.023438 -0.601562 -0.088564 31 35 55
0.167969 -0.601562 -0.074286 27 31 59
0.171875 -0.601562 -0.080306 30 33 81
0.175781 -0.601562 -0.087836 16 21 57
0.179688 -0.601562 -0.091802 12 18 51
0.183594 -0.601562 -0.095224 13 21 59
0.187500 -0.601562 -0.097704 12 21 59
0.191406 -0.601562 -0.099244 13 23 62
0.195312 -0.601562 -0.099966 13 24 64
0.199219 -0.601562 -0.100665 13 25 66
0.203125 -0.601562 -0.101141 14 26 67
0.207031 -0.601562 -0.101050 13 25 66
0.210938 -0.601562 -0.099941 14 26 67
0.214844 -0.601562 -0.099114 14 27 67
0.218750 -0.601562 -0.097812 15 27 66
0.222656 -0.601562 -0.095863 16 29 66
0.226562 -0.601562 -0.092479 18 31 67
0.230469 -0.601562 -0.089230 20 33 68
0.234375 -0.601562 -0.085341 22 35 71
0.238281 -0.601562 -0.079492 27 40 76
0.242188 -0.601562 -0.069229 33 39 74
-0.089844 -0.605469 -0.083076 10 17 38
-0.085938 -0.605469 -0.091139 15 25 54
-0.082031 -0.605469 -0.099745 13 21 45
-0.078125 -0.605469 -0.103954 10 17 38
-0.074219 -0.605469 -0.108144 11 19 42
-0.070312 -0.605469 -0.110046 12 21 46
-0.066406 -0.605469 -0.112188 12 21 46
-0.062500 -0.605469 -0.113878 12 20 45
-0.058594 -0.605469 -0.114775 11 20 46
-0.054688 -0.605469 -0.114445 11 21 47
-0.050781 -0.605469 -0.114604 12 22 49
-0.046875 -0.605469 -0.114063 12 23 51
-0.042969 -0.605469 -0.112866 13 24 53
-0.039062 -0.605469 -0.110115 13 24 52
-0.035156 -0.605469 -0.107435 13 22 49
-0.031250 -0.605469 -0.105673 15 23 49
-0.027344 -0.605469 -0.098114 19 27 49
-0.023438 -0.605469 -0.089369 26 32 52
0.171875 -0.605469 -0.076036 16 17 53
0.175781 -0.605469 -0.086173 14 19 50
0.179688 -0.605469 -0.091004 11 15 45
0.183594 -0.605469 -0.094310 13 20 58
0.187500 -0.605469 -0.097130 12 21 59
0.191406 -0.605469 -0.098745 14 24 65
0.195312 -0.605469 -0.099563 14 25 66
0.199219 -0.605469 -0.100353 13 24 64
0.203125 -0.605469 -0.100932 13 25 65
0.207031 -0.605469 -0.100920 13 25 64
0.210938 -0.605469 -0.099890 13 25 64
0.214844 -0.605469 -0.099143 13 25 64
0.218750 -0.605469 -0.097910 14 25 64
0.222656 -0.605469 -0.096022 15 27 64
0.226562 -0.605469 -0.092721 16 29 64
0.230469 -0.605469 -0.089580 18 30 65
0.234375 -0.605469 -0.085770 21 33 69
0.238281 -0.605469 -0.080301 25 36 71
0.242188 -0.605469 -0.071020 29 35 71
-0.089844 -0.609375 -0.081766 10 16 37
-0.085938 -0.609375 -0.091740 17 29 66
-0.082031 -0.609375 -0.099855 13 21 45
-0.078125 -0.609375 -0.103800 10 16 37
-0.074219 -0.609375 -0.108128 11 20 44
-0.070312 -0.609375 -0.110042 13 23 49
-0.066406 -0.609375 -0.112137 12 21 47
-0.062500 -0.609375 -0.113808 12 21 46
-0.058594 -0.609375 -0.114674 11 20 46
-0.054688 -0.609375 -0.114328 11 21 47
-0.050781 -0.609375 -0.114491 12 22 49
-0.046875 -0.609375 -0.113918 12 22 50
-0.042969 -0.609375 -0.112725 13 23 52
-0.039062 -0.609375 -0.110084 13 24 53
-0.035156 -0.609375 -0.107265 13 23 51
-0.031250 -0.609375 -0.105263 16 26 52
-0.027344 -0.609375 -0.097122 20 29 53
-0.023438 -0.609375 -0.087453 27 30 51
0.171875 -0.609375 -0.076605 24 27 66
0.175781 -0.609375 -0.083862 23 29 67
0.179688 -0.609375 -0.089995 12 16 47
0.183594 -0.609375 -0.093287 12 19 56
0.187500 -0.609375 -0.096548 12 19 57
0.191406 -0.609375 -0.098132 14 23 64
0.195312 -0.609375 -0.099079 15 25 67
0.199219 -0.609375 -0.100003 13 24 64
0.203125 -0.609375 -0.100674 14 25 65
0.207031 -0.609375 -0.100744 13 25 65
0.210938 -0.609375 -0.099798 13 25 64
0.214844 -0.609375 -0.099137 13 25 65
0.218750 -0.609375 -0.097994 14 27 66
0.222656 -0.609375 -0.096182 16 29 68
0.226562 -0.609375 -0.092953 18 31 67
0.230469 -0.609375 -0.089939 19 31 65
0.234375 -0.609375 -0.086097 22 34 69
0.238281 -0.609375 -0.080899 25 34 69
0.242188 -0.609375 -0.073544 31 37 75
-0.089844 -0.613281 -0.053850 9 15 35
-0.085938 -0.613281 -0.091624 16 25 59
-0.082031 -0.613281 -0.099524 13 21 42
-0.078125 -0.613281 -0.103810 9 15 35
-0.074219 -0.613281 -0.107887 12 21 45
-0.070312 -0.613281 -0.109978 13 23 49
-0.066406 -0.613281 -0.112048 12 22 48
-0.062500 -0.613281 -0.113719 12 21 46
-0.058594 -0.613281 -0.114553 11 21 47
-0.054688 -0.613281 -0.114190 11 21 47
-0.050781 -0.613281 -0.114358 11 21 48
-0.046875 -0.613281 -0.113770 12 22 49
-0.042969 -0.613281 -0.112582 13 23 52
-0.039062 -0.613281 -0.109934 14 24 53
-0.035156 -0.613281 -0.106780 14 24 52
-0.031250 -0.613281 -0.104477 17 27 54
-0.027344 -0.613281 -0.098172 21 30 55
-0.023438 -0.613281 -0.086298 31 35 55
0.171875 -0.613281 -0.072130 30 33 81
0.175781 -0.613281 -0.083155 22 25 59
0.179688 -0.613281 -0.088508 14 18 50
0.183594 -0.613281 -0.092473 13 20 58
0.187500 -0.613281 -0.095810 11 19 57
0.191406 -0.613281 -0.097495 13 21 62
0.195312 -0.613281 -0.098589 13 23 64
0.199219 -0.613281 -0.099633 13 23 63
0.203125 -0.613281 -0.100401 13 24 65
0.207031 -0.613281 -0.100563 14 25 65
0.210938 -0.613281 -0.099704 13 26 66
0.214844 -0.613281 -0.099135 14 27 67
0.218750 -0.613281 -0.098083 15 28 67
0.222656 -0.613281 -0.096345 16 30 68
0.226562 -0.613281 -0.093194 18 31 67
0.230469 -0.613281 -0.090288 18 30 63
0.234375 -0.613281 -0.086552 21 33 66
0.238281 -0.613281 -0.081512 22 31 63
0.242188 -0.613281 -0.074932 25 30 64
0.246094 -0.613281 -0.053337 21 33 66
-0.085938 -0.617188 -0.090523 20 29 61
-0.082031 -0.617188 -0.098933 16 24 46
-0.078125 -0.617188 -0.103958 9 15 34
-0.074219 -0.617188 -0.107607 11 20 44
-0.070312 -0.617188 -0.109884 12 23 48
-0.066406 -0.617188 -0.111883 12 22 47
-0.062500 -0.617188 -0.113591 12 21 47
-0.058594 -0.617188 -0.114418 12 21 47
-0.054688 -0.617188 -0.114034 12 22 49
-0.050781 -0.617188 -0.114205 12 22 50
-0.046875 -0.617188 -0.113615 12 22 50
-0.042969 -0.617188 -0.112464 13 24 53
-0.039062 -0.617188 -0.109768 14 25 55
-0.035156 -0.617188 -0.106698 15 25 53
-0.031250 -0.617188 -0.103861 18 28 54
-0.027344 -0.617188 -0.097829 22 31 55
-0.023438 -0.617188 -0.077007 26 32 52
0.171875 -0.617188 -0.021958 16 17 53
0.175781 -0.617188 -0.079910 16 17 41
0.179688 -0.617188 -0.087453 15 20 51
0.183594 -0.617188 -0.091452 14 20 60
0.187500 -0.617188 -0.094862 12 19 58
0.191406 -0.617188 -0.096811 13 21 62
0.195312 -0.617188 -0.098079 14 23 65
0.199219 -0.617188 -0.099275 12 22 61
0.203125 -0.617188 -0.100129 13 23 62
0.207031 -0.617188 -0.100377 13 23 62
0.210938 -0.617188 -0.099622 13 25 65
0.214844 -0.617188 -0.099152 14 27 67
0.218750 -0.617188 -0.098189 14 27 65
0.222656 -0.617188 -0.096533 16 28 65
0.226562 -0.617188 -0.093479 17 30 65
0.230469 -0.617188 -0.090680 18 30 62
0.234375 -0.617188 -0.087093 21 33 65
0.238281 -0.617188 -0.082372 22 31 62
0.242188 -0.617188 -0.075519 21 25 56
0.246094 -0.617188 -0.061301 25 27 51
-0.085938 -0.621094 -0.089275 14 18 41
-0.082031 -0.621094 -0.098337 15 20 41
-0.078125 -0.621094 -0.104029 9 14 32
-0.074219 -0.621094 -0.107513 11 20 43
-0.070312 -0.621094 -0.109789 12 22 47
-0.066406 -0.621094 -0.111697 11 21 46
-0.062500 -0.621094 -0.113433 11 21 45
-0.058594 -0.621094 -0.114268 11 20 46
-0.054688 -0.621094 -0.113877 11 21 48
-0.050781 -0.621094 -0.114057 12 22 50
-0.046875 -0.621094 -0.113454 12 22 50
-0.042969 -0.621094 -0.112324 13 24 53
-0.039062 -0.621094 -0.109442 15 26 55
-0.035156 -0.621094 -0.106769 16 26 52
-0.031250 -0.621094 -0.103348 20 29 52
-0.027344 -0.621094 -0.096616 23 31 52
0.175781 -0.621094 -0.073920 23 29 67
0.179688 -0.621094 -0.085171 18 24 55
0.183594 -0.621094 -0.090275 14 20 57
0.187500 -0.621094 -0.093932 11 17 53
0.191406 -0.621094 -0.096180 11 19 58
0.195312 -0.621094 -0.097522 13 22 63
0.199219 -0.621094 -0.098862 12 21 60
0.203125 -0.621094 -0.099835 12 21 60
0.207031 -0.621094 -0.100163 12 23 61
0.210938 -0.621094 -0.099519 13 24 64
0.214844 -0.621094 -0.099159 13 25 65
0.218750 -0.621094 -0.098291 14 26 63
0.222656 -0.621094 -0.096710 15 28 64
0.226562 -0.621094 -0.093715 18 31 67
0.230469 -0.621094 -0.091069 18 31 64
0.234375 -0.621094 -0.087625 22 35 68
0.238281 -0.621094 -0.083150 24 35 67
0.242188 -0.621094 -0.075827 23 29 60
0.246094 -0.621094 -0.062878 29 32 57
-0.085938 -0.625000 -0.089534 12 14 35
-0.082031 -0.625000 -0.098012 15 20 41
-0.078125 -0.625000 -0.103726 10 14 33
-0.074219 -0.625000 -0.107403 12 20 45
-0.070312 -0.625000 -0.109617 12 22 47
-0.066406 -0.625000 -0.111498 11 21 46
-0.062500 -0.625000 -0.113283 11 21 45
-0.058594 -0.625000 -0.114106 11 20 45
-0.054688 -0.625000 -0.113710 11 20 47
-0.050781 -0.625000 -0.113901 12 22 49
-0.046875 -0.625000 -0.113276 12 22 50
-0.042969 -0.625000 -0.112149 14 24 53
-0.039062 -0.625000 -0.109091 15 25 54
-0.035156 -0.625000 -0.106509 16 25 51
-0.031250 -0.625000 -0.102785 20 29 52
-0.027344 -0.625000 -0.096091 22 29 49
0.175781 -0.625000 -0.074464 22 25 59
0.179688 -0.625000 -0.083053 15 20 48
0.183594 -0.625000 -0.089156 12 17 50
0.187500 -0.625000 -0.093002 10 16 47
0.191406 -0.625000 -0.095653 11 19 55
0.195312 -0.625000 -0.096969 13 22 62
0.199219 -0.625000 -0.098458 12 21 60
0.203125 -0.625000 -0.099553 12 22 61
0.207031 -0.625000 -0.099966 13 24 63
0.210938 -0.625000 -0.099428 13 25 65
0.214844 -0.625000 -0.099175 13 25 63
0.218750 -0.625000 -0.098423 13 25 62
0.222656 -0.625000 -0.096937 15 28 64
0.226562 -0.625000 -0.094005 17 31 66
0.230469 -0.625000 -0.091531 18 30 62
0.234375 -0.625000 -0.088172 21 34 66
0.238281 -0.625000 -0.083844 23 34 66
0.242188 -0.625000 -0.076806 25 32 63
0.246094 -0.625000 -0.064569 25 29 52
-0.085938 -0.628906 -0.090757 14 17 40
-0.082031 -0.628906 -0.097345 15 21 42
-0.078125 -0.628906 -0.103428 9 14 33
-0.074219 -0.628906 -0.107287 11 20 44
-0.070312 -0.628906 -0.109379 12 21 46
-0.066406 -0.628906 -0.111259 11 20 45
-0.062500 -0.628906 -0.113086 11 20 45
-0.058594 -0.628906 -0.113923 10 20 44
-0.054688 -0.628906 -0.113537 10 20 45
-0.050781 -0.628906 -0.113732 11 21 47
-0.046875 -0.628906 -0.113117 12 22 49
-0.042969 -0.628906 -0.111966 13 23 52
-0.039062 -0.628906 -0.108786 14 24 52
-0.035156 -0.628906 -0.106276 16 25 51
-0.031250 -0.628906 -0.102379 22 31 56
-0.027344 -0.628906 -0.094696 24 30 53
0.175781 -0.628906 -0.077530 16 17 41
0.179688 -0.628906 -0.082760 20 28 66
0.183594 -0.628906 -0.088378 14 21 55
0.187500 -0.628906 -0.091868 11 17 48
0.191406 -0.628906 -0.095064 11 20 54
0.195312 -0.628906 -0.096459 13 22 60
0.199219 -0.628906 -0.098062 12 21 59
0.203125 -0.628906 -0.099257 12 22 60
0.207031 -0.628906 -0.099749 12 23 61
0.210938 -0.628906 -0.099308 12 23 61
0.214844 -0.628906 -0.099157 12 23 60
0.218750 -0.628906 -0.098515 13 24 61
0.222656 -0.628906 -0.097133 14 26 62
0.226562 -0.628906 -0.094284 16 29 63
0.230469 -0.628906 -0.091939 17 29 61
0.234375 -0.628906 -0.088618 20 33 64
0.238281 -0.628906 -0.084424 24 35 65
0.242188 -0.628906 -0.077852 27 35 66
0.246094 -0.628906 -0.064874 25 27 51
-0.085938 -0.632812 -0.090513 13 16 39
-0.082031 -0.632812 -0.096930 15 21 42
-0.078125 -0.632812 -0.103319 9 15 34
-0.074219 -0.632812 -0.107046 11 20 44
-0.070312 -0.632812 -0.109112 11 21 46
-0.066406 -0.632812 -0.111041 11 20 45
-0.062500 -0.632812 -0.112873 11 20 44
-0.058594 -0.632812 -0.113734 10 19 44
-0.054688 -0.632812 -0.113369 11 20 45
-0.050781 -0.632812 -0.113566 11 21 47
-0.046875 -0.632812 -0.112940 12 22 50
-0.042969 -0.632812 -0.111752 13 24 54
-0.039062 -0.632812 -0.108545 14 23 51
-0.035156 -0.632812 -0.105951 16 25 51
-0.031250 -0.632812 -0.102194 22 30 56
