ply
    format ascii 1.0
    element vertex 72440
    property float x
    property float y
    property float z
    property uchar red
    property uchar green
    property uchar blue
    end_header
-0.003906 0.855469 0.114102 90 67 52
0.000000 0.855469 0.114770 112 83 66
0.003906 0.855469 0.115405 129 95 78
0.007812 0.855469 0.115841 143 105 86
0.011719 0.855469 0.116169 161 120 98
0.015625 0.855469 0.116341 172 130 107
0.019531 0.855469 0.114241 174 132 109
0.023438 0.855469 0.108297 173 131 109
0.027344 0.855469 0.099796 160 118 98
0.031250 0.855469 0.091561 136 97 81
0.035156 0.855469 0.087473 117 84 70
0.039062 0.855469 0.086633 97 70 60
0.042969 0.855469 0.086319 71 52 46
0.046875 0.855469 0.085494 64 48 42
0.050781 0.855469 0.083294 82 63 56
0.054688 0.855469 0.078213 94 72 66
0.058594 0.855469 0.071576 83 63 59
0.062500 0.855469 0.062959 81 64 62
0.066406 0.855469 0.051352 128 107 104
0.070312 0.855469 0.032017 135 114 122
-0.097656 0.851562 -0.007943 78 69 62
-0.093750 0.851562 0.010739 86 76 70
-0.089844 0.851562 0.025241 95 82 73
-0.085938 0.851562 0.039932 103 87 75
-0.082031 0.851562 0.052706 101 83 71
-0.078125 0.851562 0.063219 108 88 74
-0.074219 0.851562 0.071442 106 88 74
-0.070312 0.851562 0.078056 106 85 75
-0.066406 0.851562 0.083960 113 86 75
-0.062500 0.851562 0.089243 115 84 70
-0.058594 0.851562 0.093921 119 87 71
-0.054688 0.851562 0.098009 121 89 74
-0.050781 0.851562 0.102086 137 101 86
-0.046875 0.851562 0.105774 157 118 102
-0.042969 0.851562 0.107988 153 116 99
-0.039062 0.851562 0.108751 141 106 89
-0.035156 0.851562 0.108958 121 90 76
-0.031250 0.851562 0.109176 103 77 65
-0.027344 0.851562 0.109477 93 70 59
-0.023438 0.851562 0.109893 76 56 46
-0.019531 0.851562 0.110203 65 48 37
-0.015625 0.851562 0.110665 65 47 35
-0.011719 0.851562 0.111345 73 52 38
-0.007812 0.851562 0.112276 92 66 48
-0.003906 0.851562 0.113303 104 76 57
0.000000 0.851562 0.114068 113 83 64
0.003906 0.851562 0.114882 124 91 72
0.007812 0.851562 0.115818 136 100 80
0.011719 0.851562 0.116801 153 112 90
0.015625 0.851562 0.117721 163 123 99
0.019531 0.851562 0.115901 169 128 105
0.023438 0.851562 0.109432 171 130 107
0.027344 0.851562 0.099215 162 120 99
0.031250 0.851562 0.089361 138 98 81
0.035156 0.851562 0.085521 124 87 72
0.039062 0.851562 0.085309 117 84 70
0.042969 0.851562 0.085564 103 76 65
0.046875 0.851562 0.085036 100 77 66
0.050781 0.851562 0.083049 116 90 79
0.054688 0.851562 0.078353 130 99 87
0.058594 0.851562 0.071902 122 90 82
0.062500 0.851562 0.063164 102 76 71
0.066406 0.851562 0.052430 130 105 98
0.070312 0.851562 0.036540 130 107 113
-0.097656 0.847656 -0.006382 82 72 64
-0.093750 0.847656 0.012374 88 77 70
-0.089844 0.847656 0.026165 96 83 73
-0.085938 0.847656 0.039953 101 85 73
-0.082031 0.847656 0.051903 99 81 69
-0.078125 0.847656 0.062179 108 89 74
-0.074219 0.847656 0.070525 109 90 76
-0.070312 0.847656 0.077384 105 84 75
-0.066406 0.847656 0.083467 109 84 74
-0.062500 0.847656 0.088862 116 87 72
-0.058594 0.847656 0.093545 124 92 73
-0.054688 0.847656 0.097431 127 94 77
-0.050781 0.847656 0.101169 141 105 88
-0.046875 0.847656 0.104425 148 109 93
-0.042969 0.847656 0.106204 131 96 82
-0.039062 0.847656 0.106768 115 84 71
-0.035156 0.847656 0.107061 101 74 63
-0.031250 0.847656 0.107499 93 70 59
-0.027344 0.847656 0.108085 93 70 59
-0.023438 0.847656 0.108853 92 69 58
-0.019531 0.847656 0.109481 98 74 60
-0.015625 0.847656 0.110090 100 74 57
-0.011719 0.847656 0.110793 98 71 52
-0.007812 0.847656 0.111642 107 77 55
-0.003906 0.847656 0.112570 112 81 59
0.000000 0.847656 0.113343 116 84 63
0.003906 0.847656 0.114365 124 91 70
0.007812 0.847656 0.115789 136 100 78
0.011719 0.847656 0.117470 149 109 87
0.015625 0.847656 0.119223 162 121 98
0.019531 0.847656 0.117879 172 132 110
0.023438 0.847656 0.111154 175 134 112
0.027344 0.847656 0.098967 165 123 100
0.031250 0.847656 0.087258 137 96 79
0.035156 0.847656 0.083515 111 77 63
0.039062 0.847656 0.083735 101 71 58
0.042969 0.847656 0.084377 101 74 61
0.046875 0.847656 0.083946 108 81 70
0.050781 0.847656 0.082113 110 83 73
0.054688 0.847656 0.077651 118 88 77
0.058594 0.847656 0.071550 129 93 84
0.062500 0.847656 0.063419 119 88 80
0.066406 0.847656 0.053220 143 117 104
0.070312 0.847656 0.039481 118 95 98
0.074219 0.847656 0.017527 8 5 13
-0.097656 0.843750 -0.005371 83 72 64
-0.093750 0.843750 0.013759 84 72 67
-0.089844 0.843750 0.027260 94 80 71
-0.085938 0.843750 0.040129 101 85 73
-0.082031 0.843750 0.051148 98 80 68
-0.078125 0.843750 0.061001 108 88 73
-0.074219 0.843750 0.069345 113 94 79
-0.070312 0.843750 0.076516 107 87 76
-0.066406 0.843750 0.082913 107 84 73
-0.062500 0.843750 0.088476 116 88 70
-0.058594 0.843750 0.093122 125 91 72
-0.054688 0.843750 0.096662 129 94 77
-0.050781 0.843750 0.099849 135 99 82
-0.046875 0.843750 0.102559 125 90 75
-0.042969 0.843750 0.104090 107 76 64
-0.039062 0.843750 0.104780 100 73 61
-0.035156 0.843750 0.105404 103 77 64
-0.031250 0.843750 0.106247 113 86 71
-0.027344 0.843750 0.107188 120 92 77
-0.023438 0.843750 0.108199 125 96 82
-0.019531 0.843750 0.108992 132 101 86
-0.015625 0.843750 0.109583 120 89 72
-0.011719 0.843750 0.110104 97 70 54
-0.007812 0.843750 0.110724 92 65 48
-0.003906 0.843750 0.111514 97 68 50
0.000000 0.843750 0.112355 107 75 57
0.003906 0.843750 0.113676 120 86 65
0.007812 0.843750 0.115652 131 95 73
0.011719 0.843750 0.118089 142 101 81
0.015625 0.843750 0.120681 163 121 99
0.019531 0.843750 0.119856 183 142 121
0.023438 0.843750 0.113190 181 139 119
0.027344 0.843750 0.099739 159 116 96
0.031250 0.843750 0.085952 119 79 67
0.035156 0.843750 0.081885 85 58 51
0.039062 0.843750 0.082146 76 54 48
0.042969 0.843750 0.082746 79 56 51
0.046875 0.843750 0.081980 81 61 55
0.050781 0.843750 0.080130 75 59 55
0.054688 0.843750 0.075952 87 66 63
0.058594 0.843750 0.070370 112 79 75
0.062500 0.843750 0.063204 114 83 75
0.066406 0.843750 0.054096 133 109 95
0.070312 0.843750 0.040922 82 67 69
0.074219 0.843750 0.023743 13 11 18
-0.097656 0.839844 -0.004614 84 73 65
-0.093750 0.839844 0.015125 82 70 65
-0.089844 0.839844 0.028475 93 79 70
-0.085938 0.839844 0.040411 101 85 74
-0.082031 0.839844 0.050480 96 79 67
-0.078125 0.839844 0.059705 104 85 72
-0.074219 0.839844 0.067908 110 91 78
-0.070312 0.839844 0.075374 106 85 75
-0.066406 0.839844 0.082177 107 82 71
-0.062500 0.839844 0.087926 116 86 69
-0.058594 0.839844 0.092504 127 91 74
-0.054688 0.839844 0.095644 134 97 81
-0.050781 0.839844 0.098233 128 92 77
-0.046875 0.839844 0.100588 109 77 63
-0.042969 0.839844 0.102250 99 70 58
-0.039062 0.839844 0.103277 103 76 62
-0.035156 0.839844 0.104197 113 84 69
-0.031250 0.839844 0.105098 120 90 73
-0.027344 0.839844 0.105878 121 91 75
-0.023438 0.839844 0.106745 116 87 75
-0.019531 0.839844 0.107493 111 81 71
-0.015625 0.839844 0.108171 95 69 58
-0.011719 0.839844 0.108808 77 55 45
-0.007812 0.839844 0.109528 76 54 42
-0.003906 0.839844 0.110492 81 57 44
0.000000 0.839844 0.111500 89 62 48
0.003906 0.839844 0.113069 106 75 56
0.007812 0.839844 0.115587 123 88 67
0.011719 0.839844 0.118724 134 95 76
0.015625 0.839844 0.121855 159 115 95
0.019531 0.839844 0.121527 190 146 126
0.023438 0.839844 0.115482 189 145 127
0.027344 0.839844 0.101976 155 111 95
0.031250 0.839844 0.085992 105 70 62
0.035156 0.839844 0.081478 80 55 50
0.039062 0.839844 0.081450 73 53 50
0.042969 0.839844 0.081532 58 43 44
0.046875 0.839844 0.080090 49 38 39
0.050781 0.839844 0.077993 52 43 43
0.054688 0.839844 0.073932 70 55 55
0.058594 0.839844 0.068546 88 62 60
0.062500 0.839844 0.062340 105 75 68
0.066406 0.839844 0.054236 143 117 104
0.070312 0.839844 0.041846 94 81 75
0.074219 0.839844 0.026894 44 43 42
0.078125 0.839844 0.004779 162 160 141
-0.097656 0.835938 -0.004470 90 79 70
-0.093750 0.835938 0.016395 85 72 67
-0.089844 0.835938 0.029903 93 79 71
-0.085938 0.835938 0.041086 102 86 74
-0.082031 0.835938 0.050133 97 80 69
-0.078125 0.835938 0.058632 104 85 73
-0.074219 0.835938 0.066522 108 87 76
-0.070312 0.835938 0.074164 103 81 71
-0.066406 0.835938 0.081313 109 83 71
-0.062500 0.835938 0.087213 120 90 71
-0.058594 0.835938 0.091662 129 94 74
-0.054688 0.835938 0.094410 130 95 78
-0.050781 0.835938 0.096588 115 83 68
-0.046875 0.835938 0.098769 101 73 59
-0.042969 0.835938 0.100608 109 78 63
-0.039062 0.835938 0.101824 123 90 72
-0.035156 0.835938 0.102689 125 91 74
-0.031250 0.835938 0.103316 109 79 65
-0.027344 0.835938 0.103785 90 66 57
-0.023438 0.835938 0.104481 72 53 49
-0.019531 0.835938 0.105204 59 43 40
-0.015625 0.835938 0.106158 55 40 37
-0.011719 0.835938 0.107344 58 43 38
-0.007812 0.835938 0.108532 75 54 45
-0.003906 0.835938 0.109743 86 63 51
0.000000 0.835938 0.110867 87 64 50
0.003906 0.835938 0.112646 97 70 54
0.007812 0.835938 0.115564 119 84 65
0.011719 0.835938 0.119201 131 91 73
0.015625 0.835938 0.122701 148 104 87
0.019531 0.835938 0.122889 185 137 120
0.023438 0.835938 0.117826 194 148 131
0.027344 0.835938 0.105707 160 116 101
0.031250 0.835938 0.088222 100 69 64
0.035156 0.835938 0.082466 80 59 55
0.039062 0.835938 0.081862 89 70 66
0.042969 0.835938 0.081366 60 49 50
0.046875 0.835938 0.079242 39 33 35
0.050781 0.835938 0.076793 57 47 49
0.054688 0.835938 0.072771 82 67 66
0.058594 0.835938 0.067536 68 50 48
0.062500 0.835938 0.061970 77 53 49
0.066406 0.835938 0.054657 143 111 99
0.070312 0.835938 0.042923 103 84 75
0.074219 0.835938 0.028810 61 56 51
0.078125 0.835938 0.007010 180 171 151
-0.097656 0.832031 -0.010834 92 74 69
-0.093750 0.832031 0.017290 96 79 74
-0.089844 0.832031 0.031267 99 84 73
-0.085938 0.832031 0.041906 105 89 76
-0.082031 0.832031 0.050126 101 83 72
-0.078125 0.832031 0.057813 105 85 74
-0.074219 0.832031 0.065204 106 85 73
-0.070312 0.832031 0.072893 101 80 67
-0.066406 0.832031 0.080322 108 84 68
-0.062500 0.832031 0.086294 121 93 72
-0.058594 0.832031 0.090595 130 98 76
-0.054688 0.832031 0.093040 127 94 76
-0.050781 0.832031 0.094971 110 80 65
-0.046875 0.832031 0.097074 107 79 63
-0.042969 0.832031 0.098966 122 90 71
-0.039062 0.832031 0.099981 129 94 75
-0.035156 0.832031 0.100354 116 83 66
-0.031250 0.832031 0.100715 89 64 54
-0.027344 0.832031 0.101302 79 61 55
-0.023438 0.832031 0.102215 70 56 53
-0.019531 0.832031 0.103080 50 41 40
-0.015625 0.832031 0.104389 53 43 41
-0.011719 0.832031 0.106284 74 58 54
-0.007812 0.832031 0.107987 90 68 62
-0.003906 0.832031 0.109216 89 66 58
0.000000 0.832031 0.110304 86 63 53
0.003906 0.832031 0.112236 93 67 54
0.007812 0.832031 0.115457 113 79 63
0.011719 0.832031 0.119436 130 89 72
0.015625 0.832031 0.123013 145 98 82
0.019531 0.832031 0.123463 179 127 112
0.023438 0.832031 0.119528 198 149 134
0.027344 0.832031 0.109856 179 132 119
0.031250 0.832031 0.092622 119 82 78
0.035156 0.832031 0.084447 89 65 62
0.039062 0.832031 0.082896 111 87 83
0.042969 0.832031 0.081857 90 72 72
0.046875 0.832031 0.079218 52 44 45
0.050781 0.832031 0.076446 73 60 61
0.054688 0.832031 0.072639 113 90 90
0.058594 0.832031 0.067732 81 60 61
0.062500 0.832031 0.062408 73 50 48
0.066406 0.832031 0.055633 133 99 87
0.070312 0.832031 0.044408 108 85 77
0.074219 0.832031 0.029548 60 53 55
0.078125 0.832031 0.006607 104 82 82
-0.093750 0.828125 0.017426 95 76 72
-0.089844 0.828125 0.032681 102 86 74
-0.085938 0.828125 0.042807 108 91 77
-0.082031 0.828125 0.050173 105 87 75
-0.078125 0.828125 0.056899 102 83 74
-0.074219 0.828125 0.063766 104 84 72
-0.070312 0.828125 0.071504 103 82 66
-0.066406 0.828125 0.079112 109 83 67
-0.062500 0.828125 0.085085 122 90 71
-0.058594 0.828125 0.089318 135 100 80
-0.054688 0.828125 0.091593 130 96 79
-0.050781 0.828125 0.093437 115 85 69
-0.046875 0.828125 0.095492 118 88 70
-0.042969 0.828125 0.097233 127 94 75
-0.039062 0.828125 0.097948 118 84 67
-0.035156 0.828125 0.098010 92 65 52
-0.031250 0.828125 0.098440 75 55 48
-0.027344 0.828125 0.099565 102 84 74
-0.023438 0.828125 0.101022 115 98 89
-0.019531 0.828125 0.102096 62 54 51
-0.015625 0.828125 0.103544 53 46 43
-0.011719 0.828125 0.105798 95 77 72
-0.007812 0.828125 0.107779 110 87 80
-0.003906 0.828125 0.108965 85 66 58
0.000000 0.828125 0.110032 79 58 50
0.003906 0.828125 0.112114 93 67 56
0.007812 0.828125 0.115492 114 79 64
0.011719 0.828125 0.119533 135 90 74
0.015625 0.828125 0.122988 149 99 83
0.019531 0.828125 0.123631 174 118 104
0.023438 0.828125 0.120669 197 144 130
0.027344 0.828125 0.113012 197 148 136
0.031250 0.828125 0.097782 154 108 102
0.035156 0.828125 0.087086 100 69 68
0.039062 0.828125 0.083809 100 73 72
0.042969 0.828125 0.082049 102 77 76
0.046875 0.828125 0.079256 80 61 61
0.050781 0.828125 0.076305 91 68 68
0.054688 0.828125 0.072828 130 99 95
0.058594 0.828125 0.068631 131 99 98
0.062500 0.828125 0.063698 120 89 87
0.066406 0.828125 0.057072 132 98 92
0.070312 0.828125 0.046016 130 98 94
0.074219 0.828125 0.030387 93 73 82
0.078125 0.828125 0.005305 29 17 25
-0.093750 0.824219 0.015988 128 102 91
-0.089844 0.824219 0.033843 120 102 86
-0.085938 0.824219 0.043647 118 99 82
-0.082031 0.824219 0.050250 109 89 78
-0.078125 0.824219 0.055920 100 79 72
-0.074219 0.824219 0.062230 104 80 71
-0.070312 0.824219 0.070081 105 80 67
-0.066406 0.824219 0.077820 112 85 70
-0.062500 0.824219 0.083795 124 91 74
-0.058594 0.824219 0.088049 132 97 78
-0.054688 0.824219 0.090305 128 95 77
-0.050781 0.824219 0.092184 117 86 70
-0.046875 0.824219 0.094208 121 89 71
-0.042969 0.824219 0.095797 124 90 73
-0.039062 0.824219 0.096471 111 78 64
-0.035156 0.824219 0.096675 86 61 51
-0.031250 0.824219 0.097452 75 57 49
-0.027344 0.824219 0.099161 114 92 80
-0.023438 0.824219 0.101152 136 112 101
-0.019531 0.824219 0.102430 77 63 58
-0.015625 0.824219 0.103828 59 49 45
-0.011719 0.824219 0.106055 100 81 74
-0.007812 0.824219 0.108003 119 96 87
-0.003906 0.824219 0.109123 100 78 68
0.000000 0.824219 0.110309 93 69 58
0.003906 0.824219 0.112644 108 77 64
0.007812 0.824219 0.116070 125 86 70
0.011719 0.824219 0.119887 139 92 75
0.015625 0.824219 0.123092 147 94 79
0.019531 0.824219 0.123780 162 104 92
0.023438 0.824219 0.121359 186 129 118
0.027344 0.824219 0.115184 201 151 140
0.031250 0.824219 0.103378 181 131 126
0.035156 0.824219 0.090902 119 81 81
0.039062 0.824219 0.085068 89 63 62
0.042969 0.824219 0.082591 97 69 69
0.046875 0.824219 0.079729 102 72 72
0.050781 0.824219 0.076507 105 73 71
0.054688 0.824219 0.073207 124 89 85
0.058594 0.824219 0.069855 157 118 115
0.062500 0.824219 0.065520 172 134 132
0.066406 0.824219 0.059115 151 114 112
0.070312 0.824219 0.048290 174 140 132
0.074219 0.824219 0.032427 179 149 148
0.078125 0.824219 0.004914 18 10 15
-0.093750 0.820312 0.010775 99 75 71
-0.089844 0.820312 0.033715 103 90 74
-0.085938 0.820312 0.044227 106 91 73
-0.082031 0.820312 0.050228 107 89 75
-0.078125 0.820312 0.054902 101 79 71
-0.074219 0.820312 0.060606 108 81 71
-0.070312 0.820312 0.068624 108 80 67
-0.066406 0.820312 0.076549 117 88 73
-0.062500 0.820312 0.082572 124 94 76
-0.058594 0.820312 0.086870 125 94 75
-0.054688 0.820312 0.089277 124 93 74
-0.050781 0.820312 0.091320 123 92 73
-0.046875 0.820312 0.093452 125 93 73
-0.042969 0.820312 0.095096 119 87 69
-0.039062 0.820312 0.096000 110 79 64
-0.035156 0.820312 0.096653 101 73 61
-0.031250 0.820312 0.097701 93 69 59
-0.027344 0.820312 0.099403 109 83 72
-0.023438 0.820312 0.101519 127 98 86
-0.019531 0.820312 0.103178 113 85 76
-0.015625 0.820312 0.104755 110 83 73
-0.011719 0.820312 0.106772 122 94 84
-0.007812 0.820312 0.108521 122 93 85
-0.003906 0.820312 0.109764 115 84 76
0.000000 0.820312 0.111227 113 80 69
0.003906 0.820312 0.113694 126 87 73
0.007812 0.820312 0.117050 141 96 79
0.011719 0.820312 0.120529 149 98 81
0.015625 0.820312 0.123320 154 99 84
0.019531 0.820312 0.124042 166 107 96
0.023438 0.820312 0.122201 187 129 119
0.027344 0.820312 0.117343 206 155 146
0.031250 0.820312 0.108659 202 154 148
0.035156 0.820312 0.096637 161 116 113
0.039062 0.820312 0.087876 121 83 81
0.042969 0.820312 0.083988 111 75 72
0.046875 0.820312 0.080634 111 75 71
0.050781 0.820312 0.077102 112 74 70
0.054688 0.820312 0.073894 117 79 77
0.058594 0.820312 0.071016 148 105 103
0.062500 0.820312 0.067166 181 139 134
0.066406 0.820312 0.061230 167 130 122
0.070312 0.820312 0.050813 194 166 156
0.074219 0.820312 0.035149 186 159 163
0.078125 0.820312 0.006493 10 6 13
-0.093750 0.816406 0.002827 81 67 65
-0.089844 0.816406 0.032556 94 86 74
-0.085938 0.816406 0.045656 94 82 67
-0.082031 0.816406 0.050963 103 87 73
-0.078125 0.816406 0.054443 103 84 71
-0.074219 0.816406 0.059123 114 87 72
-0.070312 0.816406 0.067188 113 82 66
-0.066406 0.816406 0.075366 119 89 72
-0.062500 0.816406 0.081477 126 96 78
-0.058594 0.816406 0.085890 122 92 74
-0.054688 0.816406 0.088533 123 92 74
-0.050781 0.816406 0.090895 129 96 77
-0.046875 0.816406 0.093302 129 95 76
-0.042969 0.816406 0.095166 120 87 70
-0.039062 0.816406 0.096422 119 86 70
-0.035156 0.816406 0.097595 124 90 75
-0.031250 0.816406 0.098823 121 87 74
-0.027344 0.816406 0.100210 114 82 70
-0.023438 0.816406 0.102126 112 81 70
-0.019531 0.816406 0.104125 114 83 73
-0.015625 0.816406 0.106053 120 87 79
-0.011719 0.816406 0.107911 117 86 79
-0.007812 0.816406 0.109522 110 79 74
-0.003906 0.816406 0.111056 111 77 71
0.000000 0.816406 0.112821 121 82 72
0.003906 0.816406 0.115249 141 96 81
0.007812 0.816406 0.118342 154 104 87
0.011719 0.816406 0.121371 157 104 88
0.015625 0.816406 0.123804 162 106 92
0.019531 0.816406 0.124673 171 113 102
0.023438 0.816406 0.123394 187 130 121
0.027344 0.816406 0.119745 205 154 147
0.031250 0.816406 0.113343 210 163 158
0.035156 0.816406 0.103714 194 148 143
0.039062 0.816406 0.092950 168 120 115
0.042969 0.816406 0.086785 146 99 94
0.046875 0.816406 0.082501 140 94 87
0.050781 0.816406 0.078438 145 96 90
0.054688 0.816406 0.075185 147 100 95
0.058594 0.816406 0.072514 161 115 110
0.062500 0.816406 0.068861 182 139 133
0.066406 0.816406 0.063161 187 147 141
0.070312 0.816406 0.053025 211 183 178
0.074219 0.816406 0.037374 156 130 143
0.078125 0.816406 0.009991 16 16 27
-0.093750 0.812500 0.000646 114 94 83
-0.089844 0.812500 0.031904 130 117 98
-0.085938 0.812500 0.046544 107 92 76
-0.082031 0.812500 0.050449 104 85 72
-0.078125 0.812500 0.052484 101 80 69
-0.074219 0.812500 0.057280 112 85 71
-0.070312 0.812500 0.065946 111 83 68
-0.066406 0.812500 0.074502 119 90 72
-0.062500 0.812500 0.080694 128 98 78
-0.058594 0.812500 0.085261 124 93 74
-0.054688 0.812500 0.088109 124 92 74
-0.050781 0.812500 0.090771 133 100 79
-0.046875 0.812500 0.093457 137 102 81
-0.042969 0.812500 0.095599 134 99 80
-0.039062 0.812500 0.097137 138 102 84
-0.035156 0.812500 0.098573 141 105 88
-0.031250 0.812500 0.099995 138 102 85
-0.027344 0.812500 0.101409 129 94 80
-0.023438 0.812500 0.103222 125 90 78
-0.019531 0.812500 0.105279 131 95 84
-0.015625 0.812500 0.107405 139 103 92
-0.011719 0.812500 0.109313 139 105 95
-0.007812 0.812500 0.110920 136 100 91
-0.003906 0.812500 0.112592 140 99 88
0.000000 0.812500 0.114468 150 103 90
0.003906 0.812500 0.116751 160 110 93
0.007812 0.812500 0.119458 160 108 92
0.011719 0.812500 0.122051 157 104 89
0.015625 0.812500 0.124189 163 109 95
0.019531 0.812500 0.125114 176 121 109
0.023438 0.812500 0.124275 190 136 125
0.027344 0.812500 0.121633 204 153 144
0.031250 0.812500 0.116893 209 162 156
0.035156 0.812500 0.109378 206 162 155
0.039062 0.812500 0.098449 195 151 143
0.042969 0.812500 0.090463 175 130 122
0.046875 0.812500 0.084914 169 122 113
0.050781 0.812500 0.080210 177 128 119
0.054688 0.812500 0.076938 179 129 121
0.058594 0.812500 0.074409 181 133 126
0.062500 0.812500 0.070950 188 143 137
0.066406 0.812500 0.065475 202 163 158
0.070312 0.812500 0.055298 216 191 186
0.074219 0.812500 0.039730 130 114 120
0.078125 0.812500 0.013017 54 62 70
-0.093750 0.808594 0.005174 47 37 45
-0.089844 0.808594 0.032894 103 84 72
-0.085938 0.808594 0.046466 106 86 71
-0.082031 0.808594 0.046820 107 87 71
-0.078125 0.808594 0.047369 108 88 70
-0.074219 0.808594 0.054359 113 91 72
-0.070312 0.808594 0.064701 115 92 72
-0.066406 0.808594 0.073919 126 99 78
-0.062500 0.808594 0.080144 133 102 81
-0.058594 0.808594 0.084935 130 97 77
-0.054688 0.808594 0.088015 131 97 77
-0.050781 0.808594 0.090950 139 104 83
-0.046875 0.808594 0.093858 145 107 86
-0.042969 0.808594 0.096179 148 109 89
-0.039062 0.808594 0.097854 151 112 94
-0.035156 0.808594 0.099417 150 111 95
-0.031250 0.808594 0.101039 149 110 95
-0.027344 0.808594 0.102639 147 108 94
-0.023438 0.808594 0.104496 152 113 98
-0.019531 0.808594 0.106530 161 121 106
-0.015625 0.808594 0.108624 163 123 110
-0.011719 0.808594 0.110532 160 121 108
-0.007812 0.808594 0.112215 159 118 105
-0.003906 0.808594 0.113955 164 118 105
0.000000 0.808594 0.115702 167 116 101
0.003906 0.808594 0.117607 164 111 95
0.007812 0.808594 0.119795 160 106 91
0.011719 0.808594 0.121939 158 105 90
0.015625 0.808594 0.123665 168 114 100
0.019531 0.808594 0.124409 184 130 116
0.023438 0.808594 0.123884 195 143 128
0.027344 0.808594 0.121964 203 153 140
0.031250 0.808594 0.118340 206 159 150
0.035156 0.808594 0.112346 209 166 158
0.039062 0.808594 0.102939 208 167 161
0.042969 0.808594 0.094076 194 151 145
0.046875 0.808594 0.087330 185 138 129
0.050781 0.808594 0.082078 190 141 131
0.054688 0.808594 0.078797 192 142 132
0.058594 0.808594 0.076294 189 140 132
0.062500 0.808594 0.072966 190 143 137
0.066406 0.808594 0.067923 204 165 159
0.070312 0.808594 0.057996 214 186 182
0.074219 0.808594 0.042752 157 137 142
0.078125 0.808594 0.014328 115 109 123
-0.093750 0.804688 0.010721 67 62 75
-0.089844 0.804688 0.033253 82 67 61
-0.085938 0.804688 0.044645 101 80 67
-0.082031 0.804688 0.040482 108 88 68
-0.078125 0.804688 0.039773 109 88 65
-0.074219 0.804688 0.050652 110 86 65
-0.070312 0.804688 0.063358 115 89 70
-0.066406 0.804688 0.073588 128 98 78
-0.062500 0.804688 0.079825 134 100 80
-0.058594 0.804688 0.084813 134 99 79
-0.054688 0.804688 0.088103 138 102 81
-0.050781 0.804688 0.091318 145 107 85
-0.046875 0.804688 0.094413 151 110 89
-0.042969 0.804688 0.096831 158 115 95
-0.039062 0.804688 0.098571 162 118 100
-0.035156 0.804688 0.100204 163 120 103
-0.031250 0.804688 0.101985 165 123 106
-0.027344 0.804688 0.103732 164 121 105
-0.023438 0.804688 0.105577 165 123 107
-0.019531 0.804688 0.107471 164 122 107
-0.015625 0.804688 0.109417 156 115 102
-0.011719 0.804688 0.111290 157 114 103
-0.007812 0.804688 0.113029 164 119 106
-0.003906 0.804688 0.114709 171 122 108
0.000000 0.804688 0.116151 168 115 100
0.003906 0.804688 0.117508 157 103 88
0.007812 0.804688 0.119067 154 101 86
0.011719 0.804688 0.120643 159 106 91
0.015625 0.804688 0.121770 168 113 99
0.019531 0.804688 0.122038 175 120 106
0.023438 0.804688 0.121584 177 122 107
0.027344 0.804688 0.120205 181 125 113
0.031250 0.804688 0.117406 186 132 123
0.035156 0.804688 0.112503 196 146 138
0.039062 0.804688 0.104675 207 163 156
0.042969 0.804688 0.096265 205 163 156
0.046875 0.804688 0.089130 192 146 138
0.050781 0.804688 0.083477 189 139 130
0.054688 0.804688 0.079996 195 144 134
0.058594 0.804688 0.077491 195 144 135
0.062500 0.804688 0.074331 194 145 138
0.066406 0.804688 0.069558 204 162 158
0.070312 0.804688 0.060512 211 179 177
0.074219 0.804688 0.046291 201 177 177
0.078125 0.804688 0.015847 175 157 161
-0.093750 0.800781 0.016007 93 81 83
-0.089844 0.800781 0.032911 83 68 57
-0.085938 0.800781 0.040179 99 79 62
-0.082031 0.800781 0.032884 108 84 62
-0.078125 0.800781 0.033180 105 79 58
-0.074219 0.800781 0.046452 107 79 60
-0.070312 0.800781 0.061616 114 85 68
-0.066406 0.800781 0.073196 124 92 75
-0.062500 0.800781 0.079434 130 95 76
-0.058594 0.800781 0.084666 134 97 78
-0.054688 0.800781 0.088176 142 104 83
-0.050781 0.800781 0.091670 149 108 87
-0.046875 0.800781 0.094885 155 111 90
-0.042969 0.800781 0.097381 162 116 96
-0.039062 0.800781 0.099203 166 121 102
-0.035156 0.800781 0.100917 168 122 105
-0.031250 0.800781 0.102824 171 126 109
-0.027344 0.800781 0.104665 171 126 109
-0.023438 0.800781 0.106427 170 124 109
-0.019531 0.800781 0.108152 166 121 106
-0.015625 0.800781 0.109982 162 118 104
-0.011719 0.800781 0.111818 172 127 112
-0.007812 0.800781 0.113504 178 131 116
-0.003906 0.800781 0.114990 179 129 114
0.000000 0.800781 0.116075 168 114 100
0.003906 0.800781 0.116883 146 93 81
0.007812 0.800781 0.117724 149 98 83
0.011719 0.800781 0.118405 165 113 97
0.015625 0.800781 0.118360 172 118 104
0.019531 0.800781 0.117672 173 119 104
0.023438 0.800781 0.117175 168 114 98
0.027344 0.800781 0.116455 160 106 95
0.031250 0.800781 0.114369 162 111 101
0.035156 0.800781 0.110058 174 125 114
0.039062 0.800781 0.103137 191 144 135
0.042969 0.800781 0.095954 205 163 154
0.046875 0.800781 0.089750 199 155 145
0.050781 0.800781 0.084388 185 137 127
0.054688 0.800781 0.080739 191 140 129
0.058594 0.800781 0.078165 193 141 132
0.062500 0.800781 0.075127 191 141 134
0.066406 0.800781 0.070344 200 155 152
0.070312 0.800781 0.062401 199 163 162
0.074219 0.800781 0.050050 192 166 165
0.078125 0.800781 0.018759 177 155 154
-0.093750 0.796875 0.021327 92 63 56
-0.089844 0.796875 0.034970 124 90 68
-0.085938 0.796875 0.038544 124 93 72
-0.082031 0.796875 0.031628 117 88 69
-0.078125 0.796875 0.031758 107 79 63
-0.074219 0.796875 0.044029 110 83 64
-0.070312 0.796875 0.060055 121 93 72
-0.066406 0.796875 0.072392 129 97 77
-0.062500 0.796875 0.078803 134 97 78
-0.058594 0.796875 0.084255 141 102 81
-0.054688 0.796875 0.087999 151 110 88
-0.050781 0.796875 0.091789 154 112 90
-0.046875 0.796875 0.095102 154 109 89
-0.042969 0.796875 0.097675 161 114 94
-0.039062 0.796875 0.099638 169 120 102
-0.035156 0.796875 0.101508 170 122 104
-0.031250 0.796875 0.103549 173 126 108
-0.027344 0.796875 0.105416 176 128 111
-0.023438 0.796875 0.107129 176 129 112
-0.019531 0.796875 0.108822 173 126 110
-0.015625 0.796875 0.110596 174 127 111
-0.011719 0.796875 0.112298 182 135 119
-0.007812 0.796875 0.113836 180 132 116
-0.003906 0.796875 0.115110 177 127 111
0.000000 0.796875 0.115823 167 113 98
0.003906 0.796875 0.116052 148 94 81
0.007812 0.796875 0.116031 165 112 94
0.011719 0.796875 0.115157 181 131 108
0.015625 0.796875 0.113055 164 113 94
0.019531 0.796875 0.111090 149 98 80
0.023438 0.796875 0.111012 154 103 84
0.027344 0.796875 0.111856 165 114 99
0.031250 0.796875 0.111119 174 123 110
0.035156 0.796875 0.107239 163 113 101
0.039062 0.796875 0.100579 145 94 89
0.042969 0.796875 0.094523 174 121 113
0.046875 0.796875 0.089907 199 152 139
0.050781 0.796875 0.085402 191 143 130
0.054688 0.796875 0.081592 190 139 127
0.058594 0.796875 0.078536 189 137 126
0.062500 0.796875 0.075237 184 133 125
0.066406 0.796875 0.070534 197 151 146
0.070312 0.796875 0.063265 199 161 158
0.074219 0.796875 0.052314 188 159 157
0.078125 0.796875 0.022280 172 145 148
-0.097656 0.792969 0.012096 114 86 68
-0.093750 0.792969 0.030998 171 127 95
-0.089844 0.792969 0.038904 175 130 97
-0.085938 0.792969 0.040503 156 117 92
-0.082031 0.792969 0.035082 133 100 81
-0.078125 0.792969 0.033230 110 82 67
-0.074219 0.792969 0.043621 108 81 65
-0.070312 0.792969 0.058589 120 90 71
-0.066406 0.792969 0.070938 131 97 77
-0.062500 0.792969 0.077614 136 98 78
-0.058594 0.792969 0.083123 143 102 81
-0.054688 0.792969 0.087226 154 111 89
-0.050781 0.792969 0.091375 157 113 91
-0.046875 0.792969 0.094872 156 110 90
-0.042969 0.792969 0.097614 162 114 94
-0.039062 0.792969 0.099747 171 122 102
-0.035156 0.792969 0.101774 173 124 105
-0.031250 0.792969 0.103963 175 126 108
-0.027344 0.792969 0.105909 178 130 112
-0.023438 0.792969 0.107625 180 132 114
-0.019531 0.792969 0.109295 178 129 112
-0.015625 0.792969 0.110984 178 129 112
-0.011719 0.792969 0.112494 181 132 115
-0.007812 0.792969 0.113833 177 127 111
-0.003906 0.792969 0.114921 175 124 107
0.000000 0.792969 0.115307 166 112 96
0.003906 0.792969 0.114980 157 99 84
0.007812 0.792969 0.114050 177 120 99
0.011719 0.792969 0.111464 164 113 89
0.015625 0.792969 0.107377 94 56 44
0.019531 0.792969 0.104742 65 37 29
0.023438 0.792969 0.105570 95 58 44
0.027344 0.792969 0.108284 150 100 82
0.031250 0.792969 0.109026 173 118 104
0.035156 0.792969 0.105378 131 81 75
0.039062 0.792969 0.098623 77 45 42
0.042969 0.792969 0.093331 116 69 63
0.046875 0.792969 0.089936 186 133 119
0.050781 0.792969 0.086124 194 143 128
0.054688 0.792969 0.082187 192 139 124
0.058594 0.792969 0.078572 190 137 124
0.062500 0.792969 0.074908 184 133 123
0.066406 0.792969 0.070428 195 149 142
0.070312 0.792969 0.063386 196 157 152
0.074219 0.792969 0.053386 183 152 146
0.078125 0.792969 0.025904 152 122 126
-0.097656 0.789062 0.021879 171 127 104
-0.093750 0.789062 0.033652 155 104 80
-0.089844 0.789062 0.034238 146 93 73
-0.085938 0.789062 0.035219 152 106 85
-0.082031 0.789062 0.035369 150 111 87
-0.078125 0.789062 0.036167 128 95 73
-0.074219 0.789062 0.045313 112 83 65
-0.070312 0.789062 0.057435 117 87 68
-0.066406 0.789062 0.068158 129 95 75
-0.062500 0.789062 0.075109 132 94 74
-0.058594 0.789062 0.080961 137 96 76
-0.054688 0.789062 0.085808 150 107 85
-0.050781 0.789062 0.090450 157 113 91
-0.046875 0.789062 0.094208 159 113 92
-0.042969 0.789062 0.097141 163 116 95
-0.039062 0.789062 0.099430 169 120 100
-0.035156 0.789062 0.101611 172 123 103
-0.031250 0.789062 0.103959 175 126 107
-0.027344 0.789062 0.106001 176 128 109
-0.023438 0.789062 0.107705 176 127 109
-0.019531 0.789062 0.109311 175 125 108
-0.015625 0.789062 0.110910 175 125 108
-0.011719 0.789062 0.112255 176 126 109
-0.007812 0.789062 0.113386 174 122 106
-0.003906 0.789062 0.114297 173 121 104
0.000000 0.789062 0.114472 160 105 90
0.003906 0.789062 0.113770 148 90 75
0.007812 0.789062 0.112406 161 101 81
0.011719 0.789062 0.109308 119 73 58
0.015625 0.789062 0.105001 44 26 22
0.019531 0.789062 0.102847 38 20 18
0.023438 0.789062 0.104171 80 45 36
0.027344 0.789062 0.107078 130 82 65
0.031250 0.789062 0.108447 150 99 82
0.035156 0.789062 0.105733 121 78 69
0.039062 0.789062 0.099467 81 49 46
0.042969 0.789062 0.094261 115 69 63
0.046875 0.789062 0.090945 181 127 111
0.050781 0.789062 0.087062 189 137 119
0.054688 0.789062 0.082801 186 133 116
0.058594 0.789062 0.078651 187 134 119
0.062500 0.789062 0.074450 183 132 121
0.066406 0.789062 0.069870 191 144 136
0.070312 0.789062 0.062970 189 150 144
0.074219 0.789062 0.054026 184 153 147
0.078125 0.789062 0.028784 167 137 138
-0.101562 0.785156 0.014832 147 91 82
-0.097656 0.785156 0.024092 136 82 73
-0.093750 0.785156 0.025249 122 68 59
-0.089844 0.785156 0.022112 123 72 62
-0.085938 0.785156 0.025592 136 88 74
-0.082031 0.785156 0.032586 152 108 87
-0.078125 0.785156 0.039582 141 103 82
-0.074219 0.785156 0.049254 116 85 67
-0.070312 0.785156 0.057079 113 83 65
-0.066406 0.785156 0.064773 126 91 71
-0.062500 0.785156 0.071679 131 92 71
-0.058594 0.785156 0.077921 136 94 73
-0.054688 0.785156 0.083716 151 107 84
-0.050781 0.785156 0.088992 160 116 92
-0.046875 0.785156 0.093132 165 119 97
-0.042969 0.785156 0.096328 168 121 99
-0.039062 0.785156 0.098807 169 121 100
-0.035156 0.785156 0.101166 171 121 102
-0.031250 0.785156 0.103693 175 126 106
-0.027344 0.785156 0.105827 177 128 109
-0.023438 0.785156 0.107527 175 125 107
-0.019531 0.785156 0.109100 174 123 106
-0.015625 0.785156 0.110664 176 126 108
-0.011719 0.785156 0.111898 177 125 108
-0.007812 0.785156 0.112813 175 122 104
-0.003906 0.785156 0.113509 175 122 104
0.000000 0.785156 0.113501 162 106 91
0.003906 0.785156 0.112574 141 85 71
0.007812 0.785156 0.111327 145 86 70
0.011719 0.785156 0.109131 122 71 59
0.015625 0.785156 0.106146 72 41 36
0.019531 0.785156 0.104796 76 42 37
0.023438 0.785156 0.105839 112 64 53
0.027344 0.785156 0.107639 121 72 59
0.031250 0.785156 0.108755 127 79 67
0.035156 0.785156 0.107161 141 94 82
0.039062 0.785156 0.101952 131 85 78
0.042969 0.785156 0.096672 140 88 81
0.046875 0.785156 0.092667 177 121 107
0.050781 0.785156 0.088234 186 130 113
0.054688 0.785156 0.083437 182 127 110
0.058594 0.785156 0.078601 184 130 115
0.062500 0.785156 0.073778 184 132 120
0.066406 0.785156 0.068896 189 143 134
0.070312 0.785156 0.062015 188 149 142
0.074219 0.785156 0.054019 187 157 148
0.078125 0.785156 0.030749 171 142 142
-0.101562 0.781250 0.018341 170 118 101
-0.097656 0.781250 0.022323 128 72 62
-0.093750 0.781250 0.019971 137 80 68
-0.089844 0.781250 0.020139 137 88 74
-0.085938 0.781250 0.024687 123 80 66
-0.082031 0.781250 0.031396 134 92 74
-0.078125 0.781250 0.042211 141 104 81
-0.074219 0.781250 0.052780 118 88 67
-0.070312 0.781250 0.056944 108 80 61
-0.066406 0.781250 0.061343 120 88 67
-0.062500 0.781250 0.067312 126 90 67
-0.058594 0.781250 0.073962 131 91 68
-0.054688 0.781250 0.080791 142 100 76
-0.050781 0.781250 0.086852 150 107 83
-0.046875 0.781250 0.091474 156 112 89
-0.042969 0.781250 0.095049 162 117 94
-0.039062 0.781250 0.097801 165 118 96
-0.035156 0.781250 0.100428 165 117 97
-0.031250 0.781250 0.103185 169 120 101
-0.027344 0.781250 0.105494 174 125 106
-0.023438 0.781250 0.107300 174 125 107
-0.019531 0.781250 0.108932 173 124 106
-0.015625 0.781250 0.110517 177 127 109
-0.011719 0.781250 0.111668 177 126 108
-0.007812 0.781250 0.112344 174 122 104
-0.003906 0.781250 0.112819 177 124 105
0.000000 0.781250 0.112718 169 113 96
0.003906 0.781250 0.111701 136 82 70
0.007812 0.781250 0.110446 119 67 57
0.011719 0.781250 0.109010 121 67 58
0.015625 0.781250 0.107267 115 67 58
0.019531 0.781250 0.106391 122 74 63
0.023438 0.781250 0.106937 132 81 67
0.027344 0.781250 0.107871 122 74 62
0.031250 0.781250 0.108548 124 77 69
0.035156 0.781250 0.107435 153 104 95
0.039062 0.781250 0.103302 161 115 105
0.042969 0.781250 0.098474 160 112 103
0.046875 0.781250 0.094036 180 127 115
0.050781 0.781250 0.089185 190 137 120
0.054688 0.781250 0.083903 187 134 117
0.058594 0.781250 0.078442 186 134 118
0.062500 0.781250 0.073053 186 137 124
0.066406 0.781250 0.067838 189 145 136
0.070312 0.781250 0.060878 186 150 141
0.074219 0.781250 0.053179 182 155 144
0.078125 0.781250 0.031611 156 130 129
-0.101562 0.777344 0.019816 168 111 99
-0.097656 0.777344 0.021164 132 72 63
-0.093750 0.777344 0.020286 148 88 75
-0.089844 0.777344 0.022070 150 98 81
-0.085938 0.777344 0.026326 125 81 67
-0.082031 0.777344 0.032615 131 90 72
-0.078125 0.777344 0.045065 156 117 92
-0.074219 0.777344 0.055299 138 105 81
-0.070312 0.777344 0.057233 119 89 68
-0.066406 0.777344 0.058103 125 93 71
-0.062500 0.777344 0.062466 129 93 69
-0.058594 0.777344 0.069512 131 92 68
-0.054688 0.777344 0.077087 135 95 71
-0.050781 0.777344 0.084046 139 98 75
-0.046875 0.777344 0.089089 145 103 81
-0.042969 0.777344 0.092973 152 108 86
-0.039062 0.777344 0.096069 157 112 90
-0.035156 0.777344 0.099061 163 116 95
-0.031250 0.777344 0.102114 166 118 98
-0.027344 0.777344 0.104694 172 124 104
-0.023438 0.777344 0.106779 177 128 109
-0.019531 0.777344 0.108658 179 130 111
-0.015625 0.777344 0.110437 181 131 113
-0.011719 0.777344 0.111667 180 129 111
-0.007812 0.777344 0.112223 178 127 109
-0.003906 0.777344 0.112580 183 131 112
0.000000 0.777344 0.112597 182 127 109
0.003906 0.777344 0.111681 151 95 81
0.007812 0.777344 0.110253 116 66 57
0.011719 0.777344 0.108952 109 61 54
0.015625 0.777344 0.107746 115 68 60
0.019531 0.777344 0.107045 131 83 72
0.023438 0.777344 0.107283 142 93 79
0.027344 0.777344 0.107778 139 92 80
0.031250 0.777344 0.108001 139 96 86
0.035156 0.777344 0.106913 159 116 107
0.039062 0.777344 0.103571 180 139 129
0.042969 0.777344 0.099332 188 148 137
0.046875 0.777344 0.094932 192 147 133
0.050781 0.777344 0.089925 191 142 125
0.054688 0.777344 0.084186 190 140 122
0.058594 0.777344 0.078171 190 140 122
0.062500 0.777344 0.072240 187 141 126
0.066406 0.777344 0.066632 191 149 138
0.070312 0.777344 0.059619 194 160 149
0.074219 0.777344 0.051947 194 168 154
0.078125 0.777344 0.031539 161 136 130
-0.101562 0.773438 0.020432 160 98 88
-0.097656 0.773438 0.020281 135 71 63
-0.093750 0.773438 0.021299 144 85 73
-0.089844 0.773438 0.023854 154 101 85
-0.085938 0.773438 0.027842 137 89 74
-0.082031 0.773438 0.033699 138 95 76
-0.078125 0.773438 0.045963 166 127 100
-0.074219 0.773438 0.055505 144 112 86
-0.070312 0.773438 0.056830 112 85 65
-0.066406 0.773438 0.055805 113 84 64
-0.062500 0.773438 0.058822 121 88 64
-0.058594 0.773438 0.065687 128 90 66
-0.054688 0.773438 0.073441 133 93 69
-0.050781 0.773438 0.080831 138 98 73
-0.046875 0.773438 0.086188 146 105 81
-0.042969 0.773438 0.090399 149 108 84
-0.039062 0.773438 0.093844 152 110 86
-0.035156 0.773438 0.097192 159 115 92
-0.031250 0.773438 0.100593 164 117 96
-0.027344 0.773438 0.103547 169 122 102
-0.023438 0.773438 0.106019 175 127 108
-0.019531 0.773438 0.108268 180 130 111
-0.015625 0.773438 0.110402 182 132 113
-0.011719 0.773438 0.111884 184 133 115
-0.007812 0.773438 0.112519 186 136 117
-0.003906 0.773438 0.112917 190 140 121
0.000000 0.773438 0.113113 190 137 120
0.003906 0.773438 0.112424 174 118 102
0.007812 0.773438 0.110959 151 95 84
0.011719 0.773438 0.109478 134 83 74
0.015625 0.773438 0.108242 131 84 75
0.019531 0.773438 0.107458 141 95 84
0.023438 0.773438 0.107466 147 102 90
0.027344 0.773438 0.107662 149 106 94
0.031250 0.773438 0.107379 148 108 98
0.035156 0.773438 0.105983 150 111 103
0.039062 0.773438 0.103005 171 132 124
0.042969 0.773438 0.099276 194 156 147
0.046875 0.773438 0.095189 199 160 147
0.050781 0.773438 0.090264 192 149 132
0.054688 0.773438 0.084279 189 141 123
0.058594 0.773438 0.077790 191 142 125
0.062500 0.773438 0.071386 190 145 130
0.066406 0.773438 0.065510 190 150 138
0.070312 0.773438 0.058437 196 163 151
0.074219 0.773438 0.050546 189 161 147
0.078125 0.773438 0.031369 130 105 100
-0.101562 0.769531 0.020213 169 103 95
-0.097656 0.769531 0.020416 149 80 71
-0.093750 0.769531 0.022021 150 89 77
-0.089844 0.769531 0.024752 162 105 89
-0.085938 0.769531 0.028838 139 86 72
-0.082031 0.769531 0.034041 132 85 70
-0.078125 0.769531 0.045090 167 125 99
-0.074219 0.769531 0.054689 149 115 88
-0.070312 0.769531 0.055775 113 86 65
-0.066406 0.769531 0.054147 113 84 62
-0.062500 0.769531 0.056489 122 88 64
-0.058594 0.769531 0.062904 129 92 67
-0.054688 0.769531 0.070385 131 91 67
-0.050781 0.769531 0.077586 135 94 70
-0.046875 0.769531 0.083037 144 103 78
-0.042969 0.769531 0.087493 149 108 83
-0.039062 0.769531 0.091209 149 108 84
-0.035156 0.769531 0.094806 151 108 86
-0.031250 0.769531 0.098555 157 113 92
-0.027344 0.769531 0.101936 167 121 99
-0.023438 0.769531 0.104839 171 123 103
-0.019531 0.769531 0.107521 173 123 104
-0.015625 0.769531 0.110102 177 127 108
-0.011719 0.769531 0.111946 183 132 114
-0.007812 0.769531 0.112795 188 137 118
-0.003906 0.769531 0.113344 189 138 120
0.000000 0.769531 0.113672 184 131 116
0.003906 0.769531 0.113188 173 120 106
0.007812 0.769531 0.111857 166 114 102
0.011719 0.769531 0.110212 154 106 94
0.015625 0.769531 0.108727 143 100 88
0.019531 0.769531 0.107725 144 103 92
0.023438 0.769531 0.107424 142 102 92
0.027344 0.769531 0.107232 145 105 94
0.031250 0.769531 0.106518 142 102 93
0.035156 0.769531 0.104781 122 86 82
0.039062 0.769531 0.101840 124 91 87
0.042969 0.769531 0.098485 155 119 114
0.046875 0.769531 0.094809 185 149 139
0.050781 0.769531 0.090081 197 160 144
0.054688 0.769531 0.084008 191 147 130
0.058594 0.769531 0.077238 186 140 123
0.062500 0.769531 0.070483 191 148 132
0.066406 0.769531 0.064358 191 153 139
0.070312 0.769531 0.057074 194 163 150
0.074219 0.769531 0.048544 183 155 145
0.078125 0.769531 0.031162 145 122 116
-0.101562 0.765625 0.021270 152 88 80
-0.097656 0.765625 0.022481 154 83 72
-0.093750 0.765625 0.024045 167 100 86
-0.089844 0.765625 0.026219 172 109 93
-0.085938 0.765625 0.029074 128 72 62
-0.082031 0.765625 0.033278 115 67 58
-0.078125 0.765625 0.043626 161 116 94
-0.074219 0.765625 0.053450 150 114 89
-0.070312 0.765625 0.054895 114 82 65
-0.066406 0.765625 0.053611 106 74 59
-0.062500 0.765625 0.055581 115 80 62
-0.058594 0.765625 0.061364 120 83 64
-0.054688 0.765625 0.068260 118 80 61
-0.050781 0.765625 0.074879 126 85 63
-0.046875 0.765625 0.080142 138 96 73
-0.042969 0.765625 0.084672 146 104 82
-0.039062 0.765625 0.088620 148 107 84
-0.035156 0.765625 0.092407 145 105 82
-0.031250 0.765625 0.096396 152 110 88
-0.027344 0.765625 0.100125 165 120 98
-0.023438 0.765625 0.103434 169 121 100
-0.019531 0.765625 0.106564 171 120 101
-0.015625 0.765625 0.109607 177 125 105
-0.011719 0.765625 0.111820 183 132 113
-0.007812 0.765625 0.112887 186 135 116
-0.003906 0.765625 0.113591 188 137 119
0.000000 0.765625 0.114039 186 135 120
0.003906 0.765625 0.113707 178 128 113
0.007812 0.765625 0.112504 162 116 102
0.011719 0.765625 0.110793 125 87 77
0.015625 0.765625 0.109162 100 69 62
0.019531 0.765625 0.108088 104 71 66
0.023438 0.765625 0.107583 105 72 67
0.027344 0.765625 0.107020 109 73 67
0.031250 0.765625 0.106040 107 72 67
0.035156 0.765625 0.104206 98 66 62
0.039062 0.765625 0.101182 107 75 71
0.042969 0.765625 0.097775 121 89 85
0.046875 0.765625 0.094148 144 110 104
0.050781 0.765625 0.089458 179 143 131
0.054688 0.765625 0.083279 183 143 129
0.058594 0.765625 0.076352 172 129 114
0.062500 0.765625 0.069465 182 141 124
0.066406 0.765625 0.063104 187 151 135
0.070312 0.765625 0.055473 191 165 148
0.074219 0.765625 0.046414 184 160 150
0.078125 0.765625 0.030235 172 154 149
-0.101562 0.761719 0.023273 181 125 111
-0.097656 0.761719 0.024268 150 84 73
-0.093750 0.761719 0.025569 163 99 85
-0.089844 0.761719 0.027615 173 108 96
-0.085938 0.761719 0.029461 121 63 58
-0.082031 0.761719 0.032539 104 56 52
-0.078125 0.761719 0.042013 146 97 86
-0.074219 0.761719 0.051816 140 100 88
-0.070312 0.761719 0.053969 99 67 61
-0.066406 0.761719 0.053591 81 53 50
-0.062500 0.761719 0.055412 96 64 57
-0.058594 0.761719 0.060561 110 74 63
-0.054688 0.761719 0.066930 110 74 60
-0.050781 0.761719 0.072911 121 81 64
-0.046875 0.761719 0.077859 135 92 72
-0.042969 0.761719 0.082414 144 101 79
-0.039062 0.761719 0.086566 148 107 84
-0.035156 0.761719 0.090529 147 107 84
-0.031250 0.761719 0.094655 150 108 86
-0.027344 0.761719 0.098591 157 112 91
-0.023438 0.761719 0.102149 163 115 94
-0.019531 0.761719 0.105548 168 118 97
-0.015625 0.761719 0.108853 175 123 102
-0.011719 0.761719 0.111264 181 129 109
-0.007812 0.761719 0.112444 180 131 112
-0.003906 0.761719 0.113231 182 133 116
0.000000 0.761719 0.113769 180 132 118
0.003906 0.761719 0.113574 168 122 108
0.007812 0.761719 0.112607 141 99 89
0.011719 0.761719 0.111172 97 66 62
0.015625 0.761719 0.109746 89 60 56
0.019531 0.761719 0.108833 115 77 71
0.023438 0.761719 0.108308 129 86 78
0.027344 0.761719 0.107568 133 88 79
0.031250 0.761719 0.106455 132 87 79
0.035156 0.761719 0.104514 137 91 83
0.039062 0.761719 0.101327 155 108 98
0.042969 0.761719 0.097567 155 111 102
0.046875 0.761719 0.093527 144 106 99
0.050781 0.761719 0.088556 159 124 115
0.054688 0.761719 0.082090 167 130 119
0.058594 0.761719 0.074915 164 125 111
0.062500 0.761719 0.068023 180 143 126
0.066406 0.761719 0.061628 187 153 137
0.070312 0.761719 0.053723 191 165 149
0.074219 0.761719 0.044042 182 161 151
0.078125 0.761719 0.027923 155 142 139
-0.101562 0.757812 0.017461 226 198 185
-0.097656 0.757812 0.021886 182 128 110
-0.093750 0.757812 0.024711 163 105 91
-0.089844 0.757812 0.028216 170 110 99
-0.085938 0.757812 0.030959 126 68 63
-0.082031 0.757812 0.033606 109 60 53
-0.078125 0.757812 0.041785 140 92 80
-0.074219 0.757812 0.050507 148 107 93
-0.070312 0.757812 0.053362 116 84 74
-0.066406 0.757812 0.053756 84 61 55
-0.062500 0.757812 0.055350 98 71 64
-0.058594 0.757812 0.059914 116 84 72
-0.054688 0.757812 0.065960 116 81 70
-0.050781 0.757812 0.071661 117 82 70
-0.046875 0.757812 0.076362 121 86 68
-0.042969 0.757812 0.080870 133 94 70
-0.039062 0.757812 0.085172 142 100 75
-0.035156 0.757812 0.089282 146 103 81
-0.031250 0.757812 0.093454 150 107 84
-0.027344 0.757812 0.097417 152 108 85
-0.023438 0.757812 0.100994 156 110 88
-0.019531 0.757812 0.104451 162 113 92
-0.015625 0.757812 0.107819 169 119 96
-0.011719 0.757812 0.110280 173 124 103
-0.007812 0.757812 0.111479 174 126 108
-0.003906 0.757812 0.112234 170 125 108
0.000000 0.757812 0.112759 153 110 96
0.003906 0.757812 0.112756 131 93 82
0.007812 0.757812 0.112321 123 87 78
0.011719 0.757812 0.111517 121 84 77
0.015625 0.757812 0.110493 140 94 86
0.019531 0.757812 0.109697 162 109 99
0.023438 0.757812 0.109074 171 114 104
0.027344 0.757812 0.108201 176 116 105
0.031250 0.757812 0.106955 174 114 104
0.035156 0.757812 0.104813 171 112 101
0.039062 0.757812 0.101374 170 113 102
0.042969 0.757812 0.097269 167 114 103
0.046875 0.757812 0.092842 164 116 106
0.050781 0.757812 0.087505 163 125 114
0.054688 0.757812 0.080529 151 115 107
0.058594 0.757812 0.072899 143 107 97
0.062500 0.757812 0.065952 174 138 121
0.066406 0.757812 0.059631 190 156 140
0.070312 0.757812 0.051584 192 163 150
0.074219 0.757812 0.041490 175 154 143
0.078125 0.757812 0.024676 133 126 118
-0.097656 0.753906 0.013739 196 155 140
-0.093750 0.753906 0.022275 172 115 101
-0.089844 0.753906 0.028678 169 106 94
-0.085938 0.753906 0.033418 136 76 69
-0.082031 0.753906 0.036752 114 65 57
-0.078125 0.753906 0.043314 115 72 59
-0.074219 0.753906 0.049905 129 90 71
-0.070312 0.753906 0.052949 122 90 71
-0.066406 0.753906 0.053835 84 66 52
-0.062500 0.753906 0.055112 82 66 55
-0.058594 0.753906 0.059063 94 74 62
-0.054688 0.753906 0.064987 104 78 67
-0.050781 0.753906 0.070760 110 83 72
-0.046875 0.753906 0.075366 111 84 70
-0.042969 0.753906 0.079868 128 91 73
-0.039062 0.753906 0.084283 135 91 72
-0.035156 0.753906 0.088482 135 92 71
-0.031250 0.753906 0.092640 142 100 78
-0.027344 0.753906 0.096519 146 103 82
-0.023438 0.753906 0.099944 150 105 84
-0.019531 0.753906 0.103284 154 107 86
-0.015625 0.753906 0.106573 160 111 90
-0.011719 0.753906 0.108964 166 120 98
-0.007812 0.753906 0.110076 164 120 101
-0.003906 0.753906 0.110711 145 106 90
0.000000 0.753906 0.111320 118 86 74
0.003906 0.753906 0.111757 114 82 71
0.007812 0.753906 0.111983 137 97 86
0.011719 0.753906 0.111776 154 105 95
0.015625 0.753906 0.110985 155 99 91
0.019531 0.753906 0.110051 148 88 83
0.023438 0.753906 0.109185 147 85 80
0.027344 0.753906 0.108143 154 88 83
0.031250 0.753906 0.106789 157 90 85
0.035156 0.753906 0.104534 156 90 84
0.039062 0.753906 0.100838 146 84 79
0.042969 0.753906 0.096339 140 82 76
0.046875 0.753906 0.091551 153 96 86
0.050781 0.753906 0.085878 167 117 104
0.054688 0.753906 0.078406 148 105 96
0.058594 0.753906 0.070278 116 82 75
0.062500 0.753906 0.063173 143 112 96
0.066406 0.753906 0.056936 182 149 132
0.070312 0.753906 0.048999 185 155 142
0.074219 0.753906 0.038902 151 131 122
0.078125 0.753906 0.021020 112 108 102
-0.093750 0.750000 0.018630 173 122 110
-0.089844 0.750000 0.029772 161 106 89
-0.085938 0.750000 0.036255 146 91 80
-0.082031 0.750000 0.040773 137 86 79
-0.078125 0.750000 0.045909 114 72 64
-0.074219 0.750000 0.050647 113 75 61
-0.070312 0.750000 0.053239 121 85 65
-0.066406 0.750000 0.053859 90 68 50
-0.062500 0.750000 0.054669 78 62 49
-0.058594 0.750000 0.057995 82 63 52
-0.054688 0.750000 0.063666 96 72 60
-0.050781 0.750000 0.069415 111 85 73
-0.046875 0.750000 0.074031 111 85 74
-0.042969 0.750000 0.078656 126 92 79
-0.039062 0.750000 0.083252 128 92 74
-0.035156 0.750000 0.087585 126 90 68
-0.031250 0.750000 0.091818 136 96 74
-0.027344 0.750000 0.095649 140 98 79
-0.023438 0.750000 0.098930 144 102 81
-0.019531 0.750000 0.102170 147 103 81
-0.015625 0.750000 0.105305 149 105 83
-0.011719 0.750000 0.107532 151 110 88
-0.007812 0.750000 0.108580 135 98 82
-0.003906 0.750000 0.109258 101 73 61
0.000000 0.750000 0.110186 93 66 56
0.003906 0.750000 0.111146 120 81 71
0.007812 0.750000 0.111718 145 96 86
0.011719 0.750000 0.111621 146 90 83
0.015625 0.750000 0.110835 133 74 71
0.019531 0.750000 0.109837 125 66 65
0.023438 0.750000 0.108873 127 67 67
0.027344 0.750000 0.107745 123 64 64
0.031250 0.750000 0.106343 115 59 60
0.035156 0.750000 0.104037 118 61 61
0.039062 0.750000 0.100208 114 59 59
0.042969 0.750000 0.095344 104 55 54
0.046875 0.750000 0.089938 107 60 57
0.050781 0.750000 0.083647 126 78 71
0.054688 0.750000 0.075707 134 89 81
0.058594 0.750000 0.067297 111 79 70
0.062500 0.750000 0.060057 128 101 85
