ply
    format ascii 1.0
    element vertex 73414
    property float x
    property float y
    property float z
    property uchar red
    property uchar green
    property uchar blue
    end_header
0.093750 -0.714844 -0.024951 38 69 105
0.097656 -0.714844 -0.026801 27 50 85
0.101562 -0.714844 -0.028475 22 40 73
0.105469 -0.714844 -0.030223 25 44 79
0.109375 -0.714844 -0.032307 35 60 102
0.113281 -0.714844 -0.035495 46 79 124
0.117188 -0.714844 -0.040150 70 115 158
-0.195312 -0.718750 -0.059025 25 37 49
-0.191406 -0.718750 -0.045768 45 65 86
-0.187500 -0.718750 -0.037152 71 98 123
-0.183594 -0.718750 -0.032537 72 100 128
-0.179688 -0.718750 -0.030839 62 89 119
-0.175781 -0.718750 -0.029242 57 84 116
-0.171875 -0.718750 -0.027671 51 77 110
-0.167969 -0.718750 -0.026225 51 78 111
-0.164062 -0.718750 -0.024978 54 83 116
-0.160156 -0.718750 -0.023979 53 83 117
-0.156250 -0.718750 -0.023186 51 85 121
-0.152344 -0.718750 -0.023270 53 90 127
-0.148438 -0.718750 -0.024445 55 93 129
-0.144531 -0.718750 -0.026032 51 84 120
-0.140625 -0.718750 -0.027726 43 71 106
-0.136719 -0.718750 -0.030025 30 53 87
-0.132812 -0.718750 -0.033562 26 48 80
-0.128906 -0.718750 -0.037449 39 66 99
-0.125000 -0.718750 -0.041385 54 84 114
-0.121094 -0.718750 -0.047700 44 73 104
-0.117188 -0.718750 -0.056738 31 62 97
-0.113281 -0.718750 -0.068964 42 87 128
-0.109375 -0.718750 -0.089980 46 77 117
0.039062 -0.718750 -0.069693 32 61 106
0.042969 -0.718750 -0.048678 20 40 72
0.046875 -0.718750 -0.038158 22 43 78
0.050781 -0.718750 -0.031346 45 81 124
0.054688 -0.718750 -0.026307 39 74 117
0.058594 -0.718750 -0.023526 39 73 120
0.062500 -0.718750 -0.021331 38 73 119
0.066406 -0.718750 -0.019916 40 78 122
0.070312 -0.718750 -0.019377 46 87 129
0.074219 -0.718750 -0.019095 47 89 131
0.078125 -0.718750 -0.018746 49 91 132
0.082031 -0.718750 -0.019387 45 86 123
0.085938 -0.718750 -0.021105 42 78 112
0.089844 -0.718750 -0.022970 35 66 100
0.093750 -0.718750 -0.024393 27 52 86
0.097656 -0.718750 -0.025880 26 49 85
0.101562 -0.718750 -0.027185 30 56 97
0.105469 -0.718750 -0.028720 38 68 114
0.109375 -0.718750 -0.030777 45 82 133
0.113281 -0.718750 -0.034446 44 84 135
0.117188 -0.718750 -0.039901 58 103 151
-0.195312 -0.722656 -0.059001 55 77 88
-0.191406 -0.722656 -0.047501 59 79 96
-0.187500 -0.722656 -0.039289 78 100 119
-0.183594 -0.722656 -0.034750 68 90 117
-0.179688 -0.722656 -0.031990 57 80 109
-0.175781 -0.722656 -0.029248 54 78 109
-0.171875 -0.722656 -0.026733 49 75 108
-0.167969 -0.722656 -0.024681 49 77 110
-0.164062 -0.722656 -0.023297 48 78 112
-0.160156 -0.722656 -0.022284 47 77 112
-0.156250 -0.722656 -0.021555 49 83 120
-0.152344 -0.722656 -0.021779 52 90 126
-0.148438 -0.722656 -0.023219 52 90 126
-0.144531 -0.722656 -0.025138 53 89 126
-0.140625 -0.722656 -0.027119 60 97 132
-0.136719 -0.722656 -0.029565 61 98 134
-0.132812 -0.722656 -0.033197 59 94 132
-0.128906 -0.722656 -0.037334 64 99 129
-0.125000 -0.722656 -0.041122 64 97 122
-0.121094 -0.722656 -0.047059 54 85 116
-0.117188 -0.722656 -0.056006 50 84 121
-0.113281 -0.722656 -0.068599 83 131 163
-0.109375 -0.722656 -0.092572 83 121 151
0.039062 -0.722656 -0.066324 141 179 196
0.042969 -0.722656 -0.046701 58 93 120
0.046875 -0.722656 -0.037252 32 56 89
0.050781 -0.722656 -0.030391 53 90 132
0.054688 -0.722656 -0.025246 41 77 123
0.058594 -0.722656 -0.021932 42 78 127
0.062500 -0.722656 -0.019466 46 85 133
0.066406 -0.722656 -0.018174 45 86 130
0.070312 -0.722656 -0.017988 44 84 125
0.074219 -0.722656 -0.018063 43 82 124
0.078125 -0.722656 -0.017908 49 88 129
0.082031 -0.722656 -0.018682 47 84 124
0.085938 -0.722656 -0.020395 42 75 113
0.089844 -0.722656 -0.022033 42 74 113
0.093750 -0.722656 -0.023167 44 77 119
0.097656 -0.722656 -0.024412 50 85 130
0.101562 -0.722656 -0.025534 54 93 141
0.105469 -0.722656 -0.026863 50 93 142
0.109375 -0.722656 -0.029169 49 94 147
0.113281 -0.722656 -0.033264 42 82 135
0.117188 -0.722656 -0.039799 42 79 128
-0.195312 -0.726562 -0.041652 39 52 59
-0.191406 -0.726562 -0.050207 38 51 62
-0.187500 -0.726562 -0.042002 32 44 59
-0.183594 -0.726562 -0.036691 24 35 58
-0.179688 -0.726562 -0.032959 26 40 68
-0.175781 -0.726562 -0.028985 34 55 89
-0.171875 -0.726562 -0.025616 43 72 109
-0.167969 -0.726562 -0.023039 53 87 123
-0.164062 -0.726562 -0.021528 58 95 132
-0.160156 -0.726562 -0.020556 58 97 134
-0.156250 -0.726562 -0.019910 61 101 140
-0.152344 -0.726562 -0.020276 60 102 141
-0.148438 -0.726562 -0.021880 52 93 134
-0.144531 -0.726562 -0.024006 45 83 125
-0.140625 -0.726562 -0.026326 49 86 125
-0.136719 -0.726562 -0.029204 53 88 125
-0.132812 -0.726562 -0.033128 56 86 120
-0.128906 -0.726562 -0.037489 48 71 97
-0.125000 -0.726562 -0.041049 39 57 78
-0.121094 -0.726562 -0.046836 44 66 92
-0.117188 -0.726562 -0.055713 40 65 95
-0.113281 -0.726562 -0.069575 42 76 105
-0.109375 -0.726562 -0.096978 45 72 98
0.039062 -0.726562 -0.066813 139 168 190
0.042969 -0.726562 -0.046378 54 81 118
0.046875 -0.726562 -0.036777 22 41 77
0.050781 -0.726562 -0.029914 36 69 116
0.054688 -0.726562 -0.024514 36 73 121
0.058594 -0.726562 -0.020979 44 84 134
0.062500 -0.726562 -0.018390 49 92 141
0.066406 -0.726562 -0.017103 45 87 132
0.070312 -0.726562 -0.016982 36 72 115
0.074219 -0.726562 -0.017049 31 63 106
0.078125 -0.726562 -0.016788 33 66 109
0.082031 -0.726562 -0.017363 31 61 103
0.085938 -0.726562 -0.018857 30 58 99
0.089844 -0.726562 -0.020315 36 67 111
0.093750 -0.726562 -0.021424 41 74 123
0.097656 -0.726562 -0.022803 44 81 133
0.101562 -0.726562 -0.024012 51 94 146
0.105469 -0.726562 -0.025348 53 99 150
0.109375 -0.726562 -0.027984 57 103 154
0.113281 -0.726562 -0.032449 44 81 132
0.117188 -0.726562 -0.039642 28 51 94
-0.195312 -0.730469 -0.020503 18 27 36
-0.191406 -0.730469 -0.052696 31 44 56
-0.187500 -0.730469 -0.043574 34 48 61
-0.183594 -0.730469 -0.038081 44 64 83
-0.179688 -0.730469 -0.034022 65 92 119
-0.175781 -0.730469 -0.029535 82 116 145
-0.171875 -0.730469 -0.025710 92 130 161
-0.167969 -0.730469 -0.022740 93 133 165
-0.164062 -0.730469 -0.021028 94 135 168
-0.160156 -0.730469 -0.019927 89 132 167
-0.156250 -0.730469 -0.019253 83 127 165
-0.152344 -0.730469 -0.019753 79 124 163
-0.148438 -0.730469 -0.021513 73 119 159
-0.144531 -0.730469 -0.023793 64 108 149
-0.140625 -0.730469 -0.026277 52 90 131
-0.136719 -0.730469 -0.029361 34 62 100
-0.132812 -0.730469 -0.033229 26 46 78
-0.128906 -0.730469 -0.037261 19 31 54
-0.125000 -0.730469 -0.040263 18 29 49
-0.121094 -0.730469 -0.044854 43 63 93
-0.117188 -0.730469 -0.053728 35 57 87
-0.113281 -0.730469 -0.072412 14 30 54
0.039062 -0.730469 -0.068826 24 39 69
0.042969 -0.730469 -0.047727 29 49 78
0.046875 -0.730469 -0.037152 39 65 98
0.050781 -0.730469 -0.031195 59 99 137
0.054688 -0.730469 -0.025654 52 94 135
0.058594 -0.730469 -0.021712 55 98 143
0.062500 -0.730469 -0.018744 55 99 145
0.066406 -0.730469 -0.017031 52 96 141
0.070312 -0.730469 -0.016577 45 86 132
0.074219 -0.730469 -0.016402 41 81 129
0.078125 -0.730469 -0.015910 43 85 133
0.082031 -0.730469 -0.016247 40 79 128
0.085938 -0.730469 -0.017536 41 79 129
0.089844 -0.730469 -0.018847 50 91 140
0.093750 -0.730469 -0.020062 50 93 141
0.097656 -0.730469 -0.021706 47 88 136
0.101562 -0.730469 -0.023135 55 97 142
0.105469 -0.730469 -0.024836 58 98 144
0.109375 -0.730469 -0.027810 56 91 138
0.113281 -0.730469 -0.032480 41 67 111
0.117188 -0.730469 -0.039457 26 42 80
-0.195312 -0.734375 -0.021970 30 47 58
-0.191406 -0.734375 -0.054884 32 48 59
-0.187500 -0.734375 -0.044727 28 42 50
-0.183594 -0.734375 -0.038957 37 55 66
-0.179688 -0.734375 -0.034984 43 62 80
-0.175781 -0.734375 -0.030924 47 68 90
-0.171875 -0.734375 -0.027087 50 72 99
-0.167969 -0.734375 -0.024068 49 74 105
-0.164062 -0.734375 -0.022355 53 81 114
-0.160156 -0.734375 -0.021238 58 89 123
-0.156250 -0.734375 -0.020543 59 92 128
-0.152344 -0.734375 -0.021148 60 96 131
-0.148438 -0.734375 -0.023111 66 105 137
-0.144531 -0.734375 -0.025520 80 119 152
-0.140625 -0.734375 -0.027944 90 127 159
-0.136719 -0.734375 -0.030703 71 107 141
-0.132812 -0.734375 -0.033995 65 98 132
-0.128906 -0.734375 -0.037110 51 79 112
-0.125000 -0.734375 -0.039395 45 71 102
-0.121094 -0.734375 -0.043339 88 119 146
-0.117188 -0.734375 -0.051884 53 80 108
-0.113281 -0.734375 -0.070037 19 38 67
0.039062 -0.734375 -0.068554 19 31 51
0.042969 -0.734375 -0.048137 25 41 57
0.046875 -0.734375 -0.038258 35 49 68
0.050781 -0.734375 -0.032658 47 66 93
0.054688 -0.734375 -0.027392 44 67 99
0.058594 -0.734375 -0.023289 47 77 113
0.062500 -0.734375 -0.019939 48 83 122
0.066406 -0.734375 -0.017764 49 87 126
0.070312 -0.734375 -0.016954 47 85 126
0.074219 -0.734375 -0.016611 51 91 134
0.078125 -0.734375 -0.016012 58 100 144
0.082031 -0.734375 -0.016275 55 96 142
0.085938 -0.734375 -0.017514 55 94 141
0.089844 -0.734375 -0.018845 58 98 143
0.093750 -0.734375 -0.020189 52 91 135
0.097656 -0.734375 -0.021936 45 79 119
0.101562 -0.734375 -0.023573 45 74 111
0.105469 -0.734375 -0.025546 39 63 102
0.109375 -0.734375 -0.028516 30 48 84
0.113281 -0.734375 -0.032903 24 37 66
0.117188 -0.734375 -0.039553 26 38 70
-0.195312 -0.738281 -0.021372 16 29 43
-0.191406 -0.738281 -0.054964 10 18 27
-0.187500 -0.738281 -0.044970 13 21 28
-0.183594 -0.738281 -0.039091 22 35 45
-0.179688 -0.738281 -0.035239 17 27 40
-0.175781 -0.738281 -0.031637 17 26 40
-0.171875 -0.738281 -0.027923 19 29 46
-0.167969 -0.738281 -0.025067 22 34 56
-0.164062 -0.738281 -0.023676 27 41 67
-0.160156 -0.738281 -0.023041 32 48 76
-0.156250 -0.738281 -0.022630 34 51 81
-0.152344 -0.738281 -0.023506 30 48 76
-0.148438 -0.738281 -0.025669 24 41 68
-0.144531 -0.738281 -0.028016 24 40 72
-0.140625 -0.738281 -0.030288 29 48 80
-0.136719 -0.738281 -0.032716 28 46 77
-0.132812 -0.738281 -0.035420 41 65 96
-0.128906 -0.738281 -0.037665 55 84 114
-0.125000 -0.738281 -0.039236 53 84 116
-0.121094 -0.738281 -0.043516 75 111 136
-0.117188 -0.738281 -0.051501 36 65 88
-0.113281 -0.738281 -0.065178 20 44 75
-0.109375 -0.738281 -0.092625 59 111 157
0.039062 -0.738281 -0.065418 7 12 29
0.042969 -0.738281 -0.046317 7 12 25
0.046875 -0.738281 -0.037910 6 9 19
0.050781 -0.738281 -0.031842 8 12 26
0.054688 -0.738281 -0.027101 12 18 38
0.058594 -0.738281 -0.023351 18 29 56
0.062500 -0.738281 -0.020073 25 42 75
0.066406 -0.738281 -0.017906 27 48 83
0.070312 -0.738281 -0.017053 21 41 77
0.074219 -0.738281 -0.016658 19 37 75
0.078125 -0.738281 -0.016060 19 38 76
0.082031 -0.738281 -0.016369 18 35 74
0.085938 -0.738281 -0.017705 19 36 74
0.089844 -0.738281 -0.019240 22 40 78
0.093750 -0.738281 -0.020765 24 44 82
0.097656 -0.738281 -0.022625 26 44 81
0.101562 -0.738281 -0.024531 29 47 79
0.105469 -0.738281 -0.026759 27 43 76
0.109375 -0.738281 -0.029340 19 31 58
0.113281 -0.738281 -0.033338 16 24 46
0.117188 -0.738281 -0.039384 25 35 62
-0.191406 -0.742188 -0.055453 14 28 43
-0.187500 -0.742188 -0.044792 22 37 51
-0.183594 -0.742188 -0.038808 56 82 94
-0.179688 -0.742188 -0.034766 47 71 86
-0.175781 -0.742188 -0.031072 53 77 96
-0.171875 -0.742188 -0.027615 51 74 99
-0.167969 -0.742188 -0.025068 52 73 103
-0.164062 -0.742188 -0.023950 54 75 107
-0.160156 -0.742188 -0.023765 53 75 107
-0.156250 -0.742188 -0.023677 50 72 105
-0.152344 -0.742188 -0.024813 44 65 97
-0.148438 -0.742188 -0.027083 40 60 92
-0.144531 -0.742188 -0.029290 37 58 92
-0.140625 -0.742188 -0.031493 28 47 77
-0.136719 -0.742188 -0.033883 14 26 51
-0.132812 -0.742188 -0.036400 13 25 50
-0.128906 -0.742188 -0.038484 21 40 69
-0.125000 -0.742188 -0.039722 26 51 84
-0.121094 -0.742188 -0.043428 47 81 112
-0.117188 -0.742188 -0.051797 46 80 112
-0.113281 -0.742188 -0.065324 26 59 108
-0.109375 -0.742188 -0.086955 79 150 201
0.039062 -0.742188 -0.061471 25 45 87
0.042969 -0.742188 -0.043702 26 49 88
0.046875 -0.742188 -0.034946 20 33 63
0.050781 -0.742188 -0.028678 20 33 63
0.054688 -0.742188 -0.024366 20 35 67
0.058594 -0.742188 -0.020925 21 38 73
0.062500 -0.742188 -0.018060 27 49 85
0.066406 -0.742188 -0.016292 35 60 99
0.070312 -0.742188 -0.015650 33 57 99
0.074219 -0.742188 -0.015301 30 54 98
0.078125 -0.742188 -0.014745 30 55 99
0.082031 -0.742188 -0.015155 29 53 97
0.085938 -0.742188 -0.016699 31 56 99
0.089844 -0.742188 -0.018612 37 62 103
0.093750 -0.742188 -0.020574 39 61 102
0.097656 -0.742188 -0.022810 34 54 92
0.101562 -0.742188 -0.024959 28 45 77
0.105469 -0.742188 -0.027258 24 40 72
0.109375 -0.742188 -0.029577 24 40 71
0.113281 -0.742188 -0.033461 29 46 76
0.117188 -0.742188 -0.039098 51 68 99
-0.191406 -0.746094 -0.057018 25 44 64
-0.187500 -0.746094 -0.044546 40 59 80
-0.183594 -0.746094 -0.038246 68 98 115
-0.179688 -0.746094 -0.033689 49 79 99
-0.175781 -0.746094 -0.029816 68 101 124
-0.171875 -0.746094 -0.027150 62 91 117
-0.167969 -0.746094 -0.025548 59 85 113
-0.164062 -0.746094 -0.024796 61 86 116
-0.160156 -0.746094 -0.024831 62 88 119
-0.156250 -0.746094 -0.024648 63 94 129
-0.152344 -0.746094 -0.025366 56 88 126
-0.148438 -0.746094 -0.027337 61 94 130
-0.144531 -0.746094 -0.029407 83 119 153
-0.140625 -0.746094 -0.031612 91 128 157
-0.136719 -0.746094 -0.033985 64 102 135
-0.132812 -0.746094 -0.036529 47 81 118
-0.128906 -0.746094 -0.038673 53 90 126
-0.125000 -0.746094 -0.040373 55 94 132
-0.121094 -0.746094 -0.044312 65 100 133
-0.117188 -0.746094 -0.052861 87 115 153
-0.113281 -0.746094 -0.067051 34 59 128
-0.109375 -0.746094 -0.087677 28 63 151
0.039062 -0.746094 -0.058858 42 80 126
0.042969 -0.746094 -0.042532 47 90 139
0.046875 -0.746094 -0.032951 41 75 116
0.050781 -0.746094 -0.026235 51 88 127
0.054688 -0.746094 -0.021778 54 93 135
0.058594 -0.746094 -0.018284 47 87 128
0.062500 -0.746094 -0.015652 41 78 119
0.066406 -0.746094 -0.014170 40 74 116
0.070312 -0.746094 -0.013692 40 73 114
0.074219 -0.746094 -0.013392 43 78 121
0.078125 -0.746094 -0.012851 49 86 129
0.082031 -0.746094 -0.013267 48 83 126
0.085938 -0.746094 -0.014890 47 79 121
0.089844 -0.746094 -0.017045 46 75 116
0.093750 -0.746094 -0.019456 40 64 105
0.097656 -0.746094 -0.022156 32 53 89
0.101562 -0.746094 -0.024488 25 45 78
0.105469 -0.746094 -0.026494 28 48 84
0.109375 -0.746094 -0.028969 42 69 104
0.113281 -0.746094 -0.032542 62 91 123
0.117188 -0.746094 -0.040238 60 79 109
-0.191406 -0.750000 -0.053259 12 18 35
-0.187500 -0.750000 -0.043593 43 54 80
-0.183594 -0.750000 -0.036829 56 78 99
-0.179688 -0.750000 -0.032441 43 71 93
-0.175781 -0.750000 -0.029382 59 92 113
-0.171875 -0.750000 -0.027662 44 65 82
-0.167969 -0.750000 -0.026888 39 53 70
-0.164062 -0.750000 -0.026211 35 48 67
-0.160156 -0.750000 -0.026046 37 53 76
-0.156250 -0.750000 -0.025439 57 84 117
-0.152344 -0.750000 -0.025349 61 95 136
-0.148438 -0.750000 -0.026628 50 87 128
-0.144531 -0.750000 -0.028446 43 79 125
-0.140625 -0.750000 -0.030713 47 83 126
-0.136719 -0.750000 -0.033153 53 93 130
-0.132812 -0.750000 -0.035907 46 86 124
-0.128906 -0.750000 -0.038434 54 92 127
-0.125000 -0.750000 -0.041010 62 97 133
-0.121094 -0.750000 -0.045880 50 77 110
-0.117188 -0.750000 -0.054457 63 82 123
-0.113281 -0.750000 -0.068305 30 41 104
-0.109375 -0.750000 -0.085483 13 22 82
0.039062 -0.750000 -0.060332 28 55 98
0.042969 -0.750000 -0.044920 31 64 110
0.046875 -0.750000 -0.035220 25 53 91
0.050781 -0.750000 -0.027607 35 72 111
0.054688 -0.750000 -0.022583 43 85 128
0.058594 -0.750000 -0.018631 47 90 133
0.062500 -0.750000 -0.015460 45 86 130
0.066406 -0.750000 -0.013551 35 71 116
0.070312 -0.750000 -0.012839 29 60 104
0.074219 -0.750000 -0.012446 28 59 104
0.078125 -0.750000 -0.011857 29 60 105
0.082031 -0.750000 -0.012182 27 55 98
0.085938 -0.750000 -0.013690 27 54 96
0.089844 -0.750000 -0.015806 32 60 101
0.093750 -0.750000 -0.018267 34 61 103
0.097656 -0.750000 -0.021105 36 62 104
0.101562 -0.750000 -0.023562 38 66 109
0.105469 -0.750000 -0.025508 40 67 109
0.109375 -0.750000 -0.028236 37 63 100
0.113281 -0.750000 -0.031478 37 59 96
0.117188 -0.750000 -0.039999 26 38 67
-0.187500 -0.753906 -0.044480 37 50 78
-0.183594 -0.753906 -0.035543 46 65 91
-0.179688 -0.753906 -0.031224 64 87 110
-0.175781 -0.753906 -0.029403 65 87 105
-0.171875 -0.753906 -0.028397 27 36 49
-0.167969 -0.753906 -0.027887 23 26 37
-0.164062 -0.753906 -0.027169 20 22 34
-0.160156 -0.753906 -0.026815 18 22 36
-0.156250 -0.753906 -0.026023 37 48 72
-0.152344 -0.753906 -0.025473 78 102 136
-0.148438 -0.753906 -0.025987 116 152 177
-0.144531 -0.753906 -0.027311 102 147 175
-0.140625 -0.753906 -0.029671 84 125 159
-0.136719 -0.753906 -0.032382 88 126 158
-0.132812 -0.753906 -0.035594 66 106 143
-0.128906 -0.753906 -0.038847 51 86 122
-0.125000 -0.753906 -0.042293 45 77 112
-0.121094 -0.753906 -0.047866 32 57 88
-0.117188 -0.753906 -0.056569 47 68 104
-0.113281 -0.753906 -0.070275 56 68 125
-0.109375 -0.753906 -0.085047 64 69 132
-0.105469 -0.753906 -0.101167 155 152 191
0.039062 -0.753906 -0.063726 27 47 85
0.042969 -0.753906 -0.048293 31 55 95
0.046875 -0.753906 -0.038917 32 54 90
0.050781 -0.753906 -0.032331 45 78 114
0.054688 -0.753906 -0.026647 45 81 121
0.058594 -0.753906 -0.021757 48 85 127
0.062500 -0.753906 -0.017554 58 98 139
0.066406 -0.753906 -0.014712 56 98 141
0.070312 -0.753906 -0.013518 54 95 140
0.074219 -0.753906 -0.012963 55 96 141
0.078125 -0.753906 -0.012323 56 98 142
0.082031 -0.753906 -0.012550 59 99 142
0.085938 -0.753906 -0.013952 63 103 144
0.089844 -0.753906 -0.015980 64 100 143
0.093750 -0.753906 -0.018137 55 87 130
0.097656 -0.753906 -0.020669 44 73 116
0.101562 -0.753906 -0.023197 40 67 112
0.105469 -0.753906 -0.025433 37 63 104
0.109375 -0.753906 -0.028081 31 56 93
0.113281 -0.753906 -0.031435 35 58 97
0.117188 -0.753906 -0.038698 37 53 89
-0.187500 -0.757812 -0.047989 56 74 104
-0.183594 -0.757812 -0.035447 61 83 105
-0.179688 -0.757812 -0.030530 48 59 81
-0.175781 -0.757812 -0.028929 38 45 61
-0.171875 -0.757812 -0.027693 23 28 39
-0.167969 -0.757812 -0.027320 25 28 38
-0.164062 -0.757812 -0.027018 27 27 38
-0.160156 -0.757812 -0.026796 25 26 36
-0.156250 -0.757812 -0.026182 26 28 41
-0.152344 -0.757812 -0.025939 42 49 73
-0.148438 -0.757812 -0.026239 95 121 146
-0.144531 -0.757812 -0.027210 113 148 169
-0.140625 -0.757812 -0.029662 103 136 159
-0.136719 -0.757812 -0.032735 130 159 177
-0.132812 -0.757812 -0.036357 142 170 186
-0.128906 -0.757812 -0.040013 129 159 178
-0.125000 -0.757812 -0.043828 115 144 167
-0.121094 -0.757812 -0.049696 75 103 130
-0.117188 -0.757812 -0.059388 64 83 112
-0.113281 -0.757812 -0.073181 55 63 100
-0.109375 -0.757812 -0.088719 46 47 82
-0.105469 -0.757812 -0.099116 92 86 125
0.035156 -0.757812 -0.016317 0 0 1
0.039062 -0.757812 -0.063778 5 7 19
0.042969 -0.757812 -0.050440 8 13 34
0.046875 -0.757812 -0.040598 9 16 37
0.050781 -0.757812 -0.033764 14 27 53
0.054688 -0.757812 -0.028711 15 31 59
0.058594 -0.757812 -0.023635 16 33 63
0.062500 -0.757812 -0.018990 20 42 76
0.066406 -0.757812 -0.015808 22 46 84
0.070312 -0.757812 -0.014533 23 47 86
0.074219 -0.757812 -0.014030 25 48 87
0.078125 -0.757812 -0.013492 27 50 89
0.082031 -0.757812 -0.013758 30 54 92
0.085938 -0.757812 -0.015097 32 55 93
0.089844 -0.757812 -0.017005 30 51 91
0.093750 -0.757812 -0.018870 29 50 89
0.097656 -0.757812 -0.021187 28 50 88
0.101562 -0.757812 -0.023782 31 54 93
0.105469 -0.757812 -0.026242 38 62 100
0.109375 -0.757812 -0.028824 47 69 106
0.113281 -0.757812 -0.032185 56 76 111
0.117188 -0.757812 -0.038701 56 72 109
-0.187500 -0.761719 -0.043522 143 148 166
-0.183594 -0.761719 -0.033885 103 118 127
-0.179688 -0.761719 -0.028979 32 41 53
-0.175781 -0.761719 -0.027194 50 56 68
-0.171875 -0.761719 -0.025514 105 109 117
-0.167969 -0.761719 -0.025386 66 74 84
-0.164062 -0.761719 -0.025527 26 32 44
-0.160156 -0.761719 -0.025170 29 34 48
-0.156250 -0.761719 -0.024592 23 26 39
-0.152344 -0.761719 -0.025046 20 23 38
-0.148438 -0.761719 -0.025873 52 64 89
-0.144531 -0.761719 -0.027019 79 99 126
-0.140625 -0.761719 -0.029609 65 88 117
-0.136719 -0.761719 -0.033105 71 96 119
-0.132812 -0.761719 -0.037306 73 100 121
-0.128906 -0.761719 -0.041313 71 94 118
-0.125000 -0.761719 -0.045374 87 107 129
-0.121094 -0.761719 -0.051366 87 107 130
-0.117188 -0.761719 -0.062265 77 89 112
-0.113281 -0.761719 -0.076120 47 50 68
-0.109375 -0.761719 -0.092933 39 38 53
0.035156 -0.761719 -0.055150 0 0 1
0.039062 -0.761719 -0.061870 4 5 14
0.042969 -0.761719 -0.050081 13 24 51
0.046875 -0.761719 -0.040959 18 39 76
0.050781 -0.761719 -0.033268 21 49 89
0.054688 -0.761719 -0.028262 23 55 97
0.058594 -0.761719 -0.023407 24 57 100
0.062500 -0.761719 -0.018974 29 67 112
0.066406 -0.761719 -0.015945 26 61 107
0.070312 -0.761719 -0.014813 21 49 91
0.074219 -0.761719 -0.014470 19 40 80
0.078125 -0.761719 -0.014115 18 37 75
0.082031 -0.761719 -0.014443 18 37 74
0.085938 -0.761719 -0.015679 20 39 74
0.089844 -0.761719 -0.017598 23 45 81
0.093750 -0.761719 -0.019497 31 58 94
0.097656 -0.761719 -0.021967 33 57 97
0.101562 -0.761719 -0.024594 28 47 86
0.105469 -0.761719 -0.026972 25 40 73
0.109375 -0.761719 -0.029399 21 31 59
0.113281 -0.761719 -0.032497 19 26 50
0.117188 -0.761719 -0.038475 25 32 61
-0.187500 -0.765625 -0.039863 177 178 182
-0.183594 -0.765625 -0.030102 143 146 152
-0.179688 -0.765625 -0.025166 83 89 98
-0.175781 -0.765625 -0.023265 143 140 146
-0.171875 -0.765625 -0.021995 193 189 193
-0.167969 -0.765625 -0.022010 70 81 101
-0.164062 -0.765625 -0.022224 12 19 31
-0.160156 -0.765625 -0.021798 27 39 56
-0.156250 -0.765625 -0.021158 37 47 67
-0.152344 -0.765625 -0.021890 26 34 53
-0.148438 -0.765625 -0.023606 59 73 95
-0.144531 -0.765625 -0.025703 104 121 141
-0.140625 -0.765625 -0.028868 97 119 144
-0.136719 -0.765625 -0.033040 85 112 135
-0.132812 -0.765625 -0.038148 74 99 122
-0.128906 -0.765625 -0.042799 58 81 107
-0.125000 -0.765625 -0.047413 54 76 101
-0.121094 -0.765625 -0.053699 62 84 111
-0.117188 -0.765625 -0.064383 61 71 99
-0.113281 -0.765625 -0.078949 23 23 36
-0.109375 -0.765625 -0.097737 18 16 24
0.035156 -0.765625 -0.062294 81 100 90
0.039062 -0.765625 -0.061551 21 30 47
0.042969 -0.765625 -0.050067 32 56 88
0.046875 -0.765625 -0.040688 54 94 138
0.050781 -0.765625 -0.032790 47 93 140
0.054688 -0.765625 -0.027800 42 91 137
0.058594 -0.765625 -0.023077 40 87 133
0.062500 -0.765625 -0.018603 50 103 147
0.066406 -0.765625 -0.015413 50 100 145
0.070312 -0.765625 -0.014066 43 86 131
0.074219 -0.765625 -0.013610 40 77 124
0.078125 -0.765625 -0.013157 39 72 120
0.082031 -0.765625 -0.013273 42 76 122
0.085938 -0.765625 -0.014210 45 82 126
0.089844 -0.765625 -0.015773 46 81 122
0.093750 -0.765625 -0.017437 44 74 112
0.097656 -0.765625 -0.019914 32 54 95
0.101562 -0.765625 -0.022675 25 43 80
0.105469 -0.765625 -0.025191 29 46 79
0.109375 -0.765625 -0.027587 34 48 82
0.113281 -0.765625 -0.030675 32 44 76
0.117188 -0.765625 -0.037138 33 40 67
-0.187500 -0.769531 -0.037510 203 205 207
-0.183594 -0.769531 -0.024602 208 206 208
-0.179688 -0.769531 -0.020871 189 185 186
-0.175781 -0.769531 -0.019252 185 182 184
-0.171875 -0.769531 -0.018328 186 189 195
-0.167969 -0.769531 -0.017863 103 120 139
-0.164062 -0.769531 -0.017892 80 98 111
-0.160156 -0.769531 -0.018041 183 192 188
-0.156250 -0.769531 -0.017987 206 211 208
-0.152344 -0.769531 -0.019010 157 172 180
-0.148438 -0.769531 -0.021239 136 160 171
-0.144531 -0.769531 -0.024191 134 159 172
-0.140625 -0.769531 -0.028248 116 143 164
-0.136719 -0.769531 -0.033200 103 130 154
-0.132812 -0.769531 -0.038814 103 127 148
-0.128906 -0.769531 -0.044366 112 134 157
-0.125000 -0.769531 -0.049472 98 127 151
-0.121094 -0.769531 -0.055389 81 115 141
-0.117188 -0.769531 -0.065729 64 85 116
-0.113281 -0.769531 -0.082852 12 15 27
-0.109375 -0.769531 -0.104041 6 6 11
0.039062 -0.769531 -0.063181 20 28 42
0.042969 -0.769531 -0.050557 19 36 55
0.046875 -0.769531 -0.039453 19 39 69
0.050781 -0.769531 -0.032353 11 25 54
0.054688 -0.769531 -0.027413 10 23 53
0.058594 -0.769531 -0.022555 8 19 46
0.062500 -0.769531 -0.017769 11 25 53
0.066406 -0.769531 -0.014348 13 29 59
0.070312 -0.769531 -0.012650 16 32 63
0.074219 -0.769531 -0.011875 18 36 68
0.078125 -0.769531 -0.011156 17 34 66
0.082031 -0.769531 -0.011046 19 38 71
0.085938 -0.769531 -0.011576 23 43 80
0.089844 -0.769531 -0.012376 26 47 84
0.093750 -0.769531 -0.013237 31 53 90
0.097656 -0.769531 -0.014963 37 60 100
0.101562 -0.769531 -0.017689 49 74 113
0.105469 -0.769531 -0.020846 73 96 128
0.109375 -0.769531 -0.023810 101 115 143
0.113281 -0.769531 -0.027550 96 109 136
0.117188 -0.769531 -0.033497 35 42 62
0.121094 -0.769531 -0.045463 21 22 37
-0.191406 -0.773438 -0.027231 200 202 198
-0.187500 -0.773438 -0.026988 225 225 225
-0.183594 -0.773438 -0.019863 199 201 200
-0.179688 -0.773438 -0.018030 146 151 152
-0.175781 -0.773438 -0.016864 120 131 139
-0.171875 -0.773438 -0.015628 165 180 188
-0.167969 -0.773438 -0.014597 188 198 204
-0.164062 -0.773438 -0.014675 212 214 212
-0.160156 -0.773438 -0.015894 227 227 221
-0.156250 -0.773438 -0.017072 219 218 212
-0.152344 -0.773438 -0.018609 209 209 208
-0.148438 -0.773438 -0.020743 208 214 215
-0.144531 -0.773438 -0.023777 193 205 211
-0.140625 -0.773438 -0.028419 163 182 191
-0.136719 -0.773438 -0.033866 139 155 167
-0.132812 -0.773438 -0.039526 92 108 129
-0.128906 -0.773438 -0.045655 60 81 106
-0.125000 -0.773438 -0.051696 65 92 114
-0.121094 -0.773438 -0.058449 92 125 142
-0.117188 -0.773438 -0.068600 96 124 141
-0.113281 -0.773438 -0.087347 29 37 50
-0.109375 -0.773438 -0.111825 30 31 38
0.039062 -0.773438 -0.070308 17 24 41
0.042969 -0.773438 -0.052658 58 92 112
0.046875 -0.773438 -0.039416 43 73 104
0.050781 -0.773438 -0.031699 23 45 83
0.054688 -0.773438 -0.026238 27 53 96
0.058594 -0.773438 -0.021003 22 45 83
0.062500 -0.773438 -0.016087 28 52 88
0.066406 -0.773438 -0.012528 32 57 92
0.070312 -0.773438 -0.010653 37 62 95
0.074219 -0.773438 -0.009672 44 71 105
0.078125 -0.773438 -0.008709 41 66 102
0.082031 -0.773438 -0.008442 40 65 101
0.085938 -0.773438 -0.008655 39 62 99
0.089844 -0.773438 -0.008669 50 73 113
0.093750 -0.773438 -0.008514 93 120 157
0.097656 -0.773438 -0.009318 126 149 178
0.101562 -0.773438 -0.011616 125 141 171
0.105469 -0.773438 -0.014975 91 109 145
0.109375 -0.773438 -0.018714 61 74 109
0.113281 -0.773438 -0.022951 66 78 108
0.117188 -0.773438 -0.028967 38 46 71
0.121094 -0.773438 -0.035671 23 28 53
-0.195312 -0.777344 -0.037955 67 75 100
-0.191406 -0.777344 -0.029818 229 229 228
-0.187500 -0.777344 -0.021093 222 218 216
-0.183594 -0.777344 -0.016648 110 118 123
-0.179688 -0.777344 -0.015746 51 60 69
-0.175781 -0.777344 -0.014419 62 72 88
-0.171875 -0.777344 -0.013132 158 167 179
-0.167969 -0.777344 -0.012134 213 212 217
-0.164062 -0.777344 -0.012484 211 208 210
-0.160156 -0.777344 -0.014323 140 146 148
-0.156250 -0.777344 -0.016350 60 68 77
-0.152344 -0.777344 -0.018270 80 81 90
-0.148438 -0.777344 -0.020572 163 160 161
-0.144531 -0.777344 -0.023799 183 188 192
-0.140625 -0.777344 -0.028869 139 156 163
-0.136719 -0.777344 -0.035110 139 146 151
-0.132812 -0.777344 -0.041092 136 140 147
-0.128906 -0.777344 -0.046742 72 89 101
-0.125000 -0.777344 -0.053164 51 67 82
-0.121094 -0.777344 -0.061770 60 76 92
-0.117188 -0.777344 -0.072732 39 53 65
-0.113281 -0.777344 -0.094677 9 12 19
0.039062 -0.777344 -0.037515 5 7 16
0.042969 -0.777344 -0.055859 52 71 96
0.046875 -0.777344 -0.039830 51 75 101
0.050781 -0.777344 -0.030761 43 71 103
0.054688 -0.777344 -0.024108 52 89 127
0.058594 -0.777344 -0.018426 42 77 113
0.062500 -0.777344 -0.013911 55 93 122
0.066406 -0.777344 -0.010275 63 98 126
0.070312 -0.777344 -0.008319 64 96 123
0.074219 -0.777344 -0.007330 76 107 134
0.078125 -0.777344 -0.006179 75 102 131
0.082031 -0.777344 -0.005584 71 98 126
0.085938 -0.777344 -0.005249 58 84 118
0.089844 -0.777344 -0.004482 91 116 153
0.093750 -0.777344 -0.003928 186 198 214
0.097656 -0.777344 -0.004718 202 208 218
0.101562 -0.777344 -0.006657 178 186 200
0.105469 -0.777344 -0.009243 135 154 181
0.109375 -0.777344 -0.012723 59 81 123
0.113281 -0.777344 -0.016960 66 85 125
0.117188 -0.777344 -0.023122 120 126 159
0.121094 -0.777344 -0.030599 128 124 165
-0.199219 -0.781250 -0.040337 202 195 203
-0.195312 -0.781250 -0.029842 144 146 171
-0.191406 -0.781250 -0.023432 208 208 210
-0.187500 -0.781250 -0.017962 133 130 144
-0.183594 -0.781250 -0.013973 38 46 61
-0.179688 -0.781250 -0.012501 53 64 79
-0.175781 -0.781250 -0.011716 103 114 133
-0.171875 -0.781250 -0.010972 179 184 192
-0.167969 -0.781250 -0.010507 219 217 222
-0.164062 -0.781250 -0.010870 216 213 219
-0.160156 -0.781250 -0.012243 153 162 171
-0.156250 -0.781250 -0.014083 62 77 91
-0.152344 -0.781250 -0.016323 30 42 47
-0.148438 -0.781250 -0.019260 51 60 60
-0.144531 -0.781250 -0.022980 106 112 114
-0.140625 -0.781250 -0.028447 77 92 100
-0.136719 -0.781250 -0.035699 53 66 77
-0.132812 -0.781250 -0.042814 103 105 111
-0.128906 -0.781250 -0.048293 152 147 144
-0.125000 -0.781250 -0.054459 124 124 131
-0.121094 -0.781250 -0.064665 37 47 63
-0.117188 -0.781250 -0.075778 11 16 26
-0.113281 -0.781250 -0.098333 7 10 19
0.042969 -0.781250 -0.062107 7 7 19
0.046875 -0.781250 -0.040652 25 34 61
0.050781 -0.781250 -0.030475 42 68 100
0.054688 -0.781250 -0.023315 47 80 115
0.058594 -0.781250 -0.016969 35 63 96
0.062500 -0.781250 -0.012302 48 80 106
0.066406 -0.781250 -0.008308 60 91 118
0.070312 -0.781250 -0.006006 60 87 114
0.074219 -0.781250 -0.004919 64 90 115
0.078125 -0.781250 -0.003712 53 75 102
0.082031 -0.781250 -0.002726 50 72 98
0.085938 -0.781250 -0.001653 55 83 111
0.089844 -0.781250 -0.000409 113 142 167
0.093750 -0.781250 -0.000397 200 210 217
0.097656 -0.781250 -0.002174 187 195 201
0.101562 -0.781250 -0.004137 170 180 187
0.105469 -0.781250 -0.005436 196 204 213
0.109375 -0.781250 -0.007254 146 164 189
0.113281 -0.781250 -0.010710 98 123 152
0.117188 -0.781250 -0.016438 105 121 149
0.121094 -0.781250 -0.024644 105 100 142
0.125000 -0.781250 -0.036399 136 119 159
-0.203125 -0.785156 -0.042620 177 175 194
-0.199219 -0.785156 -0.032980 228 227 227
-0.195312 -0.785156 -0.024323 199 199 200
-0.191406 -0.785156 -0.018781 212 217 209
-0.187500 -0.785156 -0.014788 124 133 141
-0.183594 -0.785156 -0.011781 108 118 132
-0.179688 -0.785156 -0.010435 181 187 194
-0.175781 -0.785156 -0.009894 182 191 203
-0.171875 -0.785156 -0.009592 140 155 175
-0.167969 -0.785156 -0.009545 162 171 191
-0.164062 -0.785156 -0.009911 206 212 220
-0.160156 -0.785156 -0.010730 222 224 226
-0.156250 -0.785156 -0.012022 211 212 214
-0.152344 -0.785156 -0.014376 132 150 148
-0.148438 -0.785156 -0.017947 81 99 101
-0.144531 -0.785156 -0.022207 136 140 140
-0.140625 -0.785156 -0.027600 144 149 147
-0.136719 -0.785156 -0.034968 53 66 75
-0.132812 -0.785156 -0.043534 33 36 48
-0.128906 -0.785156 -0.050256 122 105 111
-0.125000 -0.785156 -0.056317 198 186 182
-0.121094 -0.785156 -0.065247 96 104 114
-0.117188 -0.785156 -0.075575 54 64 81
-0.113281 -0.785156 -0.099131 104 114 131
0.042969 -0.785156 -0.023857 4 3 9
0.046875 -0.785156 -0.043943 49 60 97
0.050781 -0.785156 -0.030567 100 132 165
0.054688 -0.785156 -0.023662 85 126 155
0.058594 -0.785156 -0.016188 49 87 120
0.062500 -0.785156 -0.010226 48 81 115
0.066406 -0.785156 -0.005585 57 86 124
0.070312 -0.785156 -0.002849 61 85 121
0.074219 -0.785156 -0.001442 61 85 116
0.078125 -0.785156 -0.000025 44 66 98
0.082031 -0.785156 0.001117 58 80 113
0.085938 -0.785156 0.002355 123 144 171
0.089844 -0.785156 0.003688 197 206 215
0.093750 -0.785156 0.003242 214 217 220
0.097656 -0.785156 0.000715 128 139 151
0.101562 -0.785156 -0.001277 86 100 116
0.105469 -0.785156 -0.001789 182 186 200
0.109375 -0.785156 -0.002416 205 207 219
0.113281 -0.785156 -0.005022 168 183 197
0.117188 -0.785156 -0.009843 131 151 173
0.121094 -0.785156 -0.017786 91 102 140
0.125000 -0.785156 -0.027130 77 78 112
-0.203125 -0.789062 -0.039157 67 62 111
-0.199219 -0.789062 -0.027680 103 101 136
-0.195312 -0.789062 -0.020541 183 175 187
-0.191406 -0.789062 -0.015150 218 218 212
-0.187500 -0.789062 -0.012122 150 158 157
-0.183594 -0.789062 -0.010526 172 175 176
-0.179688 -0.789062 -0.009259 210 209 213
-0.175781 -0.789062 -0.008494 189 193 207
-0.171875 -0.789062 -0.008133 110 127 153
-0.167969 -0.789062 -0.008264 111 130 160
-0.164062 -0.789062 -0.008773 175 188 202
-0.160156 -0.789062 -0.009745 209 211 215
-0.156250 -0.789062 -0.011166 208 204 208
-0.152344 -0.789062 -0.013675 170 172 177
-0.148438 -0.789062 -0.017703 143 152 156
-0.144531 -0.789062 -0.022502 174 171 172
-0.140625 -0.789062 -0.027708 198 193 193
-0.136719 -0.789062 -0.034435 137 142 148
-0.132812 -0.789062 -0.043633 30 32 42
-0.128906 -0.789062 -0.052089 30 29 35
-0.125000 -0.789062 -0.058298 145 136 134
-0.121094 -0.789062 -0.065075 160 156 155
-0.117188 -0.789062 -0.076029 161 161 158
-0.113281 -0.789062 -0.097394 204 201 197
0.046875 -0.789062 -0.053425 20 28 50
0.050781 -0.789062 -0.034875 68 101 131
0.054688 -0.789062 -0.024602 45 77 109
0.058594 -0.789062 -0.015747 26 54 88
0.062500 -0.789062 -0.008037 28 59 94
0.066406 -0.789062 -0.002551 43 75 118
0.070312 -0.789062 0.000529 70 101 139
0.074219 -0.789062 0.002437 93 123 155
0.078125 -0.789062 0.004455 80 110 145
0.082031 -0.789062 0.005820 98 128 158
0.085938 -0.789062 0.006620 152 172 193
0.089844 -0.789062 0.007343 195 200 212
0.093750 -0.789062 0.007181 204 205 213
0.097656 -0.789062 0.005630 121 133 153
0.101562 -0.789062 0.003909 54 70 91
0.105469 -0.789062 0.003058 107 123 151
0.109375 -0.789062 0.002449 189 194 212
0.113281 -0.789062 0.000234 207 213 222
0.117188 -0.789062 -0.003930 208 216 222
0.121094 -0.789062 -0.010647 201 208 214
0.125000 -0.789062 -0.019143 156 163 179
0.128906 -0.789062 -0.030956 117 116 142
-0.207031 -0.792969 -0.019509 52 53 84
-0.203125 -0.792969 -0.031319 149 152 163
-0.199219 -0.792969 -0.022928 136 138 151
-0.195312 -0.792969 -0.015946 197 189 195
-0.191406 -0.792969 -0.011562 162 164 166
-0.187500 -0.792969 -0.009674 44 55 69
-0.183594 -0.792969 -0.008542 54 65 81
-0.179688 -0.792969 -0.007422 112 126 142
-0.175781 -0.792969 -0.006636 180 187 198
-0.171875 -0.792969 -0.006282 190 196 204
-0.167969 -0.792969 -0.006674 192 198 209
-0.164062 -0.792969 -0.007429 184 190 204
-0.160156 -0.792969 -0.008774 125 138 156
-0.156250 -0.792969 -0.010701 59 76 95
-0.152344 -0.792969 -0.013476 35 47 61
-0.148438 -0.792969 -0.017700 39 48 61
-0.144531 -0.792969 -0.022987 47 51 63
-0.140625 -0.792969 -0.028655 94 97 108
-0.136719 -0.792969 -0.035012 169 169 173
-0.132812 -0.792969 -0.043829 83 83 89
-0.128906 -0.792969 -0.053518 15 17 20
-0.125000 -0.792969 -0.060436 57 55 56
-0.121094 -0.792969 -0.067041 148 137 135
-0.117188 -0.792969 -0.077966 153 152 149
-0.113281 -0.792969 -0.092092 179 171 163
-0.109375 -0.792969 -0.116932 164 144 117
0.050781 -0.792969 -0.044757 21 35 57
0.054688 -0.792969 -0.028685 16 29 51
0.058594 -0.792969 -0.017039 35 62 91
0.062500 -0.792969 -0.007310 103 145 166
0.066406 -0.792969 -0.000789 149 180 195
0.070312 -0.792969 0.002908 172 194 203
0.074219 -0.792969 0.005587 197 208 216
0.078125 -0.792969 0.008413 198 206 217
0.082031 -0.792969 0.010224 202 213 219
0.085938 -0.792969 0.010685 187 203 212
0.089844 -0.792969 0.010576 156 172 190
0.093750 -0.792969 0.010837 185 196 205
0.097656 -0.792969 0.010835 204 212 218
0.101562 -0.792969 0.009731 181 194 202
0.105469 -0.792969 0.008423 155 173 186
0.109375 -0.792969 0.007424 170 180 197
0.113281 -0.792969 0.005236 201 206 216
0.117188 -0.792969 0.001218 197 208 216
0.121094 -0.792969 -0.004724 176 189 197
0.125000 -0.792969 -0.013206 178 180 187
0.128906 -0.792969 -0.021929 152 147 160
0.132812 -0.792969 -0.033221 130 119 130
-0.207031 -0.796875 -0.021722 182 192 191
-0.203125 -0.796875 -0.025734 151 162 157
-0.199219 -0.796875 -0.017832 178 181 179
-0.195312 -0.796875 -0.011539 224 218 218
-0.191406 -0.796875 -0.008274 181 177 183
-0.187500 -0.796875 -0.006567 113 122 136
-0.183594 -0.796875 -0.005491 122 138 150
-0.179688 -0.796875 -0.004698 140 159 172
-0.175781 -0.796875 -0.004284 192 202 208
-0.171875 -0.796875 -0.004248 215 219 222
-0.167969 -0.796875 -0.004989 231 232 234
-0.164062 -0.796875 -0.006246 234 233 234
-0.160156 -0.796875 -0.007994 221 224 220
-0.156250 -0.796875 -0.010320 204 213 206
-0.152344 -0.796875 -0.013302 159 171 167
-0.148438 -0.796875 -0.017477 108 114 125
-0.144531 -0.796875 -0.022955 42 52 66
-0.140625 -0.796875 -0.029352 31 39 49
-0.136719 -0.796875 -0.036141 135 136 142
-0.132812 -0.796875 -0.044677 152 149 153
-0.128906 -0.796875 -0.054733 30 36 39
-0.125000 -0.796875 -0.062437 36 38 38
-0.121094 -0.796875 -0.069198 140 125 124
-0.117188 -0.796875 -0.078893 172 165 166
-0.113281 -0.796875 -0.092887 134 134 132
-0.109375 -0.796875 -0.108027 166 161 135
0.050781 -0.796875 -0.049687 12 16 27
0.054688 -0.796875 -0.031721 13 20 31
0.058594 -0.796875 -0.019157 51 68 84
0.062500 -0.796875 -0.007565 113 129 140
0.066406 -0.796875 0.000183 85 101 120
0.070312 -0.796875 0.004983 61 78 97
0.074219 -0.796875 0.008587 77 95 119
0.078125 -0.796875 0.012028 107 121 149
0.082031 -0.796875 0.014070 168 181 194
0.085938 -0.796875 0.014402 187 200 208
0.089844 -0.796875 0.014171 167 182 192
0.093750 -0.796875 0.014682 207 215 218
0.097656 -0.796875 0.015084 234 236 237
0.101562 -0.796875 0.014578 231 233 235
0.105469 -0.796875 0.013792 210 215 221
0.109375 -0.796875 0.012692 166 175 189
0.113281 -0.796875 0.010524 170 176 193
0.117188 -0.796875 0.006917 189 198 212
0.121094 -0.796875 0.001478 147 166 185
0.125000 -0.796875 -0.006097 140 151 161
0.128906 -0.796875 -0.014957 173 166 167
0.132812 -0.796875 -0.023722 129 118 128
-0.207031 -0.800781 -0.028346 135 130 151
-0.203125 -0.800781 -0.020446 35 42 55
-0.199219 -0.800781 -0.012869 125 134 135
-0.195312 -0.800781 -0.007812 201 196 193
-0.191406 -0.800781 -0.005532 139 134 145
-0.187500 -0.800781 -0.003743 158 159 164
-0.183594 -0.800781 -0.002430 202 205 205
-0.179688 -0.800781 -0.001905 205 210 213
-0.175781 -0.800781 -0.001967 207 213 214
-0.171875 -0.800781 -0.002268 205 212 215
-0.167969 -0.800781 -0.003243 211 214 220
-0.164062 -0.800781 -0.005081 184 186 192
-0.160156 -0.800781 -0.007500 146 149 155
-0.156250 -0.800781 -0.010334 169 172 167
-0.152344 -0.800781 -0.013832 162 158 155
-0.148438 -0.800781 -0.018135 181 173 172
-0.144531 -0.800781 -0.023397 154 163 157
-0.140625 -0.800781 -0.030027 46 63 67
-0.136719 -0.800781 -0.037432 83 96 104
-0.132812 -0.800781 -0.046275 148 155 161
-0.128906 -0.800781 -0.056394 48 59 67
-0.125000 -0.800781 -0.064957 30 35 39
-0.121094 -0.800781 -0.072585 111 101 106
-0.117188 -0.800781 -0.080610 195 184 184
-0.113281 -0.800781 -0.092666 156 158 160
-0.109375 -0.800781 -0.107478 157 171 166
-0.105469 -0.800781 -0.128899 228 228 219
0.050781 -0.800781 -0.050926 11 13 19
0.054688 -0.800781 -0.031169 14 17 25
0.058594 -0.800781 -0.019724 23 28 39
0.062500 -0.800781 -0.007830 24 31 42
0.066406 -0.800781 0.001455 31 41 54
0.070312 -0.800781 0.007635 76 93 107
0.074219 -0.800781 0.011632 141 160 168
0.078125 -0.800781 0.015160 165 182 191
0.082031 -0.800781 0.017342 192 204 210
0.085938 -0.800781 0.017851 180 194 202
0.089844 -0.800781 0.018001 135 151 167
0.093750 -0.800781 0.018785 180 188 197
0.097656 -0.800781 0.019175 196 204 211
0.101562 -0.800781 0.018822 165 180 196
0.105469 -0.800781 0.018490 190 202 212
0.109375 -0.800781 0.017757 183 195 205
0.113281 -0.800781 0.015915 154 169 185
0.117188 -0.800781 0.012787 192 199 210
0.121094 -0.800781 0.008138 195 205 214
0.125000 -0.800781 0.001645 139 157 174
0.128906 -0.800781 -0.006801 132 137 146
0.132812 -0.800781 -0.014610 158 153 153
0.136719 -0.800781 -0.023241 99 96 111
0.140625 -0.800781 -0.032559 62 56 73
-0.207031 -0.804688 -0.027003 166 159 179
-0.203125 -0.804688 -0.014232 51 63 76
-0.199219 -0.804688 -0.007885 135 149 142
-0.195312 -0.804688 -0.003792 106 108 117
-0.191406 -0.804688 -0.002034 25 29 46
-0.187500 -0.804688 -0.000392 60 69 86
-0.183594 -0.804688 0.000789 150 158 166
-0.179688 -0.804688 0.000924 191 195 200
-0.175781 -0.804688 0.000519 212 212 212
-0.171875 -0.804688 -0.000083 203 205 210
-0.167969 -0.804688 -0.001360 158 165 181
-0.164062 -0.804688 -0.003648 45 54 75
-0.160156 -0.804688 -0.006534 8 11 22
-0.156250 -0.804688 -0.009768 8 11 20
-0.152344 -0.804688 -0.013996 9 11 19
-0.148438 -0.804688 -0.019014 40 43 54
-0.144531 -0.804688 -0.024618 125 129 119
-0.140625 -0.804688 -0.031282 43 56 59
-0.136719 -0.804688 -0.038546 52 69 81
-0.132812 -0.804688 -0.047711 134 144 154
-0.128906 -0.804688 -0.058383 57 66 74
-0.125000 -0.804688 -0.067204 35 37 42
-0.121094 -0.804688 -0.075087 82 77 82
-0.117188 -0.804688 -0.083098 155 147 148
-0.113281 -0.804688 -0.092824 198 193 192
-0.109375 -0.804688 -0.108394 194 190 194
-0.105469 -0.804688 -0.121091 100 79 92
0.050781 -0.804688 -0.049750 16 18 24
0.054688 -0.804688 -0.029289 21 23 32
0.058594 -0.804688 -0.018139 16 22 32
0.062500 -0.804688 -0.006922 25 35 47
0.066406 -0.804688 0.003027 121 139 143
0.070312 -0.804688 0.009934 210 215 212
0.074219 -0.804688 0.014081 222 225 224
0.078125 -0.804688 0.017653 210 217 217
0.082031 -0.804688 0.020123 205 212 212
0.085938 -0.804688 0.021164 203 208 210
0.089844 -0.804688 0.021822 164 175 189
0.093750 -0.804688 0.022827 175 185 200
0.097656 -0.804688 0.023303 179 195 207
0.101562 -0.804688 0.022726 149 176 192
0.105469 -0.804688 0.022151 210 219 223
0.109375 -0.804688 0.021822 231 233 236
0.113281 -0.804688 0.020530 203 212 220
0.117188 -0.804688 0.017831 190 199 208
0.121094 -0.804688 0.013936 209 212 218
0.125000 -0.804688 0.008530 179 186 197
0.128906 -0.804688 0.000913 97 111 128
0.132812 -0.804688 -0.006983 127 131 138
0.136719 -0.804688 -0.014500 186 176 180
0.140625 -0.804688 -0.022664 156 143 156
0.144531 -0.804688 -0.029586 171 151 168
-0.210938 -0.808594 -0.019467 174 178 196
-0.207031 -0.808594 -0.017744 163 163 182
-0.203125 -0.808594 -0.008439 68 81 103
-0.199219 -0.808594 -0.003149 165 178 175
-0.195312 -0.808594 0.000518 108 119 131
-0.191406 -0.808594 0.002251 69 80 105
-0.187500 -0.808594 0.003737 153 160 172
-0.183594 -0.808594 0.004406 163 170 182
-0.179688 -0.808594 0.004001 162 173 184
-0.175781 -0.808594 0.003181 207 209 210
-0.171875 -0.808594 0.002122 215 217 217
-0.167969 -0.808594 0.000316 214 219 218
-0.164062 -0.808594 -0.002331 200 205 204
-0.160156 -0.808594 -0.005433 165 171 176
-0.156250 -0.808594 -0.008910 160 165 168
-0.152344 -0.808594 -0.013546 73 85 101
-0.148438 -0.808594 -0.019267 36 42 60
-0.144531 -0.808594 -0.025625 47 49 60
-0.140625 -0.808594 -0.032450 20 25 33
-0.136719 -0.808594 -0.039341 48 60 77
-0.132812 -0.808594 -0.048785 145 150 161
-0.128906 -0.808594 -0.060269 55 60 68
-0.125000 -0.808594 -0.069155 33 34 36
-0.121094 -0.808594 -0.076333 65 63 66
-0.117188 -0.808594 -0.084619 89 91 95
-0.113281 -0.808594 -0.093682 194 195 189
-0.109375 -0.808594 -0.107445 191 189 183
-0.105469 -0.808594 -0.124073 11 7 10
0.050781 -0.808594 -0.047963 17 19 23
0.054688 -0.808594 -0.027857 23 27 31
0.058594 -0.808594 -0.016437 18 24 32
0.062500 -0.808594 -0.005492 25 31 43
0.066406 -0.808594 0.004039 77 82 97
0.070312 -0.808594 0.011438 57 66 83
0.074219 -0.808594 0.016696 26 34 53
0.078125 -0.808594 0.020870 16 23 39
0.082031 -0.808594 0.023612 20 26 43
0.085938 -0.808594 0.024923 98 104 123
0.089844 -0.808594 0.025658 175 178 191
0.093750 -0.808594 0.026567 196 204 212
0.097656 -0.808594 0.027058 210 221 224
0.101562 -0.808594 0.026509 181 198 207
0.105469 -0.808594 0.025688 170 180 192
0.109375 -0.808594 0.025573 196 201 209
0.113281 -0.808594 0.024968 201 210 218
0.117188 -0.808594 0.022652 185 198 210
0.121094 -0.808594 0.018952 196 203 211
0.125000 -0.808594 0.014182 210 211 214
0.128906 -0.808594 0.007505 155 166 173
0.132812 -0.808594 0.000008 102 115 131
0.136719 -0.808594 -0.008479 163 161 171
0.140625 -0.808594 -0.016560 195 197 194
0.144531 -0.808594 -0.022947 178 178 173
0.148438 -0.808594 -0.026789 187 178 177
-0.210938 -0.812500 -0.020704 188 177 197
-0.207031 -0.812500 -0.009890 94 83 120
-0.203125 -0.812500 -0.003979 93 95 125
-0.199219 -0.812500 0.001101 203 210 209
-0.195312 -0.812500 0.004391 164 180 183
-0.191406 -0.812500 0.006011 183 191 195
-0.187500 -0.812500 0.007486 223 222 222
-0.183594 -0.812500 0.007921 198 197 205
-0.179688 -0.812500 0.007113 189 194 199
-0.175781 -0.812500 0.005674 198 203 204
-0.171875 -0.812500 0.004026 157 163 172
-0.167969 -0.812500 0.001745 156 163 167
-0.164062 -0.812500 -0.001244 148 155 161
-0.160156 -0.812500 -0.004751 122 128 141
-0.156250 -0.812500 -0.008673 173 177 176
-0.152344 -0.812500 -0.013644 150 154 157
-0.148438 -0.812500 -0.019709 52 54 71
-0.144531 -0.812500 -0.026274 25 29 40
-0.140625 -0.812500 -0.033119 20 26 36
-0.136719 -0.812500 -0.040113 68 80 95
-0.132812 -0.812500 -0.049855 155 156 162
-0.128906 -0.812500 -0.061646 44 48 57
-0.125000 -0.812500 -0.070898 23 24 28
-0.121094 -0.812500 -0.078099 59 56 59
-0.117188 -0.812500 -0.085588 68 71 72
-0.113281 -0.812500 -0.093581 179 185 175
-0.109375 -0.812500 -0.106761 193 198 190
-0.105469 -0.812500 -0.124836 12 9 12
0.050781 -0.812500 -0.046249 13 16 19
0.054688 -0.812500 -0.026358 16 19 23
0.058594 -0.812500 -0.014421 16 23 29
0.062500 -0.812500 -0.003615 15 19 27
0.066406 -0.812500 0.005608 33 37 51
0.070312 -0.812500 0.013788 46 56 73
0.074219 -0.812500 0.020600 60 74 93
0.078125 -0.812500 0.025604 67 74 95
0.082031 -0.812500 0.028585 53 52 74
0.085938 -0.812500 0.029801 98 87 112
0.089844 -0.812500 0.030129 108 109 137
0.093750 -0.812500 0.030672 75 93 122
0.097656 -0.812500 0.031092 127 148 160
0.101562 -0.812500 0.030839 126 147 162
0.105469 -0.812500 0.030138 52 73 98
0.109375 -0.812500 0.029971 57 80 103
0.113281 -0.812500 0.029736 147 163 179
0.117188 -0.812500 0.027679 185 197 208
0.121094 -0.812500 0.023943 181 196 207
0.125000 -0.812500 0.019268 201 206 212
0.128906 -0.812500 0.013245 205 207 210
0.132812 -0.812500 0.005868 142 151 158
0.136719 -0.812500 -0.003267 94 104 119
0.140625 -0.812500 -0.011996 162 169 175
0.144531 -0.812500 -0.019015 216 214 213
0.148438 -0.812500 -0.024061 228 220 218
0.152344 -0.812500 -0.028668 179 164 169
-0.214844 -0.816406 -0.018184 19 21 37
-0.210938 -0.816406 -0.011605 44 44 59
-0.207031 -0.816406 -0.003722 21 19 31
-0.203125 -0.816406 0.001146 59 60 77
-0.199219 -0.816406 0.005357 146 152 157
-0.195312 -0.816406 0.008279 109 124 140
-0.191406 -0.816406 0.009965 145 159 166
-0.187500 -0.816406 0.011037 187 195 195
-0.183594 -0.816406 0.011043 182 184 192
-0.179688 -0.816406 0.010082 201 201 205
-0.175781 -0.816406 0.008341 161 170 182
-0.171875 -0.816406 0.006234 58 68 96
-0.167969 -0.816406 0.003641 57 66 85
-0.164062 -0.816406 0.000387 42 53 69
-0.160156 -0.816406 -0.003488 20 27 41
-0.156250 -0.816406 -0.007943 43 53 69
-0.152344 -0.816406 -0.013512 67 73 84
-0.148438 -0.816406 -0.020022 40 42 49
-0.144531 -0.816406 -0.026820 32 36 42
-0.140625 -0.816406 -0.033619 33 41 50
-0.136719 -0.816406 -0.040469 75 86 97
-0.132812 -0.816406 -0.050250 141 144 146
-0.128906 -0.816406 -0.062433 39 43 51
-0.125000 -0.816406 -0.072180 21 22 27
-0.121094 -0.816406 -0.079177 71 63 65
-0.117188 -0.816406 -0.086446 76 75 75
-0.113281 -0.816406 -0.094258 179 179 170
-0.109375 -0.816406 -0.107719 182 176 174
-0.105469 -0.816406 -0.126189 6 4 8
0.050781 -0.816406 -0.044067 18 19 23
0.054688 -0.816406 -0.023803 18 20 25
0.058594 -0.816406 -0.011740 25 34 41
0.062500 -0.816406 -0.000871 19 27 37
0.066406 -0.816406 0.008510 46 54 70
0.070312 -0.816406 0.017115 125 133 143
0.074219 -0.816406 0.024995 158 164 171
0.078125 -0.816406 0.030691 154 154 160
0.082031 -0.816406 0.033892 137 124 139
0.085938 -0.816406 0.035084 152 133 148
0.089844 -0.816406 0.035295 133 136 149
0.093750 -0.816406 0.035723 62 85 113
0.097656 -0.816406 0.036128 100 123 144
0.101562 -0.816406 0.036097 176 187 195
0.105469 -0.816406 0.035488 133 155 173
0.109375 -0.816406 0.034738 104 125 150
0.113281 -0.816406 0.034042 172 176 190
0.117188 -0.816406 0.032299 211 214 218
0.121094 -0.816406 0.028949 186 199 208
0.125000 -0.816406 0.024198 144 159 180
0.128906 -0.816406 0.018086 190 192 201
0.132812 -0.816406 0.010663 201 201 200
0.136719 -0.816406 0.001415 121 132 136
0.140625 -0.816406 -0.007904 121 133 146
0.144531 -0.816406 -0.015009 208 209 213
0.148438 -0.816406 -0.021580 218 216 217
0.152344 -0.816406 -0.028274 154 153 158
