ply
    format ascii 1.0
    element vertex 53582
    property float x
    property float y
    property float z
    property uchar red
    property uchar green
    property uchar blue
    end_header
-0.011719 -0.285156 0.030498 16 18 23
-0.007812 -0.285156 0.026810 13 14 17
-0.003906 -0.285156 0.022691 9 9 12
0.000000 -0.285156 0.019067 6 6 8
0.003906 -0.285156 0.016332 5 5 6
0.007812 -0.285156 0.012571 4 4 6
0.011719 -0.285156 0.008883 4 4 6
0.015625 -0.285156 0.007366 3 4 6
0.019531 -0.285156 0.011050 2 3 5
0.023438 -0.285156 0.028971 3 3 6
0.027344 -0.285156 0.068130 5 5 9
0.031250 -0.285156 0.095369 11 8 13
0.035156 -0.285156 0.118141 76 39 47
0.039062 -0.285156 0.135395 218 143 140
0.042969 -0.285156 0.145657 243 178 171
0.046875 -0.285156 0.147857 237 147 135
0.050781 -0.285156 0.139732 201 87 74
0.054688 -0.285156 0.120107 151 50 46
0.058594 -0.285156 0.093480 145 50 49
0.062500 -0.285156 0.096218 142 54 51
0.066406 -0.285156 0.093368 129 54 49
0.070312 -0.285156 0.092213 100 43 40
0.074219 -0.285156 0.105771 83 36 34
0.078125 -0.285156 0.145242 114 53 48
0.082031 -0.285156 0.159387 155 81 70
0.085938 -0.285156 0.156788 170 96 82
0.089844 -0.285156 0.141517 167 95 81
0.093750 -0.285156 0.130691 151 81 68
0.097656 -0.285156 0.118803 124 62 52
0.101562 -0.285156 0.120677 109 53 46
0.105469 -0.285156 0.133682 132 67 59
0.109375 -0.285156 0.141218 152 81 70
0.113281 -0.285156 0.143951 135 68 59
0.117188 -0.285156 0.143412 138 71 61
0.121094 -0.285156 0.145800 173 102 88
0.125000 -0.285156 0.095016 162 94 84
0.128906 -0.285156 0.063605 50 28 30
0.132812 -0.285156 0.064844 12 10 14
0.136719 -0.285156 0.063351 17 15 21
0.140625 -0.285156 0.062879 19 18 23
0.144531 -0.285156 0.060378 15 15 19
0.148438 -0.285156 0.057883 16 16 20
0.152344 -0.285156 0.055077 14 16 19
0.156250 -0.285156 0.052222 14 16 20
0.160156 -0.285156 0.048092 14 16 20
0.164062 -0.285156 0.043043 16 18 22
0.167969 -0.285156 0.037743 20 22 25
0.171875 -0.285156 0.031727 20 22 25
0.175781 -0.285156 0.025960 20 21 24
0.179688 -0.285156 0.020380 25 27 30
0.183594 -0.285156 0.012359 18 19 25
-0.132812 -0.289062 0.020262 1 1 3
-0.128906 -0.289062 0.029544 19 22 28
-0.125000 -0.289062 0.037496 14 17 24
-0.121094 -0.289062 0.043362 16 22 29
-0.117188 -0.289062 0.047811 16 24 33
-0.113281 -0.289062 0.051099 21 31 41
-0.109375 -0.289062 0.053988 22 33 44
-0.105469 -0.289062 0.055901 28 40 51
-0.101562 -0.289062 0.056998 34 47 58
-0.097656 -0.289062 0.057588 30 41 53
-0.093750 -0.289062 0.057951 33 43 56
-0.089844 -0.289062 0.057912 35 45 58
-0.085938 -0.289062 0.057572 34 43 55
-0.082031 -0.289062 0.057156 35 44 57
-0.078125 -0.289062 0.056731 32 42 54
-0.074219 -0.289062 0.056033 25 33 45
-0.070312 -0.289062 0.055045 23 29 40
-0.066406 -0.289062 0.053978 22 27 37
-0.062500 -0.289062 0.052883 21 24 34
-0.058594 -0.289062 0.051691 21 24 33
-0.054688 -0.289062 0.050408 20 22 31
-0.050781 -0.289062 0.049115 19 20 30
-0.046875 -0.289062 0.047846 18 19 29
-0.042969 -0.289062 0.046460 18 20 30
-0.039062 -0.289062 0.044963 19 21 31
-0.035156 -0.289062 0.043432 19 20 31
-0.031250 -0.289062 0.041803 20 21 31
-0.027344 -0.289062 0.039947 20 21 31
-0.023438 -0.289062 0.037747 18 19 28
-0.019531 -0.289062 0.035339 17 18 26
-0.015625 -0.289062 0.032654 15 17 24
-0.011719 -0.289062 0.029393 15 17 22
-0.007812 -0.289062 0.025297 14 15 19
-0.003906 -0.289062 0.020737 11 12 14
0.000000 -0.289062 0.016460 8 8 10
0.003906 -0.289062 0.012167 6 6 7
0.007812 -0.289062 0.007058 4 4 6
0.011719 -0.289062 0.004109 4 4 5
0.015625 -0.289062 0.001821 3 3 5
0.019531 -0.289062 0.003240 3 3 5
0.023438 -0.289062 0.010363 4 5 8
0.027344 -0.289062 0.066737 8 7 11
0.031250 -0.289062 0.101981 26 16 23
0.035156 -0.289062 0.122238 161 86 97
0.039062 -0.289062 0.133912 233 161 158
0.042969 -0.289062 0.139444 226 127 118
0.046875 -0.289062 0.138206 190 75 73
0.050781 -0.289062 0.128842 154 54 53
0.054688 -0.289062 0.109247 133 44 44
0.058594 -0.289062 0.098558 121 41 39
0.062500 -0.289062 0.099365 107 37 33
0.066406 -0.289062 0.093473 99 37 33
0.070312 -0.289062 0.089703 101 43 40
0.074219 -0.289062 0.131746 124 61 55
0.078125 -0.289062 0.157829 165 93 80
0.082031 -0.289062 0.157565 179 103 89
0.085938 -0.289062 0.150581 166 90 78
0.089844 -0.289062 0.135989 141 72 63
0.093750 -0.289062 0.128265 124 61 54
0.097656 -0.289062 0.127185 124 61 54
0.101562 -0.289062 0.128835 141 75 65
0.105469 -0.289062 0.135403 161 91 76
0.109375 -0.289062 0.140977 149 78 66
0.113281 -0.289062 0.142601 129 61 55
0.117188 -0.289062 0.145125 155 83 74
0.121094 -0.289062 0.133336 166 99 85
0.125000 -0.289062 0.064636 100 52 48
0.128906 -0.289062 0.063889 26 15 18
0.132812 -0.289062 0.064595 14 11 16
0.136719 -0.289062 0.063704 24 21 29
0.140625 -0.289062 0.062560 22 20 26
0.144531 -0.289062 0.059948 17 17 21
0.148438 -0.289062 0.057039 17 17 21
0.152344 -0.289062 0.053986 14 16 19
0.156250 -0.289062 0.050986 14 16 19
0.160156 -0.289062 0.046695 14 16 19
0.164062 -0.289062 0.041703 18 19 23
0.167969 -0.289062 0.036277 22 24 27
0.171875 -0.289062 0.030082 21 22 25
0.175781 -0.289062 0.023839 20 21 24
0.179688 -0.289062 0.017626 23 25 29
0.183594 -0.289062 0.007551 15 15 23
-0.132812 -0.292969 0.021199 1 1 4
-0.128906 -0.292969 0.031899 18 20 27
-0.125000 -0.292969 0.039246 14 16 23
-0.121094 -0.292969 0.044472 18 23 32
-0.117188 -0.292969 0.048809 19 27 37
-0.113281 -0.292969 0.051959 23 32 43
-0.109375 -0.292969 0.054772 24 35 47
-0.105469 -0.292969 0.056591 30 42 55
-0.101562 -0.292969 0.057516 36 48 61
-0.097656 -0.292969 0.058025 33 44 58
-0.093750 -0.292969 0.058383 36 48 62
-0.089844 -0.292969 0.058352 39 50 65
-0.085938 -0.292969 0.058024 37 47 61
-0.082031 -0.292969 0.057617 36 46 60
-0.078125 -0.292969 0.057215 34 44 57
-0.074219 -0.292969 0.056560 29 37 50
-0.070312 -0.292969 0.055621 27 34 45
-0.066406 -0.292969 0.054574 26 31 42
-0.062500 -0.292969 0.053479 24 28 38
-0.058594 -0.292969 0.052270 23 27 36
-0.054688 -0.292969 0.050906 22 24 33
-0.050781 -0.292969 0.049539 21 23 33
-0.046875 -0.292969 0.048248 22 24 34
-0.042969 -0.292969 0.046760 23 26 36
-0.039062 -0.292969 0.045061 26 28 39
-0.035156 -0.292969 0.043271 24 26 37
-0.031250 -0.292969 0.041336 23 25 35
-0.027344 -0.292969 0.039159 21 23 33
-0.023438 -0.292969 0.036633 17 19 27
-0.019531 -0.292969 0.033916 15 17 24
-0.015625 -0.292969 0.030952 15 16 23
-0.011719 -0.292969 0.027357 14 16 21
-0.007812 -0.292969 0.022884 14 15 19
-0.003906 -0.292969 0.017959 11 12 15
0.000000 -0.292969 0.012923 8 8 10
0.003906 -0.292969 0.007675 6 5 7
0.007812 -0.292969 0.002700 4 4 5
0.011719 -0.292969 -0.001479 3 3 5
0.015625 -0.292969 -0.004395 3 3 4
0.019531 -0.292969 -0.001612 3 3 5
0.023438 -0.292969 -0.001316 5 5 8
0.027344 -0.292969 0.052957 10 8 12
0.031250 -0.292969 0.096657 48 25 33
0.035156 -0.292969 0.115549 192 113 121
0.039062 -0.292969 0.124796 212 124 123
0.042969 -0.292969 0.126871 154 62 59
0.046875 -0.292969 0.125105 132 49 51
0.050781 -0.292969 0.120682 143 56 57
0.054688 -0.292969 0.118111 127 48 46
0.058594 -0.292969 0.109405 100 36 34
0.062500 -0.292969 0.106648 89 33 30
0.066406 -0.292969 0.111185 103 41 37
0.070312 -0.292969 0.122390 131 60 53
0.074219 -0.292969 0.145922 160 84 74
0.078125 -0.292969 0.146218 167 92 79
0.082031 -0.292969 0.138369 150 76 66
0.085938 -0.292969 0.131124 131 62 54
0.089844 -0.292969 0.127911 120 57 51
0.093750 -0.292969 0.130777 131 65 59
0.097656 -0.292969 0.137041 158 85 76
0.101562 -0.292969 0.135867 170 96 84
0.105469 -0.292969 0.129302 146 76 65
0.109375 -0.292969 0.131686 114 53 46
0.113281 -0.292969 0.141967 137 66 59
0.117188 -0.292969 0.141016 181 105 92
0.121094 -0.292969 0.086089 137 76 66
0.125000 -0.292969 0.065771 43 24 24
0.128906 -0.292969 0.066204 19 13 15
0.132812 -0.292969 0.064662 23 19 24
0.136719 -0.292969 0.063557 31 27 34
0.140625 -0.292969 0.062032 24 21 26
0.144531 -0.292969 0.059528 19 18 22
0.148438 -0.292969 0.056283 17 18 21
0.152344 -0.292969 0.053072 14 15 18
0.156250 -0.292969 0.049657 13 15 18
0.160156 -0.292969 0.045409 14 16 19
0.164062 -0.292969 0.040349 19 21 24
0.167969 -0.292969 0.034655 23 24 27
0.171875 -0.292969 0.028118 21 23 25
0.175781 -0.292969 0.021500 20 21 24
0.179688 -0.292969 0.014704 23 24 28
-0.136719 -0.296875 -0.005019 0 0 0
-0.132812 -0.296875 0.023554 4 3 11
-0.128906 -0.296875 0.033791 21 21 30
-0.125000 -0.296875 0.040724 14 16 25
-0.121094 -0.296875 0.045653 18 23 35
-0.117188 -0.296875 0.049652 20 27 40
-0.113281 -0.296875 0.052577 22 30 43
-0.109375 -0.296875 0.055272 24 33 46
-0.105469 -0.296875 0.057015 30 40 53
-0.101562 -0.296875 0.057866 35 45 59
-0.097656 -0.296875 0.058358 35 45 59
-0.093750 -0.296875 0.058719 38 49 64
-0.089844 -0.296875 0.058731 41 53 68
-0.085938 -0.296875 0.058423 38 49 63
-0.082031 -0.296875 0.058011 33 43 56
-0.078125 -0.296875 0.057618 31 39 52
-0.074219 -0.296875 0.057016 27 35 47
-0.070312 -0.296875 0.056158 25 31 43
-0.066406 -0.296875 0.055188 24 29 40
-0.062500 -0.296875 0.054155 22 28 37
-0.058594 -0.296875 0.052959 22 27 36
-0.054688 -0.296875 0.051532 23 26 35
-0.050781 -0.296875 0.050005 24 27 36
-0.046875 -0.296875 0.048545 25 27 37
-0.042969 -0.296875 0.046872 26 28 38
-0.039062 -0.296875 0.044856 24 26 37
-0.035156 -0.296875 0.042706 20 21 31
-0.031250 -0.296875 0.040450 18 19 28
-0.027344 -0.296875 0.037967 17 18 27
-0.023438 -0.296875 0.035147 15 16 24
-0.019531 -0.296875 0.032139 14 16 22
-0.015625 -0.296875 0.028918 14 16 22
-0.011719 -0.296875 0.025048 14 15 21
-0.007812 -0.296875 0.020256 14 15 19
-0.003906 -0.296875 0.014851 11 12 15
0.000000 -0.296875 0.009286 8 8 10
0.003906 -0.296875 0.003570 6 6 7
0.007812 -0.296875 -0.001967 4 4 5
0.011719 -0.296875 -0.006651 3 3 5
0.015625 -0.296875 -0.010211 3 3 5
0.019531 -0.296875 -0.008073 4 4 6
0.023438 -0.296875 -0.004356 7 7 10
0.027344 -0.296875 0.027522 11 8 12
0.031250 -0.296875 0.073252 32 18 23
0.035156 -0.296875 0.088903 110 55 61
0.039062 -0.296875 0.095462 109 46 51
0.042969 -0.296875 0.097999 71 26 28
0.046875 -0.296875 0.105764 80 31 32
0.050781 -0.296875 0.114403 93 36 37
0.054688 -0.296875 0.120311 99 37 36
0.058594 -0.296875 0.122552 105 40 37
0.062500 -0.296875 0.125398 114 48 43
0.066406 -0.296875 0.130122 134 62 55
0.070312 -0.296875 0.135803 145 71 62
0.074219 -0.296875 0.138958 153 78 68
0.078125 -0.296875 0.136825 147 73 63
0.082031 -0.296875 0.129375 127 58 51
0.085938 -0.296875 0.125065 118 54 49
0.089844 -0.296875 0.128569 134 66 59
0.093750 -0.296875 0.134780 163 89 79
0.097656 -0.296875 0.139611 169 95 83
0.101562 -0.296875 0.137341 150 76 68
0.105469 -0.296875 0.128020 114 52 47
0.109375 -0.296875 0.126340 102 47 43
0.113281 -0.296875 0.133574 148 78 67
0.117188 -0.296875 0.110889 172 97 83
0.121094 -0.296875 0.067438 84 41 39
0.125000 -0.296875 0.069782 20 12 14
0.128906 -0.296875 0.066035 15 12 15
0.132812 -0.296875 0.065656 23 20 25
0.136719 -0.296875 0.063536 26 23 28
0.140625 -0.296875 0.061476 21 19 22
0.144531 -0.296875 0.058897 19 18 21
0.148438 -0.296875 0.055466 16 17 20
0.152344 -0.296875 0.052114 13 15 17
0.156250 -0.296875 0.048408 13 14 17
0.160156 -0.296875 0.044208 15 17 19
0.164062 -0.296875 0.038847 21 23 24
0.167969 -0.296875 0.032894 22 23 26
0.171875 -0.296875 0.026501 21 22 25
0.175781 -0.296875 0.019715 21 22 25
0.179688 -0.296875 0.010390 22 22 27
-0.136719 -0.300781 0.006617 0 0 2
-0.132812 -0.300781 0.026560 13 12 27
-0.128906 -0.300781 0.035604 25 26 37
-0.125000 -0.300781 0.042266 16 18 30
-0.121094 -0.300781 0.047027 20 27 40
-0.117188 -0.300781 0.050619 24 32 46
-0.113281 -0.300781 0.053453 24 32 46
-0.109375 -0.300781 0.056035 26 35 49
-0.105469 -0.300781 0.057668 31 41 55
-0.101562 -0.300781 0.058413 34 44 58
-0.097656 -0.300781 0.058819 34 44 59
-0.093750 -0.300781 0.059138 37 47 63
-0.089844 -0.300781 0.059161 41 52 67
-0.085938 -0.300781 0.058917 40 50 65
-0.082031 -0.300781 0.058556 33 43 56
-0.078125 -0.300781 0.058179 30 39 52
-0.074219 -0.300781 0.057605 28 36 49
-0.070312 -0.300781 0.056797 26 33 45
-0.066406 -0.300781 0.055877 27 34 44
-0.062500 -0.300781 0.054870 29 35 45
-0.058594 -0.300781 0.053627 30 36 44
-0.054688 -0.300781 0.052063 29 33 42
-0.050781 -0.300781 0.050332 26 29 39
-0.046875 -0.300781 0.048603 24 26 36
-0.042969 -0.300781 0.046675 21 24 34
-0.039062 -0.300781 0.044421 19 21 30
-0.035156 -0.300781 0.042018 16 17 26
-0.031250 -0.300781 0.039524 15 16 25
-0.027344 -0.300781 0.036814 15 16 24
-0.023438 -0.300781 0.033779 14 15 22
-0.019531 -0.300781 0.030552 13 15 20
-0.015625 -0.300781 0.027120 13 14 19
-0.011719 -0.300781 0.023009 12 13 18
-0.007812 -0.300781 0.017927 12 13 17
-0.003906 -0.300781 0.012240 10 11 14
0.000000 -0.300781 0.006183 8 8 10
0.003906 -0.300781 -0.000346 6 6 7
0.007812 -0.300781 -0.006260 4 4 5
0.011719 -0.300781 -0.011240 3 3 5
0.015625 -0.300781 -0.015027 3 3 5
0.019531 -0.300781 -0.013911 4 5 6
0.023438 -0.300781 -0.005604 8 8 10
0.027344 -0.300781 0.011759 9 7 10
0.031250 -0.300781 0.038238 13 8 11
0.035156 -0.300781 0.048536 26 14 18
0.039062 -0.300781 0.057696 33 15 18
0.042969 -0.300781 0.067531 50 22 22
0.046875 -0.300781 0.084782 84 38 34
0.050781 -0.300781 0.114389 97 43 40
0.054688 -0.300781 0.127208 120 51 47
0.058594 -0.300781 0.132739 141 64 56
0.062500 -0.300781 0.135996 146 70 61
0.066406 -0.300781 0.136962 147 73 64
0.070312 -0.300781 0.135661 132 63 55
0.074219 -0.300781 0.132684 118 54 48
0.078125 -0.300781 0.132304 112 49 44
0.082031 -0.300781 0.132751 108 47 43
0.085938 -0.300781 0.133637 116 53 49
0.089844 -0.300781 0.136867 144 72 66
0.093750 -0.300781 0.139104 161 88 78
0.097656 -0.300781 0.138094 137 71 63
0.101562 -0.300781 0.136119 118 57 52
0.105469 -0.300781 0.133348 119 57 52
0.109375 -0.300781 0.123857 116 56 52
0.113281 -0.300781 0.095085 113 57 51
0.117188 -0.300781 0.070015 88 43 39
0.121094 -0.300781 0.072757 32 16 18
0.125000 -0.300781 0.070201 13 9 12
0.128906 -0.300781 0.066975 16 13 17
0.132812 -0.300781 0.065923 22 19 22
0.136719 -0.300781 0.063351 20 19 22
0.140625 -0.300781 0.060947 18 18 20
0.144531 -0.300781 0.058139 17 17 20
0.148438 -0.300781 0.054694 14 16 18
0.152344 -0.300781 0.051011 13 14 16
0.156250 -0.300781 0.047239 12 14 17
0.160156 -0.300781 0.043035 16 18 20
0.164062 -0.300781 0.037391 23 24 25
0.167969 -0.300781 0.031223 19 20 23
0.171875 -0.300781 0.024483 19 20 23
0.175781 -0.300781 0.017020 19 19 23
0.179688 -0.300781 0.005437 19 18 24
-0.136719 -0.304688 0.012035 2 2 10
-0.132812 -0.304688 0.028637 9 9 20
-0.128906 -0.304688 0.037395 18 18 28
-0.125000 -0.304688 0.044041 14 17 28
-0.121094 -0.304688 0.048535 19 26 39
-0.117188 -0.304688 0.051766 24 33 46
-0.113281 -0.304688 0.054482 23 32 45
-0.109375 -0.304688 0.056938 27 37 50
-0.105469 -0.304688 0.058462 33 44 57
-0.101562 -0.304688 0.059114 36 46 60
-0.097656 -0.304688 0.059467 35 46 61
-0.093750 -0.304688 0.059746 36 47 62
-0.089844 -0.304688 0.059752 39 51 66
-0.085938 -0.304688 0.059569 40 51 67
-0.082031 -0.304688 0.059266 36 47 61
-0.078125 -0.304688 0.058904 36 48 61
-0.074219 -0.304688 0.058327 36 47 60
-0.070312 -0.304688 0.057472 34 44 56
-0.066406 -0.304688 0.056501 35 44 54
-0.062500 -0.304688 0.055436 37 43 53
-0.058594 -0.304688 0.054073 34 39 47
-0.054688 -0.304688 0.052355 28 31 40
-0.050781 -0.304688 0.050457 22 25 34
-0.046875 -0.304688 0.048560 19 22 31
-0.042969 -0.304688 0.046433 17 20 30
-0.039062 -0.304688 0.044045 16 18 28
-0.035156 -0.304688 0.041541 15 17 27
-0.031250 -0.304688 0.038905 15 17 25
-0.027344 -0.304688 0.036030 14 16 23
-0.023438 -0.304688 0.032829 13 15 20
-0.019531 -0.304688 0.029452 12 14 19
-0.015625 -0.304688 0.025898 11 13 17
-0.011719 -0.304688 0.021639 11 12 16
-0.007812 -0.304688 0.016290 11 12 15
-0.003906 -0.304688 0.010180 9 10 13
0.000000 -0.304688 0.003400 8 8 10
0.003906 -0.304688 -0.003757 6 6 7
0.007812 -0.304688 -0.009827 4 3 5
0.011719 -0.304688 -0.015235 3 3 4
0.015625 -0.304688 -0.019168 3 3 4
0.019531 -0.304688 -0.018260 3 4 5
0.023438 -0.304688 -0.009612 5 5 6
0.027344 -0.304688 0.009395 4 4 5
0.031250 -0.304688 0.033864 4 3 5
0.035156 -0.304688 0.047004 6 4 6
0.039062 -0.304688 0.056239 12 6 8
0.042969 -0.304688 0.062827 42 22 21
0.046875 -0.304688 0.069138 100 53 43
0.050781 -0.304688 0.081889 120 60 51
0.054688 -0.304688 0.106976 129 62 53
0.058594 -0.304688 0.125001 133 63 55
0.062500 -0.304688 0.133764 123 57 51
0.066406 -0.304688 0.134754 116 53 48
0.070312 -0.304688 0.131973 104 46 41
0.074219 -0.304688 0.128208 93 40 37
0.078125 -0.304688 0.127371 97 44 39
0.082031 -0.304688 0.127404 108 52 45
0.085938 -0.304688 0.127285 114 56 50
0.089844 -0.304688 0.129329 121 61 56
0.093750 -0.304688 0.131768 125 65 58
0.097656 -0.304688 0.132834 112 57 52
0.101562 -0.304688 0.131888 122 64 59
0.105469 -0.304688 0.126532 134 74 66
0.109375 -0.304688 0.105155 97 48 45
0.113281 -0.304688 0.074857 49 24 25
0.117188 -0.304688 0.074100 24 13 15
0.121094 -0.304688 0.074217 13 8 11
0.125000 -0.304688 0.069912 13 10 14
0.128906 -0.304688 0.067875 19 16 19
0.132812 -0.304688 0.065810 21 19 21
0.136719 -0.304688 0.063093 19 18 20
0.140625 -0.304688 0.060308 17 17 19
0.144531 -0.304688 0.057271 15 16 18
0.148438 -0.304688 0.053833 12 14 17
0.152344 -0.304688 0.049752 12 14 16
0.156250 -0.304688 0.046018 13 14 17
0.160156 -0.304688 0.041690 17 19 20
0.164062 -0.304688 0.035744 24 24 25
0.167969 -0.304688 0.029291 18 19 22
0.171875 -0.304688 0.022123 19 20 23
0.175781 -0.304688 0.013278 18 18 23
-0.136719 -0.308594 0.016118 13 13 28
-0.132812 -0.308594 0.030796 11 11 20
-0.128906 -0.308594 0.039168 17 19 27
-0.125000 -0.308594 0.045757 14 18 28
-0.121094 -0.308594 0.050135 17 24 36
-0.117188 -0.308594 0.053088 22 31 43
-0.113281 -0.308594 0.055671 20 28 40
-0.109375 -0.308594 0.058049 25 34 46
-0.105469 -0.308594 0.059497 33 43 57
-0.101562 -0.308594 0.060076 37 48 63
-0.097656 -0.308594 0.060394 41 52 68
-0.093750 -0.308594 0.060625 42 54 70
-0.089844 -0.308594 0.060578 43 55 71
-0.085938 -0.308594 0.060387 43 55 71
-0.082031 -0.308594 0.060082 41 53 67
-0.078125 -0.308594 0.059686 43 56 68
-0.074219 -0.308594 0.059044 41 53 64
-0.070312 -0.308594 0.058066 36 46 56
-0.066406 -0.308594 0.056955 33 40 49
-0.062500 -0.308594 0.055772 30 35 44
-0.058594 -0.308594 0.054292 26 29 38
-0.054688 -0.308594 0.052492 22 25 34
-0.050781 -0.308594 0.050539 19 22 32
-0.046875 -0.308594 0.048581 18 21 32
-0.042969 -0.308594 0.046376 17 20 31
-0.039062 -0.308594 0.043857 17 19 30
-0.035156 -0.308594 0.041304 16 19 28
-0.031250 -0.308594 0.038626 15 17 25
-0.027344 -0.308594 0.035658 14 15 22
-0.023438 -0.308594 0.032335 13 15 20
-0.019531 -0.308594 0.028846 13 14 19
-0.015625 -0.308594 0.025254 12 13 17
-0.011719 -0.308594 0.020910 11 13 16
-0.007812 -0.308594 0.015296 12 13 16
-0.003906 -0.308594 0.008674 10 11 14
0.000000 -0.308594 0.001129 9 9 11
0.003906 -0.308594 -0.006698 6 6 8
0.007812 -0.308594 -0.012828 4 4 5
0.011719 -0.308594 -0.018272 4 4 5
0.015625 -0.308594 -0.022841 4 4 5
0.019531 -0.308594 -0.021931 4 5 7
0.023438 -0.308594 -0.012506 6 7 8
0.027344 -0.308594 0.008933 4 5 6
0.031250 -0.308594 0.030967 3 3 4
0.035156 -0.308594 0.042669 3 2 4
0.039062 -0.308594 0.049805 5 4 5
0.042969 -0.308594 0.056548 22 13 13
0.046875 -0.308594 0.063451 55 29 24
0.050781 -0.308594 0.065597 74 35 29
0.054688 -0.308594 0.068777 86 39 34
0.058594 -0.308594 0.073664 98 45 39
0.062500 -0.308594 0.089467 104 49 43
0.066406 -0.308594 0.110426 110 53 46
0.070312 -0.308594 0.117444 114 56 47
0.074219 -0.308594 0.114047 115 58 48
0.078125 -0.308594 0.104129 116 59 49
0.082031 -0.308594 0.089206 114 60 49
0.085938 -0.308594 0.083360 95 50 42
0.089844 -0.308594 0.081292 84 45 38
0.093750 -0.308594 0.084343 95 52 44
0.097656 -0.308594 0.095493 102 55 48
0.101562 -0.308594 0.097559 108 60 55
0.105469 -0.308594 0.088086 87 50 46
0.109375 -0.308594 0.080218 39 23 23
0.113281 -0.308594 0.077684 20 12 14
0.117188 -0.308594 0.075891 13 9 12
0.121094 -0.308594 0.072842 13 10 14
0.125000 -0.308594 0.070913 20 16 20
0.128906 -0.308594 0.068178 22 20 22
0.132812 -0.308594 0.065680 20 18 19
0.136719 -0.308594 0.062859 18 17 18
0.140625 -0.308594 0.059735 15 16 18
0.144531 -0.308594 0.056498 13 14 17
0.148438 -0.308594 0.052796 12 14 16
0.152344 -0.308594 0.048589 12 14 16
0.156250 -0.308594 0.044809 13 15 17
0.160156 -0.308594 0.040274 17 19 20
0.164062 -0.308594 0.034132 23 23 24
0.167969 -0.308594 0.027265 17 17 20
0.171875 -0.308594 0.019641 19 20 24
0.175781 -0.308594 0.008609 19 20 27
-0.136719 -0.312500 0.019433 47 51 67
-0.132812 -0.312500 0.033032 13 14 22
-0.128906 -0.312500 0.041114 15 16 24
-0.125000 -0.312500 0.047472 14 18 27
-0.121094 -0.312500 0.051704 18 25 36
-0.117188 -0.312500 0.054496 25 34 46
-0.113281 -0.312500 0.057022 22 30 43
-0.109375 -0.312500 0.059324 27 35 48
-0.105469 -0.312500 0.060693 35 45 59
-0.101562 -0.312500 0.061181 38 49 64
-0.097656 -0.312500 0.061429 44 56 71
-0.093750 -0.312500 0.061599 47 59 74
-0.089844 -0.312500 0.061499 46 58 74
-0.085938 -0.312500 0.061267 44 56 71
-0.082031 -0.312500 0.060908 40 51 65
-0.078125 -0.312500 0.060432 39 50 62
-0.074219 -0.312500 0.059702 36 46 57
-0.070312 -0.312500 0.058615 32 40 49
-0.066406 -0.312500 0.057380 28 34 43
-0.062500 -0.312500 0.056082 25 30 38
-0.058594 -0.312500 0.054517 23 26 35
-0.054688 -0.312500 0.052653 21 24 34
-0.050781 -0.312500 0.050646 20 23 34
-0.046875 -0.312500 0.048623 19 22 34
-0.042969 -0.312500 0.046340 17 20 32
-0.039062 -0.312500 0.043736 16 19 29
-0.035156 -0.312500 0.041105 16 19 28
-0.031250 -0.312500 0.038437 15 17 25
-0.027344 -0.312500 0.035436 14 16 22
-0.023438 -0.312500 0.032005 13 15 20
-0.019531 -0.312500 0.028420 13 14 19
-0.015625 -0.312500 0.024783 12 13 17
-0.011719 -0.312500 0.020323 11 13 16
-0.007812 -0.312500 0.014413 11 12 16
-0.003906 -0.312500 0.007264 10 12 14
0.000000 -0.312500 -0.000930 10 10 13
0.003906 -0.312500 -0.009078 6 6 8
0.007812 -0.312500 -0.015648 4 4 5
0.011719 -0.312500 -0.021638 4 4 5
0.015625 -0.312500 -0.026664 4 4 5
0.019531 -0.312500 -0.025826 5 5 7
0.023438 -0.312500 -0.014579 5 6 8
0.027344 -0.312500 0.008878 4 4 6
0.031250 -0.312500 0.028543 2 2 4
0.035156 -0.312500 0.039354 2 2 3
0.039062 -0.312500 0.045878 3 2 3
0.042969 -0.312500 0.051690 8 5 5
0.046875 -0.312500 0.056413 13 7 7
0.050781 -0.312500 0.060384 17 9 9
0.054688 -0.312500 0.064547 22 10 10
0.058594 -0.312500 0.068682 31 14 14
0.062500 -0.312500 0.071566 43 19 19
0.066406 -0.312500 0.074365 58 27 25
0.070312 -0.312500 0.081129 74 37 32
0.074219 -0.312500 0.082508 74 38 32
0.078125 -0.312500 0.081585 56 28 24
0.082031 -0.312500 0.080900 41 20 18
0.085938 -0.312500 0.080532 31 17 15
0.089844 -0.312500 0.079688 32 18 16
0.093750 -0.312500 0.079530 45 26 23
0.097656 -0.312500 0.079645 48 29 26
0.101562 -0.312500 0.081093 42 26 25
0.105469 -0.312500 0.081302 27 17 18
0.109375 -0.312500 0.079201 14 10 12
0.113281 -0.312500 0.078157 13 10 13
0.117188 -0.312500 0.075258 14 12 15
0.121094 -0.312500 0.073368 16 14 17
0.125000 -0.312500 0.070958 24 20 23
0.128906 -0.312500 0.068068 24 21 22
0.132812 -0.312500 0.065252 19 17 18
0.136719 -0.312500 0.062235 16 16 17
0.140625 -0.312500 0.058991 14 15 17
0.144531 -0.312500 0.055728 12 14 16
0.148438 -0.312500 0.051649 12 14 17
0.152344 -0.312500 0.047445 12 14 16
0.156250 -0.312500 0.043538 14 15 17
0.160156 -0.312500 0.038797 18 20 21
0.164062 -0.312500 0.032470 23 23 24
0.167969 -0.312500 0.024781 17 18 21
0.171875 -0.312500 0.016528 21 23 27
0.175781 -0.312500 0.003830 24 23 34
-0.136719 -0.316406 0.022311 85 90 97
-0.132812 -0.316406 0.035423 17 19 26
-0.128906 -0.316406 0.043241 13 16 23
-0.125000 -0.316406 0.049180 13 17 26
-0.121094 -0.316406 0.053228 18 25 36
-0.117188 -0.316406 0.055926 27 36 48
-0.113281 -0.316406 0.058359 24 32 45
-0.109375 -0.316406 0.060560 29 38 51
-0.105469 -0.316406 0.061844 37 48 61
-0.101562 -0.316406 0.062240 37 48 61
-0.097656 -0.316406 0.062396 39 50 64
-0.093750 -0.316406 0.062477 40 51 65
-0.089844 -0.316406 0.062312 39 50 64
-0.085938 -0.316406 0.062032 38 48 63
-0.082031 -0.316406 0.061626 34 44 57
-0.078125 -0.316406 0.061101 32 42 55
-0.074219 -0.316406 0.060329 33 43 53
-0.070312 -0.316406 0.059185 32 40 50
-0.066406 -0.316406 0.057871 29 35 45
-0.062500 -0.316406 0.056491 26 30 39
-0.058594 -0.316406 0.054842 23 27 36
-0.054688 -0.316406 0.052885 22 25 36
-0.050781 -0.316406 0.050788 21 24 36
-0.046875 -0.316406 0.048652 19 22 34
-0.042969 -0.316406 0.046248 17 20 30
-0.039062 -0.316406 0.043551 16 18 28
-0.035156 -0.316406 0.040852 16 18 27
-0.031250 -0.316406 0.038113 15 17 24
-0.027344 -0.316406 0.035055 14 16 21
-0.023438 -0.316406 0.031546 13 15 20
-0.019531 -0.316406 0.027881 12 14 18
-0.015625 -0.316406 0.024226 11 12 17
-0.011719 -0.316406 0.019715 11 12 16
-0.007812 -0.316406 0.013533 10 12 15
-0.003906 -0.316406 0.005831 10 12 14
0.000000 -0.316406 -0.002999 10 11 13
0.003906 -0.316406 -0.011393 6 6 8
0.007812 -0.316406 -0.018384 3 3 5
0.011719 -0.316406 -0.024770 3 3 5
0.015625 -0.316406 -0.030301 3 3 5
0.027344 -0.316406 0.009768 3 4 6
0.031250 -0.316406 0.027119 2 2 4
0.035156 -0.316406 0.037013 2 2 3
0.039062 -0.316406 0.044647 3 2 3
0.042969 -0.316406 0.049150 4 3 3
0.046875 -0.316406 0.054148 5 3 4
0.050781 -0.316406 0.058311 6 3 4
0.054688 -0.316406 0.062665 6 3 4
0.058594 -0.316406 0.067134 6 3 4
0.062500 -0.316406 0.071695 7 3 5
0.066406 -0.316406 0.073985 10 5 6
0.070312 -0.316406 0.077549 18 9 10
0.074219 -0.316406 0.079749 21 11 12
0.078125 -0.316406 0.079493 16 9 10
0.082031 -0.316406 0.079339 13 8 8
0.085938 -0.316406 0.078693 12 8 8
0.089844 -0.316406 0.078421 12 9 9
0.093750 -0.316406 0.079264 13 10 10
0.097656 -0.316406 0.079418 11 9 9
0.101562 -0.316406 0.080045 10 7 9
0.105469 -0.316406 0.079959 10 7 10
0.109375 -0.316406 0.078726 10 9 12
0.113281 -0.316406 0.077352 14 12 18
0.117188 -0.316406 0.075286 19 17 21
0.121094 -0.316406 0.072898 21 20 21
0.125000 -0.316406 0.070482 23 20 21
0.128906 -0.316406 0.067728 22 19 20
0.132812 -0.316406 0.064652 18 17 18
0.136719 -0.316406 0.061387 15 15 16
0.140625 -0.316406 0.058189 13 14 16
0.144531 -0.316406 0.054674 12 14 17
0.148438 -0.316406 0.050415 12 14 17
0.152344 -0.316406 0.046187 12 15 17
0.156250 -0.316406 0.042088 15 16 18
0.160156 -0.316406 0.037125 17 19 21
0.164062 -0.316406 0.030400 19 20 22
0.167969 -0.316406 0.022126 14 15 19
0.171875 -0.316406 0.012770 20 20 28
-0.136719 -0.320312 0.024711 65 67 74
-0.132812 -0.320312 0.037506 18 19 26
-0.128906 -0.320312 0.045262 14 18 25
-0.125000 -0.320312 0.050843 13 18 28
-0.121094 -0.320312 0.054698 18 25 36
-0.117188 -0.320312 0.057289 26 33 46
-0.113281 -0.320312 0.059578 21 28 40
-0.109375 -0.320312 0.061667 26 33 45
-0.105469 -0.320312 0.062876 33 43 55
-0.101562 -0.320312 0.063206 33 43 55
-0.097656 -0.320312 0.063294 34 45 57
-0.093750 -0.320312 0.063292 35 45 58
-0.089844 -0.320312 0.063062 33 44 57
-0.085938 -0.320312 0.062743 33 43 58
-0.082031 -0.320312 0.062311 31 41 55
-0.078125 -0.320312 0.061766 31 42 55
-0.074219 -0.320312 0.060956 32 42 53
-0.070312 -0.320312 0.059735 31 39 49
-0.066406 -0.320312 0.058339 27 34 44
-0.062500 -0.320312 0.056886 24 29 38
-0.058594 -0.320312 0.055157 22 25 35
-0.054688 -0.320312 0.053091 21 24 35
-0.050781 -0.320312 0.050894 20 23 34
-0.046875 -0.320312 0.048664 19 21 33
-0.042969 -0.320312 0.046166 16 19 29
-0.039062 -0.320312 0.043375 15 17 26
-0.035156 -0.320312 0.040582 15 17 25
-0.031250 -0.320312 0.037758 14 16 22
-0.027344 -0.320312 0.034578 13 15 20
-0.023438 -0.320312 0.030955 13 14 19
-0.019531 -0.320312 0.027220 12 13 17
-0.015625 -0.320312 0.023564 11 12 16
-0.011719 -0.320312 0.019022 11 12 16
-0.007812 -0.320312 0.012649 10 11 15
-0.003906 -0.320312 0.004462 10 12 15
0.000000 -0.320312 -0.004711 9 10 12
0.003906 -0.320312 -0.013196 5 5 7
0.007812 -0.320312 -0.020885 3 3 5
0.011719 -0.320312 -0.027519 2 2 4
0.015625 -0.320312 -0.033617 3 3 4
0.027344 -0.320312 0.010529 5 7 9
0.031250 -0.320312 0.026848 4 5 7
0.035156 -0.320312 0.035570 3 4 5
0.039062 -0.320312 0.043029 4 4 5
0.042969 -0.320312 0.048114 4 4 4
0.046875 -0.320312 0.053546 4 3 4
0.050781 -0.320312 0.058224 3 2 3
0.054688 -0.320312 0.062534 3 2 2
0.058594 -0.320312 0.066394 3 2 2
0.062500 -0.320312 0.070280 4 2 3
0.066406 -0.320312 0.073254 5 3 4
0.070312 -0.320312 0.075379 7 4 6
0.074219 -0.320312 0.077653 9 6 7
0.078125 -0.320312 0.078630 9 6 7
0.082031 -0.320312 0.079399 9 7 7
0.085938 -0.320312 0.079570 11 9 9
0.089844 -0.320312 0.079499 12 10 10
0.093750 -0.320312 0.079685 12 11 11
0.097656 -0.320312 0.079829 9 9 10
0.101562 -0.320312 0.079938 7 7 9
0.105469 -0.320312 0.079543 9 9 12
0.109375 -0.320312 0.078489 15 14 21
0.113281 -0.320312 0.076856 20 20 28
0.117188 -0.320312 0.074548 29 29 33
0.121094 -0.320312 0.072198 33 32 33
0.125000 -0.320312 0.069869 25 23 23
0.128906 -0.320312 0.067210 20 18 18
0.132812 -0.320312 0.064020 17 16 17
0.136719 -0.320312 0.060610 14 14 16
0.140625 -0.320312 0.057270 12 14 16
0.144531 -0.320312 0.053472 11 14 16
0.148438 -0.320312 0.049222 12 14 16
0.152344 -0.320312 0.044957 12 15 17
0.156250 -0.320312 0.040568 16 18 20
0.160156 -0.320312 0.035418 17 19 22
0.164062 -0.320312 0.028606 18 19 22
0.167969 -0.320312 0.019935 15 16 21
0.171875 -0.320312 0.007841 21 21 32
-0.136719 -0.324219 0.027194 34 36 44
-0.132812 -0.324219 0.039467 13 14 21
-0.128906 -0.324219 0.047238 16 19 28
-0.125000 -0.324219 0.052620 15 20 31
-0.121094 -0.324219 0.056265 19 26 39
-0.117188 -0.324219 0.058717 24 32 45
-0.113281 -0.324219 0.060823 20 26 38
-0.109375 -0.324219 0.062776 24 32 44
-0.105469 -0.324219 0.063903 31 41 53
-0.101562 -0.324219 0.064193 31 42 53
-0.097656 -0.324219 0.064246 33 44 56
-0.093750 -0.324219 0.064188 33 44 57
-0.089844 -0.324219 0.063904 31 42 56
-0.085938 -0.324219 0.063540 31 42 57
-0.082031 -0.324219 0.063057 30 41 56
-0.078125 -0.324219 0.062457 31 43 56
-0.074219 -0.324219 0.061574 31 41 54
-0.070312 -0.324219 0.060251 29 38 49
-0.066406 -0.324219 0.058775 27 34 44
-0.062500 -0.324219 0.057265 25 30 41
-0.058594 -0.324219 0.055463 23 27 38
-0.054688 -0.324219 0.053286 21 24 36
-0.050781 -0.324219 0.050972 20 22 34
-0.046875 -0.324219 0.048659 18 20 31
-0.042969 -0.324219 0.046085 16 19 28
-0.039062 -0.324219 0.043197 16 18 27
-0.035156 -0.324219 0.040294 15 17 25
-0.031250 -0.324219 0.037383 14 16 22
-0.027344 -0.324219 0.034108 13 15 20
-0.023438 -0.324219 0.030348 12 14 19
-0.019531 -0.324219 0.026490 11 12 16
-0.015625 -0.324219 0.022813 10 12 16
-0.011719 -0.324219 0.018231 10 11 15
-0.007812 -0.324219 0.011742 10 11 14
-0.003906 -0.324219 0.003132 11 12 15
0.000000 -0.324219 -0.006228 8 9 11
0.003906 -0.324219 -0.014601 4 5 7
0.007812 -0.324219 -0.023019 3 3 4
0.011719 -0.324219 -0.031975 2 2 3
0.027344 -0.324219 0.011706 5 7 9
0.031250 -0.324219 0.026582 6 7 9
0.035156 -0.324219 0.034724 6 6 8
0.039062 -0.324219 0.041623 7 7 9
0.042969 -0.324219 0.047873 7 7 8
0.046875 -0.324219 0.052783 5 4 5
0.050781 -0.324219 0.057670 2 2 3
0.054688 -0.324219 0.062171 2 2 2
0.058594 -0.324219 0.066163 3 2 3
0.062500 -0.324219 0.070015 4 3 4
0.066406 -0.324219 0.073143 6 6 7
0.070312 -0.324219 0.075565 8 7 9
0.074219 -0.324219 0.077444 8 8 9
0.078125 -0.324219 0.078633 8 7 9
0.082031 -0.324219 0.079369 8 7 9
0.085938 -0.324219 0.079683 10 10 11
0.089844 -0.324219 0.079772 14 15 16
0.093750 -0.324219 0.079802 19 20 22
0.097656 -0.324219 0.079660 21 22 24
0.101562 -0.324219 0.079292 17 19 23
0.105469 -0.324219 0.078697 22 24 30
0.109375 -0.324219 0.077691 32 33 43
0.113281 -0.324219 0.076019 30 29 38
0.117188 -0.324219 0.073846 36 34 38
0.121094 -0.324219 0.071668 42 39 39
0.125000 -0.324219 0.069336 25 24 24
0.128906 -0.324219 0.066569 17 17 17
0.132812 -0.324219 0.063335 14 15 17
0.136719 -0.324219 0.059780 12 14 16
0.140625 -0.324219 0.056175 13 15 17
0.144531 -0.324219 0.052290 12 14 17
0.148438 -0.324219 0.048001 12 14 16
0.152344 -0.324219 0.043559 13 15 17
0.156250 -0.324219 0.038941 18 20 22
0.160156 -0.324219 0.033630 18 20 23
0.164062 -0.324219 0.026356 20 22 26
0.167969 -0.324219 0.016786 21 23 31
0.171875 -0.324219 0.002389 22 25 38
-0.136719 -0.328125 0.030253 36 39 49
-0.132812 -0.328125 0.041335 12 14 22
-0.128906 -0.328125 0.048991 18 23 33
-0.125000 -0.328125 0.054214 18 24 37
-0.121094 -0.328125 0.057682 22 30 44
-0.117188 -0.328125 0.059982 24 33 47
-0.113281 -0.328125 0.061951 20 27 40
-0.109375 -0.328125 0.063799 24 32 45
-0.105469 -0.328125 0.064852 30 40 52
-0.101562 -0.328125 0.065121 30 42 54
-0.097656 -0.328125 0.065153 32 44 56
-0.093750 -0.328125 0.065057 31 43 56
-0.089844 -0.328125 0.064738 31 43 56
-0.085938 -0.328125 0.064320 30 42 56
-0.082031 -0.328125 0.063774 29 40 54
-0.078125 -0.328125 0.063093 29 41 54
-0.074219 -0.328125 0.062128 28 38 50
-0.070312 -0.328125 0.060731 26 35 46
-0.066406 -0.328125 0.059206 25 33 44
-0.062500 -0.328125 0.057647 24 30 41
-0.058594 -0.328125 0.055761 22 26 37
-0.054688 -0.328125 0.053474 20 23 35
-0.050781 -0.328125 0.051059 19 22 33
-0.046875 -0.328125 0.048661 18 20 31
-0.042969 -0.328125 0.046004 17 19 28
-0.039062 -0.328125 0.043024 16 18 27
-0.035156 -0.328125 0.040018 15 17 24
-0.031250 -0.328125 0.037021 14 15 21
-0.027344 -0.328125 0.033653 13 15 20
-0.023438 -0.328125 0.029770 12 14 18
-0.019531 -0.328125 0.025801 11 13 17
-0.015625 -0.328125 0.022060 11 12 16
-0.011719 -0.328125 0.017414 10 11 14
-0.007812 -0.328125 0.010729 9 11 14
-0.003906 -0.328125 0.001856 11 12 14
0.000000 -0.328125 -0.007958 8 9 10
0.003906 -0.328125 -0.017320 4 5 6
0.007812 -0.328125 -0.025988 2 3 4
0.027344 -0.328125 0.012668 4 6 7
0.031250 -0.328125 0.026195 6 7 9
0.035156 -0.328125 0.034260 7 8 9
0.039062 -0.328125 0.041071 10 11 12
0.042969 -0.328125 0.047355 12 13 14
0.046875 -0.328125 0.052669 10 10 11
0.050781 -0.328125 0.057251 7 7 8
0.054688 -0.328125 0.061785 6 6 7
0.058594 -0.328125 0.065827 8 8 9
0.062500 -0.328125 0.069613 13 13 14
0.066406 -0.328125 0.072858 19 21 21
0.070312 -0.328125 0.075318 26 30 30
0.074219 -0.328125 0.077156 29 34 35
0.078125 -0.328125 0.078400 29 33 35
0.082031 -0.328125 0.079144 26 29 32
0.085938 -0.328125 0.079512 25 29 32
0.089844 -0.328125 0.079695 25 30 33
0.093750 -0.328125 0.079800 26 30 34
0.097656 -0.328125 0.079554 27 30 34
0.101562 -0.328125 0.078874 22 26 31
0.105469 -0.328125 0.078057 32 37 45
0.109375 -0.328125 0.077199 55 60 70
0.113281 -0.328125 0.075789 43 44 55
0.117188 -0.328125 0.073656 54 50 57
0.121094 -0.328125 0.071325 63 60 61
0.125000 -0.328125 0.068789 27 27 28
0.128906 -0.328125 0.065849 18 18 19
0.132812 -0.328125 0.062381 14 15 18
0.136719 -0.328125 0.058661 11 13 16
0.140625 -0.328125 0.054981 12 14 16
0.144531 -0.328125 0.051112 11 13 16
0.148438 -0.328125 0.046776 11 13 15
0.152344 -0.328125 0.042117 13 15 17
0.156250 -0.328125 0.037187 20 21 24
0.160156 -0.328125 0.031524 19 20 24
0.164062 -0.328125 0.023700 23 25 29
0.167969 -0.328125 0.012621 22 23 34
-0.140625 -0.332031 0.010647 26 27 46
-0.136719 -0.332031 0.033110 16 18 28
-0.132812 -0.332031 0.042917 7 9 16
-0.128906 -0.332031 0.050453 14 18 28
-0.125000 -0.332031 0.055490 16 22 34
-0.121094 -0.332031 0.058831 21 29 43
-0.117188 -0.332031 0.061043 23 32 46
-0.113281 -0.332031 0.062955 19 27 40
-0.109375 -0.332031 0.064725 23 31 45
-0.105469 -0.332031 0.065710 26 36 49
-0.101562 -0.332031 0.065962 27 39 51
-0.097656 -0.332031 0.065982 29 42 54
-0.093750 -0.332031 0.065855 29 42 54
-0.089844 -0.332031 0.065506 31 43 56
-0.085938 -0.332031 0.065052 31 43 56
-0.082031 -0.332031 0.064459 29 41 53
-0.078125 -0.332031 0.063714 28 40 52
-0.074219 -0.332031 0.062669 26 36 48
-0.070312 -0.332031 0.061210 24 33 44
-0.066406 -0.332031 0.059643 24 31 43
-0.062500 -0.332031 0.058030 23 29 40
-0.058594 -0.332031 0.056069 21 25 37
-0.054688 -0.332031 0.053687 19 23 34
-0.050781 -0.332031 0.051192 19 21 33
-0.046875 -0.332031 0.048718 17 19 30
-0.042969 -0.332031 0.045985 16 18 28
-0.039062 -0.332031 0.042933 15 17 26
-0.035156 -0.332031 0.039848 14 16 23
-0.031250 -0.332031 0.036774 13 15 21
-0.027344 -0.332031 0.033311 13 14 19
-0.023438 -0.332031 0.029309 12 14 18
-0.019531 -0.332031 0.025205 11 13 17
-0.015625 -0.332031 0.021304 11 13 16
-0.011719 -0.332031 0.016499 10 11 14
-0.007812 -0.332031 0.009664 10 12 14
-0.003906 -0.332031 0.000659 11 13 14
0.000000 -0.332031 -0.009879 7 9 10
0.003906 -0.332031 -0.020251 5 5 7
0.007812 -0.332031 -0.028746 3 3 5
0.027344 -0.332031 0.013663 5 5 7
0.031250 -0.332031 0.025784 6 8 9
0.035156 -0.332031 0.033940 7 8 10
0.039062 -0.332031 0.040572 9 11 11
0.042969 -0.332031 0.046736 11 12 14
0.046875 -0.332031 0.052324 12 13 15
0.050781 -0.332031 0.057034 12 13 15
0.054688 -0.332031 0.061405 13 14 16
0.058594 -0.332031 0.065256 17 18 20
0.062500 -0.332031 0.068819 25 26 28
0.066406 -0.332031 0.071906 33 35 37
0.070312 -0.332031 0.074159 39 43 44
0.074219 -0.332031 0.076010 44 49 50
0.078125 -0.332031 0.077407 44 50 50
0.082031 -0.332031 0.078317 40 46 46
0.085938 -0.332031 0.078812 39 45 45
0.089844 -0.332031 0.079057 38 45 44
0.093750 -0.332031 0.079118 34 39 40
0.097656 -0.332031 0.078767 30 32 35
0.101562 -0.332031 0.078187 23 27 29
0.105469 -0.332031 0.077647 45 50 55
0.109375 -0.332031 0.077076 94 97 103
0.113281 -0.332031 0.075760 78 77 86
0.117188 -0.332031 0.073280 88 82 88
0.121094 -0.332031 0.070448 74 72 76
0.125000 -0.332031 0.067687 21 22 27
0.128906 -0.332031 0.064698 15 16 20
0.132812 -0.332031 0.061176 13 15 19
0.136719 -0.332031 0.057500 10 12 15
0.140625 -0.332031 0.053833 10 12 15
0.144531 -0.332031 0.049898 11 13 15
0.148438 -0.332031 0.045507 11 13 15
0.152344 -0.332031 0.040712 13 15 17
0.156250 -0.332031 0.035512 20 22 24
0.160156 -0.332031 0.029430 17 19 22
0.164062 -0.332031 0.021126 25 27 31
0.167969 -0.332031 0.008420 27 27 41
-0.140625 -0.335938 0.018411 17 18 31
-0.136719 -0.335938 0.035612 11 13 23
-0.132812 -0.335938 0.044680 7 9 16
-0.128906 -0.335938 0.051795 13 17 27
-0.125000 -0.335938 0.056650 14 20 31
-0.121094 -0.335938 0.059875 17 25 38
-0.117188 -0.335938 0.062014 20 28 42
-0.113281 -0.335938 0.063837 18 26 40
-0.109375 -0.335938 0.065522 22 31 45
-0.105469 -0.335938 0.066462 24 34 47
-0.101562 -0.335938 0.066711 26 38 51
-0.097656 -0.335938 0.066737 28 41 53
-0.093750 -0.335938 0.066588 27 40 52
-0.089844 -0.335938 0.066214 29 41 53
-0.085938 -0.335938 0.065737 29 42 54
-0.082031 -0.335938 0.065118 28 40 53
-0.078125 -0.335938 0.064336 27 39 52
-0.074219 -0.335938 0.063248 25 35 47
-0.070312 -0.335938 0.061729 24 32 44
-0.066406 -0.335938 0.060104 24 31 43
-0.062500 -0.335938 0.058437 23 28 40
-0.058594 -0.335938 0.056418 21 25 37
-0.054688 -0.335938 0.053959 20 23 35
-0.050781 -0.335938 0.051377 19 22 33
-0.046875 -0.335938 0.048825 17 19 30
-0.042969 -0.335938 0.046024 16 18 28
-0.039062 -0.335938 0.042908 15 17 26
-0.035156 -0.335938 0.039752 14 16 22
-0.031250 -0.335938 0.036593 13 15 20
-0.027344 -0.335938 0.033023 12 14 19
-0.023438 -0.335938 0.028893 11 13 17
-0.019531 -0.335938 0.024628 11 13 16
-0.015625 -0.335938 0.020507 11 12 15
-0.011719 -0.335938 0.015493 10 11 14
-0.007812 -0.335938 0.008408 11 12 14
-0.003906 -0.335938 -0.000991 10 12 14
0.000000 -0.335938 -0.012044 7 8 10
0.003906 -0.335938 -0.022440 5 6 8
0.027344 -0.335938 0.014447 4 5 7
0.031250 -0.335938 0.025620 7 7 9
0.035156 -0.335938 0.033707 7 8 10
0.039062 -0.335938 0.040316 8 10 11
0.042969 -0.335938 0.046354 10 11 13
0.046875 -0.335938 0.052170 11 13 15
0.050781 -0.335938 0.057121 12 15 17
0.054688 -0.335938 0.061257 14 17 20
0.058594 -0.335938 0.064980 16 20 24
0.062500 -0.335938 0.068472 20 25 30
0.066406 -0.335938 0.071388 22 27 32
0.070312 -0.335938 0.073499 23 28 33
0.074219 -0.335938 0.075291 24 30 34
0.078125 -0.335938 0.076735 23 28 32
0.082031 -0.335938 0.077732 21 27 30
0.085938 -0.335938 0.078260 24 30 33
0.089844 -0.335938 0.078507 29 35 39
0.093750 -0.335938 0.078498 30 35 40
0.097656 -0.335938 0.078087 32 35 40
0.101562 -0.335938 0.077638 42 47 49
0.105469 -0.335938 0.077177 105 104 104
0.109375 -0.335938 0.076402 160 150 148
0.113281 -0.335938 0.074802 124 114 114
0.117188 -0.335938 0.072097 94 85 87
0.121094 -0.335938 0.069173 43 42 48
0.125000 -0.335938 0.066574 11 12 16
0.128906 -0.335938 0.063715 11 12 16
0.132812 -0.335938 0.060165 10 12 16
0.136719 -0.335938 0.056434 8 10 13
0.140625 -0.335938 0.052728 10 12 14
0.144531 -0.335938 0.048740 11 13 15
0.148438 -0.335938 0.044245 13 14 16
0.152344 -0.335938 0.039260 15 17 18
0.156250 -0.335938 0.033720 22 23 25
0.160156 -0.335938 0.026937 17 19 22
0.164062 -0.335938 0.018238 28 30 34
0.167969 -0.335938 0.004112 42 41 55
-0.140625 -0.339844 0.022667 23 25 38
-0.136719 -0.339844 0.037428 16 20 31
-0.132812 -0.339844 0.046433 10 13 22
-0.128906 -0.339844 0.053089 15 20 31
-0.125000 -0.339844 0.057765 15 22 34
-0.121094 -0.339844 0.060909 17 25 40
-0.117188 -0.339844 0.062944 19 27 42
-0.113281 -0.339844 0.064650 18 26 40
-0.109375 -0.339844 0.066247 21 30 44
-0.105469 -0.339844 0.067143 23 33 46
-0.101562 -0.339844 0.067380 26 38 50
-0.097656 -0.339844 0.067401 28 41 53
-0.093750 -0.339844 0.067239 26 38 50
-0.089844 -0.339844 0.066848 27 40 52
-0.085938 -0.339844 0.066360 27 40 52
-0.082031 -0.339844 0.065722 27 40 53
-0.078125 -0.339844 0.064921 27 40 52
-0.074219 -0.339844 0.063812 24 35 47
-0.070312 -0.339844 0.062251 23 32 44
-0.066406 -0.339844 0.060573 23 31 43
-0.062500 -0.339844 0.058859 22 27 40
-0.058594 -0.339844 0.056789 20 24 37
-0.054688 -0.339844 0.054262 19 23 35
-0.050781 -0.339844 0.051603 19 21 33
-0.046875 -0.339844 0.048980 17 19 30
-0.042969 -0.339844 0.046109 16 18 28
-0.039062 -0.339844 0.042923 15 17 26
-0.035156 -0.339844 0.039688 14 16 22
-0.031250 -0.339844 0.036440 13 15 20
-0.027344 -0.339844 0.032743 12 14 18
-0.023438 -0.339844 0.028480 11 12 16
-0.019531 -0.339844 0.024020 10 12 15
-0.015625 -0.339844 0.019638 10 11 14
-0.011719 -0.339844 0.014404 9 11 13
-0.007812 -0.339844 0.006919 10 12 14
-0.003906 -0.339844 -0.002910 9 10 12
0.000000 -0.339844 -0.014272 6 7 9
0.003906 -0.339844 -0.024927 5 6 7
0.027344 -0.339844 0.014328 5 5 8
0.031250 -0.339844 0.025438 7 7 10
0.035156 -0.339844 0.033483 8 9 11
0.039062 -0.339844 0.040262 9 10 13
0.042969 -0.339844 0.046257 11 12 15
0.046875 -0.339844 0.052148 12 14 17
0.050781 -0.339844 0.057117 14 17 20
0.054688 -0.339844 0.061187 16 20 24
0.058594 -0.339844 0.064747 17 22 27
0.062500 -0.339844 0.068083 19 25 31
0.066406 -0.339844 0.070872 20 26 33
0.070312 -0.339844 0.072910 20 27 33
0.074219 -0.339844 0.074653 23 30 35
0.078125 -0.339844 0.076118 23 30 35
0.082031 -0.339844 0.077115 22 29 33
0.085938 -0.339844 0.077610 23 30 36
0.089844 -0.339844 0.077835 23 30 37
0.093750 -0.339844 0.077875 23 28 36
0.097656 -0.339844 0.077547 28 32 40
0.101562 -0.339844 0.076898 49 53 57
0.105469 -0.339844 0.075966 102 98 99
0.109375 -0.339844 0.074674 115 105 105
0.113281 -0.339844 0.072876 77 72 71
0.117188 -0.339844 0.070520 59 58 58
0.121094 -0.339844 0.068100 27 29 34
0.125000 -0.339844 0.065790 11 12 17
0.128906 -0.339844 0.062962 13 14 18
0.132812 -0.339844 0.059326 11 12 16
0.136719 -0.339844 0.055541 9 11 14
0.140625 -0.339844 0.051761 11 12 15
0.144531 -0.339844 0.047676 12 13 15
0.148438 -0.339844 0.042985 14 15 16
0.152344 -0.339844 0.037731 15 16 18
0.156250 -0.339844 0.031634 19 20 22
0.160156 -0.339844 0.024233 14 15 18
0.164062 -0.339844 0.014996 20 20 27
-0.140625 -0.343750 0.026466 11 12 22
-0.136719 -0.343750 0.039126 12 15 25
-0.132812 -0.343750 0.047948 9 12 21
-0.128906 -0.343750 0.054192 14 19 30
-0.125000 -0.343750 0.058720 16 22 35
-0.121094 -0.343750 0.061762 18 27 41
-0.117188 -0.343750 0.063732 20 28 43
-0.113281 -0.343750 0.065380 18 26 40
-0.109375 -0.343750 0.066920 20 29 43
-0.105469 -0.343750 0.067785 22 32 45
-0.101562 -0.343750 0.068007 26 38 51
-0.097656 -0.343750 0.068008 26 39 51
-0.093750 -0.343750 0.067827 24 36 48
-0.089844 -0.343750 0.067433 26 39 51
-0.085938 -0.343750 0.066936 26 39 52
-0.082031 -0.343750 0.066282 26 39 52
-0.078125 -0.343750 0.065467 27 39 51
-0.074219 -0.343750 0.064338 24 34 47
-0.070312 -0.343750 0.062747 23 33 45
-0.066406 -0.343750 0.061031 23 31 43
-0.062500 -0.343750 0.059262 21 27 40
-0.058594 -0.343750 0.057131 19 23 36
-0.054688 -0.343750 0.054537 19 22 34
-0.050781 -0.343750 0.051808 18 21 32
-0.046875 -0.343750 0.049119 16 19 29
-0.042969 -0.343750 0.046175 15 17 27
-0.039062 -0.343750 0.042911 14 16 24
-0.035156 -0.343750 0.039599 13 15 21
-0.031250 -0.343750 0.036271 12 14 19
-0.027344 -0.343750 0.032446 11 13 17
-0.023438 -0.343750 0.028060 10 11 14
-0.019531 -0.343750 0.023375 9 11 13
-0.015625 -0.343750 0.018591 9 10 12
-0.011719 -0.343750 0.012939 9 11 12
-0.007812 -0.343750 0.005178 10 11 13
-0.003906 -0.343750 -0.004934 7 9 10
0.000000 -0.343750 -0.016765 5 6 8
0.027344 -0.343750 0.013687 5 5 9
0.031250 -0.343750 0.025182 7 8 11
0.035156 -0.343750 0.033201 9 9 13
0.039062 -0.343750 0.040228 10 10 14
0.042969 -0.343750 0.046341 11 12 16
0.046875 -0.343750 0.052208 13 14 19
0.050781 -0.343750 0.057175 15 17 22
0.054688 -0.343750 0.061093 16 20 26
0.058594 -0.343750 0.064563 16 20 28
0.062500 -0.343750 0.067823 17 22 30
0.066406 -0.343750 0.070452 17 22 30
0.070312 -0.343750 0.072374 17 23 30
0.074219 -0.343750 0.074030 20 26 32
0.078125 -0.343750 0.075475 20 27 32
0.082031 -0.343750 0.076452 21 27 32
0.085938 -0.343750 0.076888 22 29 35
0.089844 -0.343750 0.077084 20 26 34
0.093750 -0.343750 0.077152 20 26 34
0.097656 -0.343750 0.076814 24 29 36
0.101562 -0.343750 0.075947 31 34 39
0.105469 -0.343750 0.074783 45 45 49
0.109375 -0.343750 0.073438 38 36 41
0.113281 -0.343750 0.071736 25 25 28
0.117188 -0.343750 0.069620 26 27 31
0.121094 -0.343750 0.067334 18 20 26
0.125000 -0.343750 0.064999 12 13 18
0.128906 -0.343750 0.062105 13 14 18
0.132812 -0.343750 0.058427 11 12 16
0.136719 -0.343750 0.054647 12 13 16
0.140625 -0.343750 0.050835 14 16 17
0.144531 -0.343750 0.046641 13 15 16
0.148438 -0.343750 0.041648 16 17 18
0.152344 -0.343750 0.036116 16 17 18
0.156250 -0.343750 0.029777 17 18 20
0.160156 -0.343750 0.021890 13 13 17
0.164062 -0.343750 0.010340 16 15 24
-0.140625 -0.347656 0.029524 20 23 34
-0.136719 -0.347656 0.041284 17 21 31
-0.132812 -0.347656 0.049254 11 14 24
-0.128906 -0.347656 0.055084 14 19 30
-0.125000 -0.347656 0.059535 15 22 34
-0.121094 -0.347656 0.062487 17 25 39
-0.117188 -0.347656 0.064417 19 27 41
-0.113281 -0.347656 0.066028 18 26 40
-0.109375 -0.347656 0.067538 20 29 43
-0.105469 -0.347656 0.068402 24 35 48
-0.101562 -0.347656 0.068614 29 42 55
-0.097656 -0.347656 0.068596 27 40 53
-0.093750 -0.347656 0.068400 25 37 50
-0.089844 -0.347656 0.067997 28 41 54
-0.085938 -0.347656 0.067487 27 40 53
-0.082031 -0.347656 0.066816 26 39 51
-0.078125 -0.347656 0.065990 25 37 49
-0.074219 -0.347656 0.064852 23 33 45
-0.070312 -0.347656 0.063234 24 33 45
-0.066406 -0.347656 0.061469 22 30 42
-0.062500 -0.347656 0.059632 20 26 39
-0.058594 -0.347656 0.057432 19 23 35
-0.054688 -0.347656 0.054770 18 21 33
-0.050781 -0.347656 0.051976 18 20 32
-0.046875 -0.347656 0.049218 17 19 30
-0.042969 -0.347656 0.046194 15 17 27
-0.039062 -0.347656 0.042847 14 16 23
-0.035156 -0.347656 0.039465 13 15 21
-0.031250 -0.347656 0.036069 12 14 19
-0.027344 -0.347656 0.032134 11 12 16
-0.023438 -0.347656 0.027575 9 10 14
-0.019531 -0.347656 0.022604 8 10 12
-0.015625 -0.347656 0.017572 8 9 12
-0.011719 -0.347656 0.011437 8 10 12
-0.007812 -0.347656 0.003193 9 10 12
-0.003906 -0.347656 -0.006818 6 7 9
0.000000 -0.347656 -0.018505 4 5 7
0.027344 -0.347656 0.012607 6 6 10
0.031250 -0.347656 0.024884 9 10 14
0.035156 -0.347656 0.032898 11 12 16
0.039062 -0.347656 0.040109 11 12 17
0.042969 -0.347656 0.046380 12 14 19
0.046875 -0.347656 0.052242 14 16 23
0.050781 -0.347656 0.057138 16 19 27
0.054688 -0.347656 0.060914 16 20 29
0.058594 -0.347656 0.064225 16 20 30
0.062500 -0.347656 0.067378 17 22 32
0.066406 -0.347656 0.069934 18 23 32
0.070312 -0.347656 0.071789 18 23 32
0.074219 -0.347656 0.073375 20 26 34
0.078125 -0.347656 0.074786 21 27 35
0.082031 -0.347656 0.075772 21 28 35
0.085938 -0.347656 0.076213 22 29 37
0.089844 -0.347656 0.076418 20 26 35
0.093750 -0.347656 0.076495 20 26 36
0.097656 -0.347656 0.076135 21 25 35
0.101562 -0.347656 0.075239 19 22 30
