ply
    format ascii 1.0
    element vertex 101256
    property float x
    property float y
    property float z
    property uchar red
    property uchar green
    property uchar blue
    end_header
0.292969 0.105469 -0.045781 210 162 131
0.296875 0.105469 -0.042200 207 157 127
0.300781 0.105469 -0.039039 207 158 128
0.304688 0.105469 -0.035577 204 154 127
0.308594 0.105469 -0.033119 197 151 125
0.312500 0.105469 -0.028939 189 149 123
0.316406 0.105469 -0.025669 176 151 135
-0.355469 0.101562 -0.021156 191 149 125
-0.351562 0.101562 -0.027258 180 126 103
-0.347656 0.101562 -0.030410 177 116 95
-0.343750 0.101562 -0.032446 176 114 93
-0.339844 0.101562 -0.033610 180 116 94
-0.335938 0.101562 -0.034510 183 118 95
-0.332031 0.101562 -0.034721 191 127 100
-0.328125 0.101562 -0.034906 197 134 104
-0.324219 0.101562 -0.033570 200 136 104
-0.320312 0.101562 -0.031068 201 137 104
-0.316406 0.101562 -0.028839 202 139 105
-0.312500 0.101562 -0.027115 202 139 104
-0.308594 0.101562 -0.025996 201 138 103
-0.304688 0.101562 -0.025516 201 138 103
-0.300781 0.101562 -0.024953 202 138 103
-0.296875 0.101562 -0.024623 202 139 104
-0.292969 0.101562 -0.026373 200 134 100
-0.289062 0.101562 -0.031573 191 123 92
-0.285156 0.101562 -0.039778 180 112 86
-0.281250 0.101562 -0.048619 167 101 79
-0.277344 0.101562 -0.056098 154 96 75
-0.273438 0.101562 -0.062290 130 79 68
-0.269531 0.101562 -0.068032 96 56 61
-0.265625 0.101562 -0.073160 71 43 59
-0.261719 0.101562 -0.077122 64 46 61
-0.257812 0.101562 -0.080459 75 63 76
-0.253906 0.101562 -0.083474 119 106 108
-0.250000 0.101562 -0.086353 112 103 94
-0.246094 0.101562 -0.089304 102 94 83
-0.242188 0.101562 -0.092320 101 95 83
-0.238281 0.101562 -0.094928 94 88 76
-0.234375 0.101562 -0.097601 94 90 79
-0.230469 0.101562 -0.100120 98 96 84
-0.226562 0.101562 -0.102520 108 108 100
-0.222656 0.101562 -0.104680 120 121 115
-0.218750 0.101562 -0.106708 123 125 122
-0.214844 0.101562 -0.108450 127 128 130
-0.210938 0.101562 -0.110080 127 130 135
-0.207031 0.101562 -0.111602 124 128 137
-0.203125 0.101562 -0.113011 122 126 138
-0.199219 0.101562 -0.114453 119 125 139
-0.195312 0.101562 -0.115916 119 125 139
-0.191406 0.101562 -0.117543 115 125 152
-0.187500 0.101562 -0.119336 119 129 156
-0.183594 0.101562 -0.121260 121 133 159
-0.179688 0.101562 -0.123299 120 134 161
-0.175781 0.101562 -0.125499 116 130 157
-0.171875 0.101562 -0.127678 110 126 152
-0.167969 0.101562 -0.129832 105 122 148
-0.164062 0.101562 -0.131908 103 120 146
-0.160156 0.101562 -0.134106 96 114 138
-0.156250 0.101562 -0.136352 91 109 131
-0.152344 0.101562 -0.138873 85 102 122
-0.148438 0.101562 -0.141607 83 98 117
-0.144531 0.101562 -0.144428 91 107 123
-0.140625 0.101562 -0.147282 104 117 133
-0.136719 0.101562 -0.150096 109 121 135
-0.132812 0.101562 -0.152852 106 118 130
-0.128906 0.101562 -0.155526 97 108 138
-0.125000 0.101562 -0.158071 92 103 133
-0.121094 0.101562 -0.160402 88 102 131
-0.117188 0.101562 -0.162523 93 109 135
-0.113281 0.101562 -0.164380 103 123 148
-0.109375 0.101562 -0.166046 110 132 156
-0.105469 0.101562 -0.167414 109 131 154
-0.101562 0.101562 -0.168523 106 128 151
-0.097656 0.101562 -0.169345 106 128 151
-0.093750 0.101562 -0.169898 105 126 147
-0.089844 0.101562 -0.170170 107 125 147
-0.085938 0.101562 -0.170185 112 127 150
-0.082031 0.101562 -0.169933 119 131 155
-0.078125 0.101562 -0.169554 123 130 156
-0.074219 0.101562 -0.169056 122 128 152
-0.070312 0.101562 -0.168547 121 125 150
-0.066406 0.101562 -0.167973 108 124 150
-0.062500 0.101562 -0.167361 111 127 153
-0.058594 0.101562 -0.166855 114 129 158
-0.054688 0.101562 -0.166348 114 129 158
-0.050781 0.101562 -0.165904 112 127 156
-0.046875 0.101562 -0.165339 111 126 157
-0.042969 0.101562 -0.164837 113 128 157
-0.039062 0.101562 -0.164231 116 131 160
-0.035156 0.101562 -0.163615 110 126 152
-0.031250 0.101562 -0.162957 112 128 153
-0.027344 0.101562 -0.162158 116 132 155
-0.023438 0.101562 -0.161391 119 136 156
-0.019531 0.101562 -0.160667 120 137 155
-0.015625 0.101562 -0.160118 119 136 152
-0.011719 0.101562 -0.159598 116 134 148
-0.007812 0.101562 -0.159132 114 132 144
-0.003906 0.101562 -0.158660 123 129 141
0.000000 0.101562 -0.158159 123 129 141
0.003906 0.101562 -0.157594 124 130 144
0.007812 0.101562 -0.156946 125 131 145
0.011719 0.101562 -0.156192 124 132 145
0.015625 0.101562 -0.155318 123 131 144
0.019531 0.101562 -0.154372 122 129 145
0.023438 0.101562 -0.153305 122 129 145
0.027344 0.101562 -0.152129 129 138 153
0.031250 0.101562 -0.150829 127 136 151
0.035156 0.101562 -0.149455 123 132 149
0.039062 0.101562 -0.147952 119 131 147
0.042969 0.101562 -0.146327 121 133 149
0.046875 0.101562 -0.144570 124 136 152
0.050781 0.101562 -0.142765 118 129 147
0.054688 0.101562 -0.140999 110 121 139
0.058594 0.101562 -0.139223 102 114 130
0.062500 0.101562 -0.137470 104 116 132
0.066406 0.101562 -0.135718 109 121 137
0.070312 0.101562 -0.133995 115 124 141
0.074219 0.101562 -0.132372 113 122 139
0.078125 0.101562 -0.130871 107 116 133
0.082031 0.101562 -0.129407 106 115 132
0.085938 0.101562 -0.128064 111 118 136
0.089844 0.101562 -0.126801 118 125 143
0.093750 0.101562 -0.125631 118 125 143
0.097656 0.101562 -0.124612 118 125 143
0.101562 0.101562 -0.123648 119 124 143
0.105469 0.101562 -0.122661 120 125 144
0.109375 0.101562 -0.121655 121 127 143
0.113281 0.101562 -0.120547 122 128 144
0.117188 0.101562 -0.119366 122 128 144
0.121094 0.101562 -0.118176 124 128 139
0.125000 0.101562 -0.117046 124 127 136
0.128906 0.101562 -0.116112 125 125 133
0.132812 0.101562 -0.115309 123 123 131
0.136719 0.101562 -0.114639 123 121 126
0.140625 0.101562 -0.113996 123 118 122
0.144531 0.101562 -0.113373 122 117 121
0.148438 0.101562 -0.112746 122 116 118
0.152344 0.101562 -0.112089 106 100 102
0.156250 0.101562 -0.111410 99 93 95
0.160156 0.101562 -0.110616 94 88 90
0.164062 0.101562 -0.109840 95 89 91
0.167969 0.101562 -0.109043 96 91 95
0.171875 0.101562 -0.108240 94 92 97
0.175781 0.101562 -0.107368 99 96 101
0.179688 0.101562 -0.106239 102 100 105
0.183594 0.101562 -0.105086 117 116 121
0.187500 0.101562 -0.103723 148 144 150
0.191406 0.101562 -0.101941 129 117 123
0.195312 0.101562 -0.099914 107 95 101
0.199219 0.101562 -0.097548 124 111 117
0.203125 0.101562 -0.094603 137 126 132
0.207031 0.101562 -0.091940 146 136 140
0.210938 0.101562 -0.089257 152 141 144
0.214844 0.101562 -0.086641 154 143 145
0.218750 0.101562 -0.084343 159 149 150
0.222656 0.101562 -0.082452 177 168 167
0.226562 0.101562 -0.080879 199 193 190
0.230469 0.101562 -0.079011 214 212 206
0.234375 0.101562 -0.077017 193 193 179
0.238281 0.101562 -0.075276 125 114 93
0.242188 0.101562 -0.073614 134 107 93
0.246094 0.101562 -0.072187 136 105 90
0.250000 0.101562 -0.070683 142 104 89
0.253906 0.101562 -0.068862 161 115 93
0.257812 0.101562 -0.066937 175 126 102
0.261719 0.101562 -0.065282 192 143 116
0.265625 0.101562 -0.063723 207 160 131
0.269531 0.101562 -0.061624 211 164 134
0.273438 0.101562 -0.059228 214 166 136
0.277344 0.101562 -0.056805 215 168 137
0.281250 0.101562 -0.054332 214 167 136
0.285156 0.101562 -0.051304 213 166 135
0.289062 0.101562 -0.047758 212 164 133
0.292969 0.101562 -0.044333 211 163 133
0.296875 0.101562 -0.040641 207 158 128
0.300781 0.101562 -0.037504 206 158 129
0.304688 0.101562 -0.034098 202 154 127
0.308594 0.101562 -0.031484 195 150 124
0.312500 0.101562 -0.027253 185 147 122
0.316406 0.101562 -0.023302 184 157 138
-0.355469 0.097656 -0.019004 177 138 120
-0.351562 0.097656 -0.026035 179 127 107
-0.347656 0.097656 -0.029285 179 118 98
-0.343750 0.097656 -0.031183 176 114 94
-0.339844 0.097656 -0.032504 179 116 94
-0.335938 0.097656 -0.033447 182 117 94
-0.332031 0.097656 -0.033615 190 126 100
-0.328125 0.097656 -0.033774 198 134 105
-0.324219 0.097656 -0.032320 200 136 105
-0.320312 0.097656 -0.029579 202 138 105
-0.316406 0.097656 -0.027078 203 140 106
-0.312500 0.097656 -0.025180 203 140 105
-0.308594 0.097656 -0.023947 202 139 104
-0.304688 0.097656 -0.023249 202 139 104
-0.300781 0.097656 -0.022585 202 139 103
-0.296875 0.097656 -0.022225 202 139 104
-0.292969 0.097656 -0.023467 200 135 100
-0.289062 0.097656 -0.028277 192 124 93
-0.285156 0.097656 -0.036393 182 113 86
-0.281250 0.097656 -0.045858 170 103 80
-0.277344 0.097656 -0.053740 159 98 77
-0.273438 0.097656 -0.060360 134 81 69
-0.269531 0.097656 -0.066654 100 59 62
-0.265625 0.097656 -0.072133 73 44 58
-0.261719 0.097656 -0.076316 59 41 56
-0.257812 0.097656 -0.079592 73 63 75
-0.253906 0.097656 -0.082621 118 106 107
-0.250000 0.097656 -0.085420 111 102 94
-0.246094 0.097656 -0.088335 106 98 87
-0.242188 0.097656 -0.091507 106 100 88
-0.238281 0.097656 -0.094197 94 90 79
-0.234375 0.097656 -0.096994 97 93 82
-0.230469 0.097656 -0.099565 104 101 92
-0.226562 0.097656 -0.102038 118 118 110
-0.222656 0.097656 -0.104274 120 121 116
-0.218750 0.097656 -0.106345 121 123 122
-0.214844 0.097656 -0.108117 122 126 129
-0.210938 0.097656 -0.109764 120 125 131
-0.207031 0.097656 -0.111279 117 121 132
-0.203125 0.097656 -0.112671 110 116 128
-0.199219 0.097656 -0.114081 105 111 125
-0.195312 0.097656 -0.115484 103 109 125
-0.191406 0.097656 -0.117051 91 101 128
-0.187500 0.097656 -0.118796 95 105 132
-0.183594 0.097656 -0.120668 100 112 138
-0.179688 0.097656 -0.122688 101 115 142
-0.175781 0.097656 -0.124886 103 117 144
-0.171875 0.097656 -0.127099 102 118 144
-0.167969 0.097656 -0.129312 102 119 145
-0.164062 0.097656 -0.131459 103 120 146
-0.160156 0.097656 -0.133732 100 118 142
-0.156250 0.097656 -0.136058 91 109 131
-0.152344 0.097656 -0.138685 82 99 119
-0.148438 0.097656 -0.141529 82 97 116
-0.144531 0.097656 -0.144480 95 111 127
-0.140625 0.097656 -0.147450 111 124 140
-0.136719 0.097656 -0.150362 114 126 140
-0.132812 0.097656 -0.153204 108 120 132
-0.128906 0.097656 -0.155948 109 119 154
-0.125000 0.097656 -0.158566 106 117 149
-0.121094 0.097656 -0.160949 101 115 144
-0.117188 0.097656 -0.163118 101 115 142
-0.113281 0.097656 -0.165010 103 119 144
-0.109375 0.097656 -0.166701 107 125 145
-0.105469 0.097656 -0.168099 111 130 147
-0.101562 0.097656 -0.169228 113 132 147
-0.097656 0.097656 -0.170060 112 131 146
-0.093750 0.097656 -0.170615 113 130 146
-0.089844 0.097656 -0.170873 117 130 147
-0.085938 0.097656 -0.170856 120 131 149
-0.082031 0.097656 -0.170549 122 128 150
-0.078125 0.097656 -0.170107 119 123 148
-0.074219 0.097656 -0.169538 114 116 141
-0.070312 0.097656 -0.168956 109 109 137
-0.066406 0.097656 -0.168331 104 119 148
-0.062500 0.097656 -0.167665 105 120 149
-0.058594 0.097656 -0.167131 108 123 154
-0.054688 0.097656 -0.166596 109 124 155
-0.050781 0.097656 -0.166122 110 125 156
-0.046875 0.097656 -0.165523 110 125 156
-0.042969 0.097656 -0.164977 112 127 158
-0.039062 0.097656 -0.164339 114 129 160
-0.035156 0.097656 -0.163704 108 123 152
-0.031250 0.097656 -0.163041 109 125 151
-0.027344 0.097656 -0.162254 112 128 151
-0.023438 0.097656 -0.161527 114 131 151
-0.019531 0.097656 -0.160839 116 133 149
-0.015625 0.097656 -0.160319 115 133 147
-0.011719 0.097656 -0.159828 112 130 142
-0.007812 0.097656 -0.159376 110 128 140
-0.003906 0.097656 -0.158912 120 126 138
0.000000 0.097656 -0.158412 120 126 138
0.003906 0.097656 -0.157843 120 126 140
0.007812 0.097656 -0.157193 119 125 139
0.011719 0.097656 -0.156433 117 125 138
0.015625 0.097656 -0.155558 116 124 137
0.019531 0.097656 -0.154607 115 122 138
0.023438 0.097656 -0.153528 114 121 137
0.027344 0.097656 -0.152327 121 130 145
0.031250 0.097656 -0.150987 119 128 143
0.035156 0.097656 -0.149582 116 125 142
0.039062 0.097656 -0.148041 115 127 143
0.042969 0.097656 -0.146386 122 134 150
0.046875 0.097656 -0.144617 128 140 156
0.050781 0.097656 -0.142808 124 135 153
0.054688 0.097656 -0.141044 115 126 144
0.058594 0.097656 -0.139288 108 120 136
0.062500 0.097656 -0.137556 110 119 136
0.066406 0.097656 -0.135837 113 122 139
0.070312 0.097656 -0.134137 120 129 146
0.074219 0.097656 -0.132535 121 130 147
0.078125 0.097656 -0.131063 119 128 145
0.082031 0.097656 -0.129628 119 126 144
0.085938 0.097656 -0.128336 122 129 147
0.089844 0.097656 -0.127114 125 132 148
0.093750 0.097656 -0.125999 119 126 142
0.097656 0.097656 -0.125028 112 118 134
0.101562 0.097656 -0.124108 105 111 127
0.105469 0.097656 -0.123159 102 108 124
0.109375 0.097656 -0.122179 102 108 124
0.113281 0.097656 -0.121077 107 110 127
0.117188 0.097656 -0.119891 109 112 129
0.121094 0.097656 -0.118681 112 116 125
0.125000 0.097656 -0.117523 114 117 126
0.128906 0.097656 -0.116566 118 118 126
0.132812 0.097656 -0.115741 119 120 125
0.136719 0.097656 -0.115059 120 118 123
0.140625 0.097656 -0.114401 120 115 119
0.144531 0.097656 -0.113774 117 113 114
0.148438 0.097656 -0.113137 116 110 112
0.152344 0.097656 -0.112472 112 106 106
0.156250 0.097656 -0.111781 105 99 99
0.160156 0.097656 -0.110981 101 95 97
0.164062 0.097656 -0.110191 102 96 98
0.167969 0.097656 -0.109371 103 98 102
0.171875 0.097656 -0.108567 100 98 101
0.175781 0.097656 -0.107687 102 100 105
0.179688 0.097656 -0.106577 105 103 108
0.183594 0.097656 -0.105425 114 113 118
0.187500 0.097656 -0.104071 146 142 147
0.191406 0.097656 -0.102325 128 116 122
0.195312 0.097656 -0.100417 106 93 100
0.199219 0.097656 -0.098187 123 110 116
0.203125 0.097656 -0.095410 137 125 131
0.207031 0.097656 -0.092925 145 135 139
0.210938 0.097656 -0.090498 149 138 141
0.214844 0.097656 -0.087868 151 139 141
0.218750 0.097656 -0.085511 157 146 147
0.222656 0.097656 -0.083428 179 169 168
0.226562 0.097656 -0.081638 202 196 193
0.230469 0.097656 -0.079542 216 214 208
0.234375 0.097656 -0.077330 196 195 182
0.238281 0.097656 -0.075380 127 114 95
0.242188 0.097656 -0.073517 136 106 93
0.246094 0.097656 -0.071901 139 105 91
0.250000 0.097656 -0.070215 145 105 90
0.253906 0.097656 -0.068265 165 117 95
0.257812 0.097656 -0.066234 179 129 105
0.261719 0.097656 -0.064459 195 145 118
0.265625 0.097656 -0.062790 210 162 133
0.269531 0.097656 -0.060565 213 166 136
0.273438 0.097656 -0.058037 216 168 138
0.277344 0.097656 -0.055492 217 170 139
0.281250 0.097656 -0.052907 216 169 138
0.285156 0.097656 -0.049777 215 168 137
0.289062 0.097656 -0.046144 213 166 136
0.292969 0.097656 -0.042601 212 164 135
0.296875 0.097656 -0.038827 208 159 130
0.300781 0.097656 -0.035740 206 159 130
0.304688 0.097656 -0.032430 201 153 126
0.308594 0.097656 -0.029493 191 148 124
0.312500 0.097656 -0.025515 177 140 121
0.316406 0.097656 -0.021259 179 153 135
-0.355469 0.093750 -0.016194 184 154 137
-0.351562 0.093750 -0.024967 181 133 116
-0.347656 0.093750 -0.028084 182 122 103
-0.343750 0.093750 -0.029914 176 116 95
-0.339844 0.093750 -0.031284 179 116 95
-0.335938 0.093750 -0.032334 181 116 93
-0.332031 0.093750 -0.032497 189 125 99
-0.328125 0.093750 -0.032605 197 133 104
-0.324219 0.093750 -0.031031 200 136 105
-0.320312 0.093750 -0.028080 202 138 106
-0.316406 0.093750 -0.025293 204 140 106
-0.312500 0.093750 -0.023184 204 141 106
-0.308594 0.093750 -0.021729 203 140 104
-0.304688 0.093750 -0.020874 203 140 104
-0.300781 0.093750 -0.020093 203 139 104
-0.296875 0.093750 -0.019640 202 140 104
-0.292969 0.093750 -0.020639 200 136 101
-0.289062 0.093750 -0.024508 193 126 94
-0.285156 0.093750 -0.032436 184 115 87
-0.281250 0.093750 -0.042267 174 105 81
-0.277344 0.093750 -0.050889 164 101 79
-0.273438 0.093750 -0.058214 140 85 72
-0.269531 0.093750 -0.064987 106 62 64
-0.265625 0.093750 -0.070829 76 46 57
-0.261719 0.093750 -0.075241 57 39 54
-0.257812 0.093750 -0.078714 71 62 73
-0.253906 0.093750 -0.081680 113 101 103
-0.250000 0.093750 -0.084581 107 97 91
-0.246094 0.093750 -0.087526 106 99 90
-0.242188 0.093750 -0.090612 109 102 92
-0.238281 0.093750 -0.093461 95 91 80
-0.234375 0.093750 -0.096441 98 95 86
-0.230469 0.093750 -0.099068 108 105 98
-0.226562 0.093750 -0.101549 123 122 117
-0.222656 0.093750 -0.103781 118 119 114
-0.218750 0.093750 -0.105853 119 121 120
-0.214844 0.093750 -0.107624 118 122 125
-0.210938 0.093750 -0.109268 116 121 127
-0.207031 0.093750 -0.110771 108 115 125
-0.203125 0.093750 -0.112152 99 105 119
-0.199219 0.093750 -0.113534 90 96 112
-0.195312 0.093750 -0.114891 84 91 109
-0.191406 0.093750 -0.116426 99 109 136
-0.187500 0.093750 -0.118140 102 112 139
-0.183594 0.093750 -0.119979 105 117 143
-0.179688 0.093750 -0.122000 106 120 147
-0.175781 0.093750 -0.124215 108 122 149
-0.171875 0.093750 -0.126469 108 124 150
-0.167969 0.093750 -0.128735 109 126 152
-0.164062 0.093750 -0.130942 111 128 154
-0.160156 0.093750 -0.133277 112 130 154
-0.156250 0.093750 -0.135675 101 119 141
-0.152344 0.093750 -0.138399 91 108 128
-0.148438 0.093750 -0.141354 92 107 126
-0.144531 0.093750 -0.144436 107 123 139
-0.140625 0.093750 -0.147518 124 137 153
-0.136719 0.093750 -0.150538 125 137 151
-0.132812 0.093750 -0.153470 117 129 141
-0.128906 0.093750 -0.156283 121 129 166
-0.125000 0.093750 -0.158967 121 129 165
-0.121094 0.093750 -0.161386 115 126 156
-0.117188 0.093750 -0.163584 106 118 144
-0.113281 0.093750 -0.165498 96 111 132
-0.109375 0.093750 -0.167199 95 111 127
-0.105469 0.093750 -0.168616 102 118 131
-0.101562 0.093750 -0.169759 109 126 136
-0.097656 0.093750 -0.170609 109 123 132
-0.093750 0.093750 -0.171183 113 127 136
-0.089844 0.093750 -0.171448 121 131 143
-0.085938 0.093750 -0.171421 125 132 148
-0.082031 0.093750 -0.171079 126 129 148
-0.078125 0.093750 -0.170594 121 121 145
-0.074219 0.093750 -0.169978 116 113 140
-0.070312 0.093750 -0.169346 111 108 135
-0.066406 0.093750 -0.168684 110 124 153
-0.062500 0.093750 -0.167994 110 123 155
-0.058594 0.093750 -0.167438 112 125 157
-0.054688 0.093750 -0.166869 114 127 159
-0.050781 0.093750 -0.166365 116 129 161
-0.046875 0.093750 -0.165737 119 132 164
-0.042969 0.093750 -0.165147 120 133 165
-0.039062 0.093750 -0.164478 120 134 163
-0.035156 0.093750 -0.163814 125 139 166
-0.031250 0.093750 -0.163146 121 135 161
-0.027344 0.093750 -0.162378 115 130 153
-0.023438 0.093750 -0.161680 111 126 145
-0.019531 0.093750 -0.161023 111 127 143
-0.015625 0.093750 -0.160523 113 129 142
-0.011719 0.093750 -0.160048 116 133 143
-0.007812 0.093750 -0.159604 117 134 144
-0.003906 0.093750 -0.159140 119 125 137
0.000000 0.093750 -0.158632 119 125 137
0.003906 0.093750 -0.158045 117 123 137
0.007812 0.093750 -0.157373 114 120 134
0.011719 0.093750 -0.156587 110 118 131
0.015625 0.093750 -0.155693 107 115 128
0.019531 0.093750 -0.154715 104 111 127
0.023438 0.093750 -0.153612 102 109 125
0.027344 0.093750 -0.152379 94 103 118
0.031250 0.093750 -0.150994 93 102 117
0.035156 0.093750 -0.149563 92 101 118
0.039062 0.093750 -0.148001 95 107 123
0.042969 0.093750 -0.146344 107 119 135
0.046875 0.093750 -0.144588 117 129 145
0.050781 0.093750 -0.142802 115 126 144
0.054688 0.093750 -0.141078 107 118 136
0.058594 0.093750 -0.139367 97 106 123
0.062500 0.093750 -0.137666 99 108 125
0.066406 0.093750 -0.135991 107 116 133
0.070312 0.093750 -0.134323 119 128 145
0.074219 0.093750 -0.132753 125 134 151
0.078125 0.093750 -0.131323 125 132 150
0.082031 0.093750 -0.129932 122 129 147
0.085938 0.093750 -0.128699 122 129 145
0.089844 0.093750 -0.127527 128 135 151
0.093750 0.093750 -0.126474 118 124 140
0.097656 0.093750 -0.125547 101 107 123
0.101562 0.093750 -0.124661 84 90 104
0.105469 0.093750 -0.123736 75 78 93
0.109375 0.093750 -0.122760 72 75 90
0.113281 0.093750 -0.121639 74 77 92
0.117188 0.093750 -0.120425 77 80 95
0.121094 0.093750 -0.119184 88 92 101
0.125000 0.093750 -0.117986 97 100 109
0.128906 0.093750 -0.116995 112 112 120
0.132812 0.093750 -0.116137 122 123 128
0.136719 0.093750 -0.115433 128 126 131
0.140625 0.093750 -0.114752 127 122 126
0.144531 0.093750 -0.114111 121 117 118
0.148438 0.093750 -0.113449 116 110 110
0.152344 0.093750 -0.112765 123 117 117
0.156250 0.093750 -0.112042 116 110 110
0.160156 0.093750 -0.111208 113 107 107
0.164062 0.093750 -0.110374 113 107 109
0.167969 0.093750 -0.109498 111 107 108
0.171875 0.093750 -0.108646 105 103 106
0.175781 0.093750 -0.107706 103 101 106
0.179688 0.093750 -0.106576 104 102 107
0.183594 0.093750 -0.105388 111 110 115
0.187500 0.093750 -0.104009 144 141 146
0.191406 0.093750 -0.102261 127 115 121
0.195312 0.093750 -0.100455 104 91 97
0.199219 0.093750 -0.098365 121 107 113
0.203125 0.093750 -0.095860 135 123 128
0.207031 0.093750 -0.093470 143 132 136
0.210938 0.093750 -0.091364 146 134 137
0.214844 0.093750 -0.088753 149 135 138
0.218750 0.093750 -0.086370 157 145 147
0.222656 0.093750 -0.084134 183 172 171
0.226562 0.093750 -0.082122 207 200 197
0.230469 0.093750 -0.079832 219 217 211
0.234375 0.093750 -0.077395 198 197 184
0.238281 0.093750 -0.075184 129 116 97
0.242188 0.093750 -0.073139 139 107 95
0.246094 0.093750 -0.071357 142 106 92
0.250000 0.093750 -0.069479 149 107 91
0.253906 0.093750 -0.067396 169 119 97
0.257812 0.093750 -0.065250 184 132 107
0.261719 0.093750 -0.063340 198 148 121
0.265625 0.093750 -0.061553 212 164 135
0.269531 0.093750 -0.059197 215 168 138
0.273438 0.093750 -0.056523 217 170 140
0.277344 0.093750 -0.053856 218 171 141
0.281250 0.093750 -0.051159 218 170 140
0.285156 0.093750 -0.047941 217 169 139
0.289062 0.093750 -0.044237 215 167 138
0.292969 0.093750 -0.040590 213 165 137
0.296875 0.093750 -0.036732 208 160 132
0.300781 0.093750 -0.033717 206 159 131
0.304688 0.093750 -0.030494 199 152 127
0.308594 0.093750 -0.027509 189 150 126
0.312500 0.093750 -0.023812 177 150 132
-0.351562 0.089844 -0.023668 177 134 120
-0.347656 0.089844 -0.026966 184 127 106
-0.343750 0.089844 -0.028809 177 118 97
-0.339844 0.089844 -0.030122 178 117 95
-0.335938 0.089844 -0.031193 180 116 93
-0.332031 0.089844 -0.031331 187 123 98
-0.328125 0.089844 -0.031379 195 131 103
-0.324219 0.089844 -0.029664 199 134 104
-0.320312 0.089844 -0.026537 201 138 105
-0.316406 0.089844 -0.023450 203 140 106
-0.312500 0.089844 -0.021058 204 141 106
-0.308594 0.089844 -0.019336 204 141 105
-0.304688 0.089844 -0.018297 204 141 105
-0.300781 0.089844 -0.017361 203 140 104
-0.296875 0.089844 -0.016779 203 140 104
-0.292969 0.089844 -0.017679 200 137 102
-0.289062 0.089844 -0.019939 194 127 95
-0.285156 0.089844 -0.027976 186 116 87
-0.281250 0.089844 -0.038126 177 107 82
-0.277344 0.089844 -0.047495 168 105 81
-0.273438 0.089844 -0.055537 148 91 76
-0.269531 0.089844 -0.062863 116 71 69
-0.265625 0.089844 -0.069165 83 54 62
-0.261719 0.089844 -0.073982 58 42 56
-0.257812 0.089844 -0.077680 72 64 76
-0.253906 0.089844 -0.080746 113 101 103
-0.250000 0.089844 -0.083664 107 100 92
-0.246094 0.089844 -0.086744 113 106 97
-0.242188 0.089844 -0.089649 116 109 101
-0.238281 0.089844 -0.092665 102 98 89
-0.234375 0.089844 -0.095846 105 102 93
-0.230469 0.089844 -0.098548 107 107 99
-0.226562 0.089844 -0.101019 113 114 108
-0.222656 0.089844 -0.103245 115 117 114
-0.218750 0.089844 -0.105343 120 124 125
-0.214844 0.089844 -0.107154 126 129 134
-0.210938 0.089844 -0.108838 118 122 131
-0.207031 0.089844 -0.110350 94 100 112
-0.203125 0.089844 -0.111733 76 82 98
-0.199219 0.089844 -0.113086 78 85 103
-0.195312 0.089844 -0.114399 91 98 116
-0.191406 0.089844 -0.115923 102 112 139
-0.187500 0.089844 -0.117613 108 118 145
-0.183594 0.089844 -0.119427 113 125 151
-0.179688 0.089844 -0.121445 114 128 155
-0.175781 0.089844 -0.123655 114 128 155
-0.171875 0.089844 -0.125956 111 127 153
-0.167969 0.089844 -0.128275 109 126 152
-0.164062 0.089844 -0.130560 109 126 152
-0.160156 0.089844 -0.133009 111 129 153
-0.156250 0.089844 -0.135526 104 122 144
-0.152344 0.089844 -0.138386 96 113 133
-0.148438 0.089844 -0.141461 95 110 129
-0.144531 0.089844 -0.144679 102 118 134
-0.140625 0.089844 -0.147862 114 127 143
-0.136719 0.089844 -0.150966 119 131 145
-0.132812 0.089844 -0.153968 118 130 142
-0.128906 0.089844 -0.156827 116 124 160
-0.125000 0.089844 -0.159556 117 126 159
-0.121094 0.089844 -0.162008 112 121 150
-0.117188 0.089844 -0.164238 104 114 139
-0.113281 0.089844 -0.166185 104 117 134
-0.109375 0.089844 -0.167912 113 127 140
-0.105469 0.089844 -0.169355 120 134 143
-0.101562 0.089844 -0.170514 121 134 142
-0.097656 0.089844 -0.171371 125 138 144
-0.093750 0.089844 -0.171944 123 134 140
-0.089844 0.089844 -0.172186 121 130 139
-0.085938 0.089844 -0.172131 125 129 141
-0.082031 0.089844 -0.171752 130 131 149
-0.078125 0.089844 -0.171224 133 131 152
-0.074219 0.089844 -0.170575 127 125 149
-0.070312 0.089844 -0.169895 122 118 143
-0.066406 0.089844 -0.169187 112 123 151
-0.062500 0.089844 -0.168444 117 128 158
-0.058594 0.089844 -0.167819 121 132 162
-0.054688 0.089844 -0.167172 122 133 163
-0.050781 0.089844 -0.166594 120 131 161
-0.046875 0.089844 -0.165925 119 130 160
-0.042969 0.089844 -0.165291 121 132 162
-0.039062 0.089844 -0.164589 123 134 162
-0.035156 0.089844 -0.163918 127 139 165
-0.031250 0.089844 -0.163267 125 137 161
-0.027344 0.089844 -0.162527 104 116 138
-0.023438 0.089844 -0.161859 77 90 107
-0.019531 0.089844 -0.161232 77 90 106
-0.015625 0.089844 -0.160746 103 117 128
-0.011719 0.089844 -0.160278 123 137 146
-0.007812 0.089844 -0.159833 125 139 148
-0.003906 0.089844 -0.159353 132 138 150
0.000000 0.089844 -0.158824 134 140 152
0.003906 0.089844 -0.158210 134 140 154
0.007812 0.089844 -0.157520 132 138 152
0.011719 0.089844 -0.156722 126 134 147
0.015625 0.089844 -0.155833 121 129 142
0.019531 0.089844 -0.154862 118 125 141
0.023438 0.089844 -0.153776 117 124 140
0.027344 0.089844 -0.152556 100 109 124
0.031250 0.089844 -0.151168 94 103 118
0.035156 0.089844 -0.149747 83 92 109
0.039062 0.089844 -0.148192 73 85 101
0.042969 0.089844 -0.146553 78 90 106
0.046875 0.089844 -0.144823 93 105 121
0.050781 0.089844 -0.143066 107 118 136
0.054688 0.089844 -0.141386 112 123 141
0.058594 0.089844 -0.139713 108 116 135
0.062500 0.089844 -0.138036 106 114 133
0.066406 0.089844 -0.136398 107 116 133
0.070312 0.089844 -0.134760 111 120 137
0.074219 0.089844 -0.133228 111 118 136
0.078125 0.089844 -0.131836 107 114 132
0.082031 0.089844 -0.130476 105 112 128
0.085938 0.089844 -0.129286 108 114 130
0.089844 0.089844 -0.128152 111 117 133
0.093750 0.089844 -0.127148 112 118 132
0.097656 0.089844 -0.126252 105 111 125
0.101562 0.089844 -0.125387 92 95 110
0.105469 0.089844 -0.124472 85 89 101
0.109375 0.089844 -0.123498 89 93 105
0.113281 0.089844 -0.122371 98 102 114
0.117188 0.089844 -0.121140 101 105 117
0.121094 0.089844 -0.119880 83 87 96
0.125000 0.089844 -0.118643 90 93 100
0.128906 0.089844 -0.117611 102 102 110
0.132812 0.089844 -0.116707 113 114 119
0.136719 0.089844 -0.115964 122 120 125
0.140625 0.089844 -0.115237 124 119 123
0.144531 0.089844 -0.114548 120 116 117
0.148438 0.089844 -0.113824 116 110 110
0.152344 0.089844 -0.113088 122 116 116
0.156250 0.089844 -0.112314 117 111 111
0.160156 0.089844 -0.111432 112 106 106
0.164062 0.089844 -0.110538 110 104 106
0.167969 0.089844 -0.109589 106 102 103
0.171875 0.089844 -0.108667 100 98 101
0.175781 0.089844 -0.107649 100 98 101
0.179688 0.089844 -0.106487 104 102 105
0.183594 0.089844 -0.105251 111 110 115
0.187500 0.089844 -0.103817 154 150 156
0.191406 0.089844 -0.102065 126 114 119
0.195312 0.089844 -0.100333 102 89 95
0.199219 0.089844 -0.098348 116 102 108
0.203125 0.089844 -0.096066 133 121 125
0.207031 0.089844 -0.093844 138 127 130
0.210938 0.089844 -0.091924 143 130 133
0.214844 0.089844 -0.089324 145 130 133
0.218750 0.089844 -0.086819 156 142 144
0.222656 0.089844 -0.084387 185 174 172
0.226562 0.089844 -0.082145 212 205 202
0.230469 0.089844 -0.079683 224 221 215
0.234375 0.089844 -0.077049 201 201 187
0.238281 0.089844 -0.074650 130 117 98
0.242188 0.089844 -0.072494 141 109 97
0.246094 0.089844 -0.070552 145 108 94
0.250000 0.089844 -0.068473 152 108 92
0.253906 0.089844 -0.066249 173 122 99
0.257812 0.089844 -0.063961 188 135 110
0.261719 0.089844 -0.061920 202 150 123
0.265625 0.089844 -0.060014 214 165 136
0.269531 0.089844 -0.057516 217 170 140
0.273438 0.089844 -0.054688 219 172 142
0.277344 0.089844 -0.051908 220 173 143
0.281250 0.089844 -0.049111 219 172 142
0.285156 0.089844 -0.045825 218 171 141
0.289062 0.089844 -0.042076 216 169 140
0.292969 0.089844 -0.038336 214 166 138
0.296875 0.089844 -0.034399 209 161 134
0.300781 0.089844 -0.031656 205 159 132
0.304688 0.089844 -0.028584 196 150 126
0.308594 0.089844 -0.025487 185 149 126
0.312500 0.089844 -0.020960 178 161 143
-0.351562 0.085938 -0.021339 174 139 129
-0.347656 0.085938 -0.025545 187 135 111
-0.343750 0.085938 -0.027688 177 120 98
-0.339844 0.085938 -0.028848 178 118 96
-0.335938 0.085938 -0.030011 179 117 94
-0.332031 0.085938 -0.030190 185 122 98
-0.328125 0.085938 -0.030183 192 128 101
-0.324219 0.085938 -0.028333 197 132 103
-0.320312 0.085938 -0.025034 200 136 104
-0.316406 0.085938 -0.021619 203 139 105
-0.312500 0.085938 -0.018897 204 141 106
-0.308594 0.085938 -0.016947 204 141 105
-0.304688 0.085938 -0.015695 204 141 105
-0.300781 0.085938 -0.014634 204 141 105
-0.296875 0.085938 -0.013955 203 141 104
-0.292969 0.085938 -0.014678 201 137 102
-0.289062 0.085938 -0.016285 195 128 95
-0.285156 0.085938 -0.022714 188 117 88
-0.281250 0.085938 -0.033201 180 109 83
-0.277344 0.085938 -0.043580 174 109 83
-0.273438 0.085938 -0.052477 155 98 79
-0.269531 0.085938 -0.060574 130 83 80
-0.265625 0.085938 -0.067401 99 70 74
-0.261719 0.085938 -0.072569 62 51 61
-0.257812 0.085938 -0.076447 79 72 84
-0.253906 0.085938 -0.079801 114 104 106
-0.250000 0.085938 -0.083089 102 94 89
-0.246094 0.085938 -0.086084 105 98 91
-0.242188 0.085938 -0.088940 104 100 91
-0.238281 0.085938 -0.092048 94 90 81
-0.234375 0.085938 -0.095351 98 95 89
-0.230469 0.085938 -0.098142 103 102 97
-0.226562 0.085938 -0.100619 112 113 108
-0.222656 0.085938 -0.102784 118 119 118
-0.218750 0.085938 -0.104851 115 119 120
-0.214844 0.085938 -0.106663 114 119 125
-0.210938 0.085938 -0.108368 109 113 124
-0.207031 0.085938 -0.109878 98 104 118
-0.203125 0.085938 -0.111279 97 104 120
-0.199219 0.085938 -0.112629 113 120 138
-0.195312 0.085938 -0.113938 132 139 158
-0.191406 0.085938 -0.115485 123 133 160
-0.187500 0.085938 -0.117206 122 132 159
-0.183594 0.085938 -0.119063 121 133 159
-0.179688 0.085938 -0.121128 119 133 160
-0.175781 0.085938 -0.123373 120 134 161
-0.171875 0.085938 -0.125737 119 135 161
-0.167969 0.085938 -0.128112 115 132 158
-0.164062 0.085938 -0.130460 113 130 156
-0.160156 0.085938 -0.132984 109 127 151
-0.156250 0.085938 -0.135560 104 122 144
-0.152344 0.085938 -0.138496 99 116 136
-0.148438 0.085938 -0.141642 96 111 130
-0.144531 0.085938 -0.144954 99 115 131
-0.140625 0.085938 -0.148216 107 120 136
-0.136719 0.085938 -0.151386 112 124 138
-0.132812 0.085938 -0.154438 114 126 138
-0.128906 0.085938 -0.157331 114 121 150
-0.125000 0.085938 -0.160103 117 124 152
-0.121094 0.085938 -0.162595 117 124 150
-0.117188 0.085938 -0.164875 113 121 142
-0.113281 0.085938 -0.166866 115 124 141
-0.109375 0.085938 -0.168625 122 132 144
-0.105469 0.085938 -0.170104 126 136 145
-0.101562 0.085938 -0.171298 124 135 141
-0.097656 0.085938 -0.172177 120 129 134
-0.093750 0.085938 -0.172770 119 126 132
-0.089844 0.085938 -0.173005 118 125 133
-0.085938 0.085938 -0.172932 120 124 135
-0.082031 0.085938 -0.172526 123 125 140
-0.078125 0.085938 -0.171947 128 127 145
-0.074219 0.085938 -0.171265 131 129 150
-0.070312 0.085938 -0.170536 134 130 153
-0.066406 0.085938 -0.169780 115 125 150
-0.062500 0.085938 -0.168959 116 126 153
-0.058594 0.085938 -0.168232 116 126 153
-0.054688 0.085938 -0.167475 114 124 151
-0.050781 0.085938 -0.166784 110 120 147
-0.046875 0.085938 -0.166047 106 116 143
-0.042969 0.085938 -0.165346 104 114 141
-0.039062 0.085938 -0.164612 103 113 140
-0.035156 0.085938 -0.163934 107 117 142
-0.031250 0.085938 -0.163288 103 114 136
-0.027344 0.085938 -0.162577 95 106 124
-0.023438 0.085938 -0.161942 89 101 117
-0.019531 0.085938 -0.161345 92 104 118
-0.015625 0.085938 -0.160873 103 116 125
-0.011719 0.085938 -0.160413 114 127 135
-0.007812 0.085938 -0.159954 119 132 140
-0.003906 0.085938 -0.159445 127 133 145
0.000000 0.085938 -0.158881 128 134 146
0.003906 0.085938 -0.158229 129 135 149
0.007812 0.085938 -0.157506 127 133 147
0.011719 0.085938 -0.156681 122 130 143
0.015625 0.085938 -0.155779 117 125 138
0.019531 0.085938 -0.154796 114 121 137
0.023438 0.085938 -0.153708 114 121 137
0.027344 0.085938 -0.152493 105 114 129
0.031250 0.085938 -0.151110 105 114 129
0.035156 0.085938 -0.149713 102 111 128
0.039062 0.085938 -0.148177 97 109 125
0.042969 0.085938 -0.146570 101 113 129
0.046875 0.085938 -0.144882 110 122 138
0.050781 0.085938 -0.143179 115 126 144
0.054688 0.085938 -0.141565 114 125 143
0.058594 0.085938 -0.139958 115 123 142
0.062500 0.085938 -0.138342 112 120 139
0.066406 0.085938 -0.136759 112 119 138
0.070312 0.085938 -0.135165 114 121 139
0.074219 0.085938 -0.133679 112 119 137
0.078125 0.085938 -0.132324 106 113 131
0.082031 0.085938 -0.131008 105 111 127
0.085938 0.085938 -0.129876 107 113 129
0.089844 0.085938 -0.128794 105 111 125
0.093750 0.085938 -0.127849 113 119 133
0.097656 0.085938 -0.126994 118 122 134
0.101562 0.085938 -0.126157 113 117 129
0.105469 0.085938 -0.125253 109 113 125
0.109375 0.085938 -0.124284 110 114 125
0.113281 0.085938 -0.123160 112 116 127
0.117188 0.085938 -0.121930 112 114 126
0.121094 0.085938 -0.120669 99 104 110
0.125000 0.085938 -0.119418 101 104 111
0.128906 0.085938 -0.118369 105 106 111
0.132812 0.085938 -0.117426 109 110 114
0.136719 0.085938 -0.116640 116 114 117
0.140625 0.085938 -0.115857 121 117 118
0.144531 0.085938 -0.115100 121 117 116
0.148438 0.085938 -0.114298 121 115 115
0.152344 0.085938 -0.113483 109 104 101
0.156250 0.085938 -0.112625 102 97 94
0.160156 0.085938 -0.111660 99 93 93
0.164062 0.085938 -0.110672 103 97 97
0.167969 0.085938 -0.109615 105 101 102
0.171875 0.085938 -0.108595 101 99 100
0.175781 0.085938 -0.107479 98 96 99
0.179688 0.085938 -0.106258 97 95 98
0.183594 0.085938 -0.104951 111 110 115
0.187500 0.085938 -0.103472 155 151 156
0.191406 0.085938 -0.101724 127 115 120
0.195312 0.085938 -0.100069 101 88 94
0.199219 0.085938 -0.098225 114 101 106
0.203125 0.085938 -0.096090 131 118 122
0.207031 0.085938 -0.094176 134 122 126
0.210938 0.085938 -0.092157 137 124 126
0.214844 0.085938 -0.089647 138 123 126
0.218750 0.085938 -0.086976 150 136 138
0.222656 0.085938 -0.084329 184 173 171
0.226562 0.085938 -0.081854 215 208 205
0.230469 0.085938 -0.079260 225 222 217
0.234375 0.085938 -0.076438 197 196 182
0.238281 0.085938 -0.073859 121 107 90
0.242188 0.085938 -0.071593 139 107 95
0.246094 0.085938 -0.069452 147 110 96
0.250000 0.085938 -0.067181 155 110 94
0.253906 0.085938 -0.064847 177 124 102
0.257812 0.085938 -0.062401 192 138 113
0.261719 0.085938 -0.060221 205 152 125
0.265625 0.085938 -0.058183 216 167 138
0.269531 0.085938 -0.055543 219 172 142
0.273438 0.085938 -0.052564 221 173 143
0.277344 0.085938 -0.049693 222 174 144
0.281250 0.085938 -0.046810 221 173 144
0.285156 0.085938 -0.043476 220 171 143
0.289062 0.085938 -0.039711 217 169 141
0.292969 0.085938 -0.035942 214 166 139
0.296875 0.085938 -0.032036 209 160 135
0.300781 0.085938 -0.029429 203 157 133
0.304688 0.085938 -0.026331 192 146 124
0.308594 0.085938 -0.023542 182 148 126
0.312500 0.085938 -0.019504 184 175 158
-0.351562 0.082031 -0.018791 180 155 150
-0.347656 0.082031 -0.023904 189 144 120
-0.343750 0.082031 -0.026417 177 124 101
-0.339844 0.082031 -0.027599 177 121 98
-0.335938 0.082031 -0.028867 177 118 95
-0.332031 0.082031 -0.029023 183 121 97
-0.328125 0.082031 -0.028904 188 125 99
-0.324219 0.082031 -0.026920 194 129 101
-0.320312 0.082031 -0.023487 198 134 103
-0.316406 0.082031 -0.019759 201 137 104
-0.312500 0.082031 -0.016663 203 140 105
-0.308594 0.082031 -0.014441 204 141 105
-0.304688 0.082031 -0.012944 204 142 105
-0.300781 0.082031 -0.011752 204 141 105
-0.296875 0.082031 -0.010975 203 141 105
-0.292969 0.082031 -0.011373 201 137 102
-0.289062 0.082031 -0.012898 196 128 95
-0.285156 0.082031 -0.016432 190 119 89
-0.281250 0.082031 -0.027593 184 112 85
-0.277344 0.082031 -0.038942 179 113 84
-0.273438 0.082031 -0.048732 159 100 80
-0.269531 0.082031 -0.057335 137 89 84
-0.265625 0.082031 -0.064963 106 77 78
-0.261719 0.082031 -0.070827 62 53 61
-0.257812 0.082031 -0.075027 85 80 91
-0.253906 0.082031 -0.078709 112 104 106
-0.250000 0.082031 -0.082411 94 86 82
-0.246094 0.082031 -0.085468 94 89 83
-0.242188 0.082031 -0.088225 95 90 84
-0.238281 0.082031 -0.091556 85 82 75
-0.234375 0.082031 -0.094973 91 90 85
-0.230469 0.082031 -0.097817 98 98 93
-0.226562 0.082031 -0.100276 108 108 106
-0.222656 0.082031 -0.102310 117 119 118
-0.218750 0.082031 -0.104307 115 119 122
-0.214844 0.082031 -0.106135 116 121 127
-0.210938 0.082031 -0.107933 116 123 133
-0.207031 0.082031 -0.109517 115 121 135
-0.203125 0.082031 -0.110990 114 121 139
-0.199219 0.082031 -0.112344 121 128 147
-0.195312 0.082031 -0.113663 130 137 156
-0.191406 0.082031 -0.115234 112 122 149
-0.187500 0.082031 -0.116970 106 116 143
-0.183594 0.082031 -0.118869 99 111 137
-0.179688 0.082031 -0.120984 97 111 138
-0.175781 0.082031 -0.123273 101 115 142
-0.171875 0.082031 -0.125703 103 119 145
-0.167969 0.082031 -0.128136 102 119 145
-0.164062 0.082031 -0.130572 101 118 144
-0.160156 0.082031 -0.133185 109 127 151
-0.156250 0.082031 -0.135850 110 128 150
-0.152344 0.082031 -0.138905 110 127 147
-0.148438 0.082031 -0.142155 109 124 143
-0.144531 0.082031 -0.145563 106 122 138
-0.140625 0.082031 -0.148887 105 118 134
-0.136719 0.082031 -0.152087 106 118 132
-0.132812 0.082031 -0.155152 106 118 130
-0.128906 0.082031 -0.158045 108 114 138
-0.125000 0.082031 -0.160814 112 118 140
-0.121094 0.082031 -0.163309 114 121 140
-0.117188 0.082031 -0.165595 113 120 138
-0.113281 0.082031 -0.167582 115 123 136
-0.109375 0.082031 -0.169325 119 127 138
-0.105469 0.082031 -0.170790 119 128 135
-0.101562 0.082031 -0.171987 118 125 131
-0.097656 0.082031 -0.172863 117 124 130
-0.093750 0.082031 -0.173478 115 122 128
-0.089844 0.082031 -0.173702 114 118 127
-0.085938 0.082031 -0.173623 110 114 125
-0.082031 0.082031 -0.173207 108 110 123
-0.078125 0.082031 -0.172588 112 114 129
-0.074219 0.082031 -0.171905 121 120 138
-0.070312 0.082031 -0.171135 127 126 144
-0.066406 0.082031 -0.170331 113 121 142
-0.062500 0.082031 -0.169443 112 120 141
-0.058594 0.082031 -0.168617 111 119 140
-0.054688 0.082031 -0.167768 110 118 139
-0.050781 0.082031 -0.166994 110 118 141
-0.046875 0.082031 -0.166220 109 117 140
-0.042969 0.082031 -0.165484 106 114 137
-0.039062 0.082031 -0.164747 104 112 135
-0.035156 0.082031 -0.164080 110 118 139
-0.031250 0.082031 -0.163442 105 113 132
-0.027344 0.082031 -0.162762 107 116 133
-0.023438 0.082031 -0.162164 114 124 136
-0.019531 0.082031 -0.161590 113 123 133
-0.015625 0.082031 -0.161122 105 115 124
-0.011719 0.082031 -0.160657 102 113 119
-0.007812 0.082031 -0.160168 107 118 124
-0.003906 0.082031 -0.159618 119 125 137
0.000000 0.082031 -0.159011 122 128 140
0.003906 0.082031 -0.158315 125 131 145
0.007812 0.082031 -0.157548 126 132 146
0.011719 0.082031 -0.156690 124 132 145
0.015625 0.082031 -0.155773 123 131 144
0.019531 0.082031 -0.154779 123 130 146
0.023438 0.082031 -0.153685 124 131 147
0.027344 0.082031 -0.152480 117 126 141
0.031250 0.082031 -0.151111 119 128 143
0.035156 0.082031 -0.149739 118 127 144
0.039062 0.082031 -0.148235 114 126 142
0.042969 0.082031 -0.146675 116 128 144
0.046875 0.082031 -0.145038 120 132 148
0.050781 0.082031 -0.143397 119 130 148
0.054688 0.082031 -0.141856 114 125 143
0.058594 0.082031 -0.140320 124 131 150
0.062500 0.082031 -0.138781 120 127 146
0.066406 0.082031 -0.137260 119 126 145
0.070312 0.082031 -0.135714 121 128 146
0.074219 0.082031 -0.134269 119 126 144
0.078125 0.082031 -0.132953 116 121 140
0.082031 0.082031 -0.131695 115 121 137
0.085938 0.082031 -0.130632 117 123 139
0.089844 0.082031 -0.129612 112 118 132
0.093750 0.082031 -0.128734 115 119 131
0.097656 0.082031 -0.127915 110 114 126
0.101562 0.082031 -0.127101 100 104 115
0.105469 0.082031 -0.126196 94 98 109
0.109375 0.082031 -0.125216 98 100 112
0.113281 0.082031 -0.124078 103 105 117
0.117188 0.082031 -0.122824 106 109 118
0.121094 0.082031 -0.121530 112 117 123
0.125000 0.082031 -0.120230 111 114 121
0.128906 0.082031 -0.119131 112 113 118
0.132812 0.082031 -0.118117 113 114 118
0.136719 0.082031 -0.117262 117 115 118
0.140625 0.082031 -0.116397 121 117 118
0.144531 0.082031 -0.115553 120 116 115
0.148438 0.082031 -0.114664 120 115 112
0.152344 0.082031 -0.113766 108 103 100
0.156250 0.082031 -0.112817 100 95 92
0.160156 0.082031 -0.111759 98 93 90
0.164062 0.082031 -0.110675 106 100 100
0.167969 0.082031 -0.109510 114 110 111
0.171875 0.082031 -0.108393 111 109 110
0.175781 0.082031 -0.107183 105 103 106
0.179688 0.082031 -0.105897 100 98 101
0.183594 0.082031 -0.104523 112 111 116
0.187500 0.082031 -0.103002 155 152 157
0.191406 0.082031 -0.101262 129 117 121
0.195312 0.082031 -0.099655 101 88 93
0.199219 0.082031 -0.097891 113 99 103
0.203125 0.082031 -0.095920 129 116 119
0.207031 0.082031 -0.094168 130 118 121
0.210938 0.082031 -0.091950 132 118 121
0.214844 0.082031 -0.089499 135 119 121
0.218750 0.082031 -0.086664 149 134 135
0.222656 0.082031 -0.083818 187 174 173
0.226562 0.082031 -0.081098 218 211 207
0.230469 0.082031 -0.078357 222 219 213
0.234375 0.082031 -0.075428 179 176 158
0.238281 0.082031 -0.072732 112 96 78
0.242188 0.082031 -0.070435 135 102 91
0.246094 0.082031 -0.068137 147 109 95
0.250000 0.082031 -0.065676 157 110 94
0.253906 0.082031 -0.063170 180 126 104
0.257812 0.082031 -0.060538 196 142 116
0.261719 0.082031 -0.058171 207 155 128
0.265625 0.082031 -0.055962 218 168 140
0.269531 0.082031 -0.053157 221 173 144
0.273438 0.082031 -0.050007 222 174 145
0.277344 0.082031 -0.047061 223 175 146
0.281250 0.082031 -0.044129 222 173 145
0.285156 0.082031 -0.040784 221 172 144
0.289062 0.082031 -0.037052 218 169 142
0.292969 0.082031 -0.033345 215 165 140
0.296875 0.082031 -0.029538 209 159 135
0.300781 0.082031 -0.027085 203 157 134
0.304688 0.082031 -0.023809 193 149 127
0.308594 0.082031 -0.021017 181 150 132
0.312500 0.082031 -0.016636 177 150 132
-0.351562 0.078125 -0.016524 163 144 148
-0.347656 0.078125 -0.022035 183 141 120
-0.343750 0.078125 -0.024817 175 125 103
-0.339844 0.078125 -0.026127 178 124 101
-0.335938 0.078125 -0.027494 176 120 96
-0.332031 0.078125 -0.027671 180 121 97
-0.328125 0.078125 -0.027505 184 122 97
-0.324219 0.078125 -0.025412 190 126 99
-0.320312 0.078125 -0.021808 195 131 101
-0.316406 0.078125 -0.017739 199 135 103
-0.312500 0.078125 -0.014283 202 139 104
-0.308594 0.078125 -0.011793 203 140 105
-0.304688 0.078125 -0.010056 204 142 106
-0.300781 0.078125 -0.008756 204 142 105
-0.296875 0.078125 -0.007879 203 141 105
-0.292969 0.078125 -0.008010 201 138 102
-0.289062 0.078125 -0.009358 196 129 96
-0.285156 0.078125 -0.010655 192 121 90
-0.281250 0.078125 -0.020663 186 114 86
-0.277344 0.078125 -0.033068 183 116 86
-0.273438 0.078125 -0.044532 164 104 82
-0.269531 0.078125 -0.054201 141 92 84
-0.265625 0.078125 -0.062599 107 76 75
-0.261719 0.078125 -0.068983 63 54 61
-0.257812 0.078125 -0.073563 98 95 104
-0.253906 0.078125 -0.077486 112 104 105
-0.250000 0.078125 -0.081524 87 80 76
-0.246094 0.078125 -0.084954 88 84 78
-0.242188 0.078125 -0.087810 92 87 81
-0.238281 0.078125 -0.091344 83 80 75
-0.234375 0.078125 -0.094858 88 87 82
-0.230469 0.078125 -0.097744 93 94 89
-0.226562 0.078125 -0.100177 100 102 99
-0.222656 0.078125 -0.102077 115 116 118
-0.218750 0.078125 -0.103924 115 118 123
-0.214844 0.078125 -0.105675 118 122 130
-0.210938 0.078125 -0.107518 118 124 136
-0.207031 0.078125 -0.109160 118 125 141
-0.203125 0.078125 -0.110725 115 122 140
-0.199219 0.078125 -0.112144 110 118 137
-0.195312 0.078125 -0.113541 108 116 137
-0.191406 0.078125 -0.115206 114 124 151
-0.187500 0.078125 -0.117022 108 118 145
-0.183594 0.078125 -0.119012 99 111 137
-0.179688 0.078125 -0.121217 92 106 133
-0.175781 0.078125 -0.123587 92 106 133
-0.171875 0.078125 -0.126100 94 110 136
-0.167969 0.078125 -0.128590 97 114 140
-0.164062 0.078125 -0.131096 99 116 142
-0.160156 0.078125 -0.133771 104 122 146
-0.156250 0.078125 -0.136496 106 124 146
-0.152344 0.078125 -0.139632 113 130 150
-0.148438 0.078125 -0.142942 120 135 154
-0.144531 0.078125 -0.146404 119 135 151
-0.140625 0.078125 -0.149758 116 129 145
-0.136719 0.078125 -0.152944 113 125 139
-0.132812 0.078125 -0.155972 112 124 136
-0.128906 0.078125 -0.158816 110 116 130
-0.125000 0.078125 -0.161529 111 117 131
-0.121094 0.078125 -0.163988 111 117 131
-0.117188 0.078125 -0.166260 110 116 128
-0.113281 0.078125 -0.168239 111 118 128
-0.109375 0.078125 -0.169982 114 121 131
-0.105469 0.078125 -0.171442 115 122 130
-0.101562 0.078125 -0.172631 115 122 130
-0.097656 0.078125 -0.173484 121 125 134
-0.093750 0.078125 -0.174093 118 122 131
-0.089844 0.078125 -0.174283 113 117 126
-0.085938 0.078125 -0.174205 108 112 123
-0.082031 0.078125 -0.173824 107 111 122
-0.078125 0.078125 -0.173241 110 114 125
-0.074219 0.078125 -0.172640 116 120 132
-0.070312 0.078125 -0.171869 120 124 136
-0.066406 0.078125 -0.171054 122 128 142
-0.062500 0.078125 -0.170104 120 126 140
-0.058594 0.078125 -0.169160 118 124 140
-0.054688 0.078125 -0.168195 121 127 143
-0.050781 0.078125 -0.167289 125 130 149
-0.046875 0.078125 -0.166428 127 132 151
-0.042969 0.078125 -0.165604 125 130 149
-0.039062 0.078125 -0.164821 122 127 146
-0.035156 0.078125 -0.164126 126 131 150
-0.031250 0.078125 -0.163468 124 130 146
-0.027344 0.078125 -0.162795 127 133 147
-0.023438 0.078125 -0.162203 132 138 150
-0.019531 0.078125 -0.161636 128 135 145
-0.015625 0.078125 -0.161161 117 124 132
-0.011719 0.078125 -0.160676 110 117 123
-0.007812 0.078125 -0.160155 109 116 122
-0.003906 0.078125 -0.159565 120 126 138
0.000000 0.078125 -0.158921 123 129 141
0.003906 0.078125 -0.158194 125 131 145
0.007812 0.078125 -0.157399 126 132 146
0.011719 0.078125 -0.156527 124 132 145
0.015625 0.078125 -0.155606 123 131 144
0.019531 0.078125 -0.154614 123 130 146
0.023438 0.078125 -0.153530 124 131 147
0.027344 0.078125 -0.152347 121 130 145
0.031250 0.078125 -0.151010 120 129 144
0.035156 0.078125 -0.149681 115 124 141
0.039062 0.078125 -0.148229 108 120 136
0.042969 0.078125 -0.146746 107 119 135
0.046875 0.078125 -0.145189 110 122 138
0.050781 0.078125 -0.143636 109 120 138
0.054688 0.078125 -0.142182 105 116 134
0.058594 0.078125 -0.140721 110 117 136
0.062500 0.078125 -0.139265 108 115 134
0.066406 0.078125 -0.137826 109 116 135
0.070312 0.078125 -0.136358 114 121 140
0.074219 0.078125 -0.134980 116 123 141
0.078125 0.078125 -0.133719 116 121 140
0.082031 0.078125 -0.132525 118 124 140
0.085938 0.078125 -0.131524 123 129 143
0.089844 0.078125 -0.130561 127 130 145
0.093750 0.078125 -0.129729 122 126 138
0.097656 0.078125 -0.128923 113 117 128
0.101562 0.078125 -0.128116 103 105 117
0.105469 0.078125 -0.127202 97 100 109
0.109375 0.078125 -0.126223 99 102 111
0.113281 0.078125 -0.125093 105 108 117
0.117188 0.078125 -0.123847 111 114 123
0.121094 0.078125 -0.122558 112 117 123
0.125000 0.078125 -0.121239 114 117 122
0.128906 0.078125 -0.120104 118 119 124
0.132812 0.078125 -0.119036 121 122 126
0.136719 0.078125 -0.118117 124 122 125
0.140625 0.078125 -0.117166 124 120 121
0.144531 0.078125 -0.116228 119 115 114
0.148438 0.078125 -0.115226 116 111 108
0.152344 0.078125 -0.114215 118 113 110
0.156250 0.078125 -0.113156 111 106 103
0.160156 0.078125 -0.111983 108 103 100
0.164062 0.078125 -0.110773 113 107 107
0.167969 0.078125 -0.109468 117 113 112
0.171875 0.078125 -0.108217 113 111 112
0.175781 0.078125 -0.106877 108 106 107
0.179688 0.078125 -0.105483 105 103 106
0.183594 0.078125 -0.104006 112 111 116
0.187500 0.078125 -0.102406 156 153 158
0.191406 0.078125 -0.100633 129 118 121
0.195312 0.078125 -0.099049 101 88 92
0.199219 0.078125 -0.097317 112 98 101
0.203125 0.078125 -0.095462 125 112 115
0.207031 0.078125 -0.093763 124 112 115
0.210938 0.078125 -0.091412 123 109 111
0.214844 0.078125 -0.088867 124 109 111
0.218750 0.078125 -0.085924 141 125 127
0.222656 0.078125 -0.082945 185 172 170
0.226562 0.078125 -0.080026 216 209 206
0.230469 0.078125 -0.077128 213 208 201
0.234375 0.078125 -0.074099 152 148 123
0.238281 0.078125 -0.071332 110 92 74
