ply
    format ascii 1.0
    element vertex 76128
    property float x
    property float y
    property float z
    property uchar red
    property uchar green
    property uchar blue
    end_header
0.312500 -0.121094 0.019350 232 194 162
0.316406 -0.121094 0.014767 222 184 159
0.320312 -0.121094 -0.029484 220 202 186
-0.253906 -0.125000 -0.047854 135 114 94
-0.250000 -0.125000 -0.032605 141 110 91
-0.246094 -0.125000 -0.024199 164 129 109
-0.242188 -0.125000 -0.018909 171 130 109
-0.238281 -0.125000 -0.014625 179 133 112
-0.234375 -0.125000 -0.011156 190 141 121
-0.230469 -0.125000 -0.008847 200 150 130
-0.226562 -0.125000 -0.007482 207 159 138
-0.222656 -0.125000 -0.006557 212 165 145
-0.218750 -0.125000 -0.006005 216 170 151
-0.214844 -0.125000 -0.006153 219 175 156
-0.210938 -0.125000 -0.007097 221 175 157
-0.207031 -0.125000 -0.008077 222 173 155
-0.203125 -0.125000 -0.009002 219 169 152
-0.199219 -0.125000 -0.010750 214 163 148
-0.195312 -0.125000 -0.012953 204 154 142
-0.191406 -0.125000 -0.015736 198 161 152
-0.187500 -0.125000 -0.019954 184 157 157
-0.183594 -0.125000 -0.023342 152 145 146
-0.179688 -0.125000 -0.027203 169 185 168
-0.175781 -0.125000 -0.007658 206 216 207
-0.171875 -0.125000 0.022664 212 211 211
-0.167969 -0.125000 0.030467 212 210 211
-0.164062 -0.125000 0.034056 218 217 218
-0.160156 -0.125000 0.037504 224 224 224
-0.156250 -0.125000 0.041098 228 228 228
-0.152344 -0.125000 0.044602 230 230 230
-0.148438 -0.125000 0.048297 233 233 233
-0.144531 -0.125000 0.051990 235 235 235
-0.140625 -0.125000 0.055556 237 237 237
-0.136719 -0.125000 0.058875 239 239 239
-0.132812 -0.125000 0.062051 240 240 240
-0.128906 -0.125000 0.065629 242 242 242
-0.125000 -0.125000 0.069738 244 244 244
-0.121094 -0.125000 0.074035 246 246 246
-0.117188 -0.125000 0.078586 248 248 248
-0.113281 -0.125000 0.083219 249 249 249
-0.109375 -0.125000 0.087660 250 250 250
-0.105469 -0.125000 0.091635 250 250 250
-0.101562 -0.125000 0.095057 251 251 251
-0.097656 -0.125000 0.098248 251 251 251
-0.093750 -0.125000 0.101267 252 252 252
-0.089844 -0.125000 0.104171 252 252 252
-0.085938 -0.125000 0.106900 252 252 252
-0.082031 -0.125000 0.109436 252 252 252
-0.078125 -0.125000 0.111752 252 252 252
-0.074219 -0.125000 0.113678 253 253 253
-0.070312 -0.125000 0.115273 253 253 253
-0.066406 -0.125000 0.116680 253 253 253
-0.062500 -0.125000 0.118038 253 253 253
-0.058594 -0.125000 0.119462 253 253 253
-0.054688 -0.125000 0.120929 253 253 253
-0.050781 -0.125000 0.122426 253 253 253
-0.046875 -0.125000 0.123871 253 253 253
-0.042969 -0.125000 0.125322 253 253 253
-0.039062 -0.125000 0.126726 253 253 253
-0.035156 -0.125000 0.128010 253 253 253
-0.031250 -0.125000 0.129155 253 253 253
-0.027344 -0.125000 0.130367 253 253 253
-0.023438 -0.125000 0.131688 253 253 253
-0.019531 -0.125000 0.132961 254 254 254
-0.015625 -0.125000 0.134087 254 254 254
-0.011719 -0.125000 0.135064 254 254 254
-0.007812 -0.125000 0.135901 254 254 254
-0.003906 -0.125000 0.136582 254 254 254
0.000000 -0.125000 0.137083 254 254 254
0.003906 -0.125000 0.137187 254 254 254
0.007812 -0.125000 0.136980 254 254 254
0.011719 -0.125000 0.136516 254 254 254
0.015625 -0.125000 0.135984 254 254 254
0.019531 -0.125000 0.135459 254 254 254
0.023438 -0.125000 0.134946 254 254 254
0.027344 -0.125000 0.134487 254 254 254
0.031250 -0.125000 0.134079 254 254 254
0.035156 -0.125000 0.133744 254 254 254
0.039062 -0.125000 0.133446 254 254 254
0.042969 -0.125000 0.133213 254 254 254
0.046875 -0.125000 0.132942 254 254 254
0.050781 -0.125000 0.132570 254 254 254
0.054688 -0.125000 0.132031 254 254 254
0.058594 -0.125000 0.131325 250 253 251
0.062500 -0.125000 0.130452 252 253 253
0.066406 -0.125000 0.129412 252 253 253
0.070312 -0.125000 0.128198 253 252 253
0.074219 -0.125000 0.126897 253 252 253
0.078125 -0.125000 0.125614 253 252 253
0.082031 -0.125000 0.124474 253 252 253
0.085938 -0.125000 0.123585 253 253 249
0.089844 -0.125000 0.122747 253 253 244
0.093750 -0.125000 0.122003 251 253 240
0.097656 -0.125000 0.121265 249 252 241
0.101562 -0.125000 0.120534 250 253 248
0.105469 -0.125000 0.119852 248 253 253
0.109375 -0.125000 0.119139 243 250 253
0.113281 -0.125000 0.118416 244 250 254
0.117188 -0.125000 0.117521 247 254 254
0.121094 -0.125000 0.116559 251 251 243
0.125000 -0.125000 0.115638 253 253 245
0.128906 -0.125000 0.114804 254 254 247
0.132812 -0.125000 0.114141 254 254 247
0.136719 -0.125000 0.113527 251 252 244
0.140625 -0.125000 0.113001 249 250 242
0.144531 -0.125000 0.112583 251 252 244
0.148438 -0.125000 0.111975 254 254 247
0.152344 -0.125000 0.111173 251 252 244
0.156250 -0.125000 0.109961 242 245 236
0.160156 -0.125000 0.108200 250 253 244
0.164062 -0.125000 0.105938 248 251 242
0.167969 -0.125000 0.103344 252 253 246
0.171875 -0.125000 0.100692 252 253 246
0.175781 -0.125000 0.098095 247 250 241
0.179688 -0.125000 0.095737 249 252 243
0.183594 -0.125000 0.093342 240 252 238
0.187500 -0.125000 0.090893 247 254 247
0.191406 -0.125000 0.088119 243 250 242
0.195312 -0.125000 0.085032 246 251 245
0.199219 -0.125000 0.081654 248 248 246
0.203125 -0.125000 0.078018 248 246 249
0.207031 -0.125000 0.074264 254 251 254
0.210938 -0.125000 0.070066 254 250 254
0.214844 -0.125000 0.065813 254 250 254
0.218750 -0.125000 0.061000 253 248 253
0.222656 -0.125000 0.055558 251 248 251
0.226562 -0.125000 0.049999 249 245 247
0.230469 -0.125000 0.044868 242 238 237
0.234375 -0.125000 0.041001 246 244 240
0.238281 -0.125000 0.037306 242 242 236
0.242188 -0.125000 0.033451 233 235 227
0.246094 -0.125000 0.026684 212 219 216
0.250000 -0.125000 0.011908 167 185 155
0.253906 -0.125000 0.005615 186 174 150
0.257812 -0.125000 0.015353 211 181 164
0.261719 -0.125000 0.023321 209 169 135
0.265625 -0.125000 0.026741 207 159 122
0.269531 -0.125000 0.027693 216 165 122
0.273438 -0.125000 0.028146 221 172 129
0.277344 -0.125000 0.029533 225 176 134
0.281250 -0.125000 0.031009 232 187 145
0.285156 -0.125000 0.031616 236 193 153
0.289062 -0.125000 0.031205 238 196 157
0.292969 -0.125000 0.030070 239 198 159
0.296875 -0.125000 0.028606 239 195 156
0.300781 -0.125000 0.026922 238 194 155
0.304688 -0.125000 0.025541 237 189 151
0.308594 -0.125000 0.023893 235 189 152
0.312500 -0.125000 0.020848 233 192 156
0.316406 -0.125000 0.017264 221 181 150
0.320312 -0.125000 -0.019095 215 195 175
-0.253906 -0.128906 -0.044987 138 114 94
-0.250000 -0.128906 -0.030102 144 108 86
-0.246094 -0.128906 -0.021680 172 131 105
-0.242188 -0.128906 -0.016477 176 131 105
-0.238281 -0.128906 -0.012452 183 133 109
-0.234375 -0.128906 -0.009103 195 143 120
-0.230469 -0.128906 -0.006922 205 153 129
-0.226562 -0.128906 -0.005700 212 161 138
-0.222656 -0.128906 -0.004971 218 168 146
-0.218750 -0.128906 -0.004563 222 176 154
-0.214844 -0.128906 -0.004749 226 182 160
-0.210938 -0.128906 -0.005704 226 180 159
-0.207031 -0.128906 -0.006696 225 176 155
-0.203125 -0.128906 -0.007658 223 173 153
-0.199219 -0.128906 -0.009520 216 164 146
-0.195312 -0.128906 -0.011814 206 155 140
-0.191406 -0.128906 -0.015040 201 162 151
-0.187500 -0.128906 -0.019862 184 155 154
-0.183594 -0.128906 -0.022492 154 147 145
-0.179688 -0.128906 -0.026223 176 191 174
-0.175781 -0.128906 -0.002761 210 217 209
-0.171875 -0.128906 0.024844 211 211 211
-0.167969 -0.128906 0.031656 208 207 208
-0.164062 -0.128906 0.035190 213 213 213
-0.160156 -0.128906 0.038550 220 220 220
-0.156250 -0.128906 0.041745 225 225 225
-0.152344 -0.128906 0.044930 229 229 229
-0.148438 -0.128906 0.048379 233 233 233
-0.144531 -0.128906 0.051945 235 235 235
-0.140625 -0.128906 0.055405 237 237 237
-0.136719 -0.128906 0.058616 238 238 238
-0.132812 -0.128906 0.061770 239 239 239
-0.128906 -0.128906 0.065378 241 241 241
-0.125000 -0.128906 0.069539 243 243 243
-0.121094 -0.128906 0.073923 245 245 245
-0.117188 -0.128906 0.078565 246 246 246
-0.113281 -0.128906 0.083255 248 248 248
-0.109375 -0.128906 0.087759 249 249 249
-0.105469 -0.128906 0.091788 250 250 250
-0.101562 -0.128906 0.095224 250 250 250
-0.097656 -0.128906 0.098432 251 251 251
-0.093750 -0.128906 0.101478 251 251 251
-0.089844 -0.128906 0.104422 252 252 252
-0.085938 -0.128906 0.107210 252 252 252
-0.082031 -0.128906 0.109801 252 252 252
-0.078125 -0.128906 0.112155 252 252 252
-0.074219 -0.128906 0.114089 252 252 252
-0.070312 -0.128906 0.115662 253 253 253
-0.066406 -0.128906 0.117027 253 253 253
-0.062500 -0.128906 0.118332 253 253 253
-0.058594 -0.128906 0.119685 253 253 253
-0.054688 -0.128906 0.121071 253 253 253
-0.050781 -0.128906 0.122475 253 253 253
-0.046875 -0.128906 0.123839 253 253 253
-0.042969 -0.128906 0.125235 253 253 253
-0.039062 -0.128906 0.126623 253 253 253
-0.035156 -0.128906 0.127906 253 253 253
-0.031250 -0.128906 0.129062 253 253 253
-0.027344 -0.128906 0.130302 253 253 253
-0.023438 -0.128906 0.131664 253 253 253
-0.019531 -0.128906 0.132995 253 253 253
-0.015625 -0.128906 0.134179 253 253 253
-0.011719 -0.128906 0.135209 254 254 254
-0.007812 -0.128906 0.136092 254 254 254
-0.003906 -0.128906 0.136826 254 254 254
0.000000 -0.128906 0.137380 254 254 254
0.003906 -0.128906 0.137537 254 254 254
0.007812 -0.128906 0.137381 254 254 254
0.011719 -0.128906 0.136966 254 254 254
0.015625 -0.128906 0.136469 254 254 254
0.019531 -0.128906 0.135964 254 254 254
0.023438 -0.128906 0.135456 254 254 254
0.027344 -0.128906 0.134985 254 254 254
0.031250 -0.128906 0.134549 254 254 254
0.035156 -0.128906 0.134169 254 254 254
0.039062 -0.128906 0.133821 254 254 254
0.042969 -0.128906 0.133526 254 254 254
0.046875 -0.128906 0.133187 254 254 254
0.050781 -0.128906 0.132739 254 254 254
0.054688 -0.128906 0.132107 253 253 253
0.058594 -0.128906 0.131294 253 253 253
0.062500 -0.128906 0.130291 253 253 253
0.066406 -0.128906 0.129098 253 253 253
0.070312 -0.128906 0.127707 253 253 253
0.074219 -0.128906 0.126220 253 253 253
0.078125 -0.128906 0.124775 253 253 253
0.082031 -0.128906 0.123512 253 253 253
0.085938 -0.128906 0.122559 253 253 253
0.089844 -0.128906 0.121700 253 253 253
0.093750 -0.128906 0.120958 253 253 253
0.097656 -0.128906 0.120245 253 253 253
0.101562 -0.128906 0.119569 253 253 253
0.105469 -0.128906 0.118956 253 253 253
0.109375 -0.128906 0.118316 253 253 253
0.113281 -0.128906 0.117640 253 253 253
0.117188 -0.128906 0.116770 253 253 253
0.121094 -0.128906 0.115825 251 251 251
0.125000 -0.128906 0.114903 251 251 251
0.128906 -0.128906 0.114048 252 252 252
0.132812 -0.128906 0.113345 252 252 252
0.136719 -0.128906 0.112700 252 252 252
0.140625 -0.128906 0.112133 252 252 252
0.144531 -0.128906 0.111656 252 252 252
0.148438 -0.128906 0.111018 252 252 252
0.152344 -0.128906 0.110211 253 253 253
0.156250 -0.128906 0.109018 253 253 253
0.160156 -0.128906 0.107292 252 252 252
0.164062 -0.128906 0.105062 252 252 252
0.167969 -0.128906 0.102493 252 252 252
0.171875 -0.128906 0.099836 252 252 252
0.175781 -0.128906 0.097224 253 253 253
0.179688 -0.128906 0.094832 253 253 253
0.183594 -0.128906 0.092396 253 253 253
0.187500 -0.128906 0.089870 253 253 253
0.191406 -0.128906 0.087042 253 253 253
0.195312 -0.128906 0.083963 253 253 253
0.199219 -0.128906 0.080595 253 253 253
0.203125 -0.128906 0.077005 253 253 253
0.207031 -0.128906 0.073268 254 254 254
0.210938 -0.128906 0.069063 254 254 254
0.214844 -0.128906 0.064777 253 253 253
0.218750 -0.128906 0.059856 252 252 252
0.222656 -0.128906 0.054316 250 250 250
0.226562 -0.128906 0.048731 246 246 246
0.230469 -0.128906 0.043606 245 245 245
0.234375 -0.128906 0.039783 244 244 244
0.238281 -0.128906 0.036093 241 241 241
0.242188 -0.128906 0.032335 234 234 234
0.246094 -0.128906 0.026549 220 221 219
0.250000 -0.128906 0.012619 172 185 157
0.253906 -0.128906 0.006451 185 169 145
0.257812 -0.128906 0.015486 214 181 165
0.261719 -0.128906 0.023484 211 169 134
0.265625 -0.128906 0.026897 208 157 120
0.269531 -0.128906 0.028001 216 164 121
0.273438 -0.128906 0.028613 221 171 127
0.277344 -0.128906 0.030236 226 176 134
0.281250 -0.128906 0.031848 232 188 146
0.285156 -0.128906 0.032580 236 194 154
0.289062 -0.128906 0.032308 239 198 158
0.292969 -0.128906 0.031367 239 199 160
0.296875 -0.128906 0.030108 239 196 157
0.300781 -0.128906 0.028510 239 197 158
0.304688 -0.128906 0.027152 238 193 153
0.308594 -0.128906 0.025623 236 192 153
0.312500 -0.128906 0.022653 234 192 154
0.316406 -0.128906 0.017708 221 179 147
-0.253906 -0.132812 -0.042455 122 96 85
-0.250000 -0.132812 -0.027915 145 109 88
-0.246094 -0.132812 -0.019734 178 137 107
-0.242188 -0.132812 -0.014763 180 133 105
-0.238281 -0.132812 -0.011037 186 135 109
-0.234375 -0.132812 -0.007642 197 145 120
-0.230469 -0.132812 -0.005486 208 155 130
-0.226562 -0.132812 -0.004360 215 164 139
-0.222656 -0.132812 -0.003760 221 172 147
-0.218750 -0.132812 -0.003463 226 180 156
-0.214844 -0.132812 -0.003688 229 186 162
-0.210938 -0.132812 -0.004707 229 184 161
-0.207031 -0.132812 -0.005866 228 180 158
-0.203125 -0.132812 -0.006844 225 177 155
-0.199219 -0.132812 -0.008684 218 167 148
-0.195312 -0.132812 -0.011056 208 157 142
-0.191406 -0.132812 -0.014618 202 163 150
-0.187500 -0.132812 -0.019689 182 152 149
-0.183594 -0.132812 -0.022232 154 146 142
-0.179688 -0.132812 -0.025797 177 189 172
-0.175781 -0.132812 0.000965 207 212 206
-0.171875 -0.132812 0.025478 207 207 207
-0.167969 -0.132812 0.031934 204 203 204
-0.164062 -0.132812 0.035828 210 210 210
-0.160156 -0.132812 0.038989 219 219 219
-0.156250 -0.132812 0.041918 225 225 225
-0.152344 -0.132812 0.044956 230 230 230
-0.148438 -0.132812 0.048248 233 233 233
-0.144531 -0.132812 0.051698 235 235 235
-0.140625 -0.132812 0.055068 237 237 237
-0.136719 -0.132812 0.058222 237 237 237
-0.132812 -0.132812 0.061392 238 238 238
-0.128906 -0.132812 0.065068 239 239 239
-0.125000 -0.132812 0.069303 241 241 241
-0.121094 -0.132812 0.073781 243 243 243
-0.117188 -0.132812 0.078521 245 245 245
-0.113281 -0.132812 0.083270 247 246 246
-0.109375 -0.132812 0.087834 248 248 248
-0.105469 -0.132812 0.091907 249 249 249
-0.101562 -0.132812 0.095352 250 250 250
-0.097656 -0.132812 0.098571 250 250 250
-0.093750 -0.132812 0.101634 251 251 251
-0.089844 -0.132812 0.104610 251 251 251
-0.085938 -0.132812 0.107457 252 252 252
-0.082031 -0.132812 0.110110 252 252 252
-0.078125 -0.132812 0.112512 252 252 252
-0.074219 -0.132812 0.114464 252 252 252
-0.070312 -0.132812 0.116028 252 252 252
-0.066406 -0.132812 0.117363 253 253 253
-0.062500 -0.132812 0.118626 253 253 253
-0.058594 -0.132812 0.119928 253 253 253
-0.054688 -0.132812 0.121250 253 253 253
-0.050781 -0.132812 0.122596 253 253 253
-0.046875 -0.132812 0.123909 253 253 253
-0.042969 -0.132812 0.125280 253 253 253
-0.039062 -0.132812 0.126674 253 253 253
-0.035156 -0.132812 0.127973 253 253 253
-0.031250 -0.132812 0.129147 253 253 253
-0.027344 -0.132812 0.130396 253 253 253
-0.023438 -0.132812 0.131762 253 253 253
-0.019531 -0.132812 0.133099 253 253 253
-0.015625 -0.132812 0.134290 253 253 253
-0.011719 -0.132812 0.135328 253 253 253
-0.007812 -0.132812 0.136219 254 254 254
-0.003906 -0.132812 0.136976 254 254 254
0.000000 -0.132812 0.137563 254 254 254
0.003906 -0.132812 0.137761 254 254 254
0.007812 -0.132812 0.137653 254 254 254
0.011719 -0.132812 0.137285 254 254 254
0.015625 -0.132812 0.136823 254 254 254
0.019531 -0.132812 0.136336 254 254 254
0.023438 -0.132812 0.135829 254 254 254
0.027344 -0.132812 0.135338 254 254 254
0.031250 -0.132812 0.134865 254 254 254
0.035156 -0.132812 0.134427 254 254 254
0.039062 -0.132812 0.134011 254 254 254
0.042969 -0.132812 0.133635 254 254 254
0.046875 -0.132812 0.133209 254 254 254
0.050781 -0.132812 0.132672 254 254 254
0.054688 -0.132812 0.131943 253 253 253
0.058594 -0.132812 0.131034 253 253 253
0.062500 -0.132812 0.129923 253 253 253
0.066406 -0.132812 0.128616 253 253 253
0.070312 -0.132812 0.127095 253 253 253
0.074219 -0.132812 0.125476 253 253 253
0.078125 -0.132812 0.123917 253 253 253
0.082031 -0.132812 0.122568 253 253 253
0.085938 -0.132812 0.121570 253 253 253
0.089844 -0.132812 0.120698 253 253 253
0.093750 -0.132812 0.119962 253 253 253
0.097656 -0.132812 0.119275 253 253 253
0.101562 -0.132812 0.118646 252 252 252
0.105469 -0.132812 0.118098 252 252 252
0.109375 -0.132812 0.117526 252 252 252
0.113281 -0.132812 0.116889 252 252 252
0.117188 -0.132812 0.116040 251 251 251
0.121094 -0.132812 0.115088 250 250 250
0.125000 -0.132812 0.114128 250 250 250
0.128906 -0.132812 0.113228 250 250 250
0.132812 -0.132812 0.112460 250 250 250
0.136719 -0.132812 0.111755 251 251 251
0.140625 -0.132812 0.111133 251 251 251
0.144531 -0.132812 0.110592 251 250 250
0.148438 -0.132812 0.109925 250 250 250
0.152344 -0.132812 0.109111 251 251 251
0.156250 -0.132812 0.107942 251 251 251
0.160156 -0.132812 0.106249 251 251 251
0.164062 -0.132812 0.104043 251 251 251
0.167969 -0.132812 0.101478 251 251 251
0.171875 -0.132812 0.098791 251 251 251
0.175781 -0.132812 0.096138 251 251 251
0.179688 -0.132812 0.093685 252 252 252
0.183594 -0.132812 0.091193 252 252 252
0.187500 -0.132812 0.088600 252 252 252
0.191406 -0.132812 0.085751 252 252 252
0.195312 -0.132812 0.082706 252 252 252
0.199219 -0.132812 0.079377 252 252 252
0.203125 -0.132812 0.075866 252 252 252
0.207031 -0.132812 0.072155 253 253 253
0.210938 -0.132812 0.067911 253 253 253
0.214844 -0.132812 0.063533 252 252 252
0.218750 -0.132812 0.058447 251 251 251
0.222656 -0.132812 0.052792 247 247 247
0.226562 -0.132812 0.047242 243 243 243
0.230469 -0.132812 0.042187 243 243 243
0.234375 -0.132812 0.038427 242 242 242
0.238281 -0.132812 0.034823 239 239 239
0.242188 -0.132812 0.030992 232 232 232
0.246094 -0.132812 0.025894 218 219 217
0.250000 -0.132812 0.013662 160 173 147
0.253906 -0.132812 0.008006 171 150 129
0.257812 -0.132812 0.016064 210 171 157
0.261719 -0.132812 0.023846 211 166 131
0.265625 -0.132812 0.027260 209 157 118
0.269531 -0.132812 0.028593 216 162 119
0.273438 -0.132812 0.029397 222 170 127
0.277344 -0.132812 0.031139 227 177 134
0.281250 -0.132812 0.032826 233 189 146
0.285156 -0.132812 0.033662 237 195 153
0.289062 -0.132812 0.033442 239 198 158
0.292969 -0.132812 0.032600 240 200 160
0.296875 -0.132812 0.031482 239 197 157
0.300781 -0.132812 0.029914 239 199 158
0.304688 -0.132812 0.028574 238 194 154
0.308594 -0.132812 0.027153 238 195 155
0.312500 -0.132812 0.023909 237 198 159
0.316406 -0.132812 0.017700 221 180 152
-0.253906 -0.136719 -0.041002 125 100 87
-0.250000 -0.136719 -0.026567 153 120 96
-0.246094 -0.136719 -0.018443 183 143 110
-0.242188 -0.136719 -0.013650 183 137 106
-0.238281 -0.136719 -0.010048 189 139 110
-0.234375 -0.136719 -0.006617 199 149 121
-0.230469 -0.136719 -0.004478 210 159 132
-0.226562 -0.136719 -0.003416 217 168 141
-0.222656 -0.136719 -0.002864 223 175 149
-0.218750 -0.136719 -0.002608 227 182 157
-0.214844 -0.136719 -0.002932 230 186 161
-0.210938 -0.136719 -0.004047 229 185 162
-0.207031 -0.136719 -0.005236 229 183 160
-0.203125 -0.136719 -0.006179 226 180 158
-0.199219 -0.136719 -0.008014 218 169 150
-0.195312 -0.136719 -0.010492 208 160 143
-0.191406 -0.136719 -0.014372 201 162 149
-0.187500 -0.136719 -0.019416 180 149 145
-0.183594 -0.136719 -0.022643 152 142 136
-0.175781 -0.136719 0.003013 199 202 197
-0.171875 -0.136719 0.025042 199 199 199
-0.167969 -0.136719 0.031843 199 199 199
-0.164062 -0.136719 0.036030 208 208 208
-0.160156 -0.136719 0.038793 219 219 219
-0.156250 -0.136719 0.041502 226 226 226
-0.152344 -0.136719 0.044538 231 231 231
-0.148438 -0.136719 0.047802 234 234 234
-0.144531 -0.136719 0.051215 236 236 236
-0.140625 -0.136719 0.054552 236 236 236
-0.136719 -0.136719 0.057713 236 236 236
-0.132812 -0.136719 0.060955 237 237 237
-0.128906 -0.136719 0.064731 238 238 238
-0.125000 -0.136719 0.069060 239 239 239
-0.121094 -0.136719 0.073637 241 241 241
-0.117188 -0.136719 0.078474 243 243 243
-0.113281 -0.136719 0.083290 245 245 245
-0.109375 -0.136719 0.087910 247 247 247
-0.105469 -0.136719 0.092015 248 248 248
-0.101562 -0.136719 0.095461 249 249 249
-0.097656 -0.136719 0.098686 250 250 250
-0.093750 -0.136719 0.101759 250 250 250
-0.089844 -0.136719 0.104761 251 251 251
-0.085938 -0.136719 0.107668 251 251 251
-0.082031 -0.136719 0.110390 252 252 252
-0.078125 -0.136719 0.112845 252 252 252
-0.074219 -0.136719 0.114826 252 252 252
-0.070312 -0.136719 0.116391 252 252 252
-0.066406 -0.136719 0.117704 253 253 253
-0.062500 -0.136719 0.118934 253 253 253
-0.058594 -0.136719 0.120196 253 253 253
-0.054688 -0.136719 0.121469 253 253 253
-0.050781 -0.136719 0.122774 253 253 253
-0.046875 -0.136719 0.124057 253 253 253
-0.042969 -0.136719 0.125419 253 253 253
-0.039062 -0.136719 0.126833 253 253 253
-0.035156 -0.136719 0.128158 253 253 253
-0.031250 -0.136719 0.129351 253 253 253
-0.027344 -0.136719 0.130597 253 253 253
-0.023438 -0.136719 0.131939 253 253 253
-0.019531 -0.136719 0.133245 253 253 253
-0.015625 -0.136719 0.134409 253 253 253
-0.011719 -0.136719 0.135423 253 253 253
-0.007812 -0.136719 0.136293 253 253 253
-0.003906 -0.136719 0.137046 253 253 253
0.000000 -0.136719 0.137648 254 254 254
0.003906 -0.136719 0.137877 254 254 254
0.007812 -0.136719 0.137814 254 254 254
0.011719 -0.136719 0.137493 254 254 254
0.015625 -0.136719 0.137065 254 254 254
0.019531 -0.136719 0.136597 254 254 254
0.023438 -0.136719 0.136091 254 254 254
0.027344 -0.136719 0.135576 254 254 254
0.031250 -0.136719 0.135057 254 254 254
0.035156 -0.136719 0.134553 254 254 254
0.039062 -0.136719 0.134055 254 254 254
0.042969 -0.136719 0.133583 254 254 254
0.046875 -0.136719 0.133059 254 254 254
0.050781 -0.136719 0.132430 254 254 254
0.054688 -0.136719 0.131619 253 253 253
0.058594 -0.136719 0.130642 253 253 253
0.062500 -0.136719 0.129470 253 253 253
0.066406 -0.136719 0.128111 253 253 253
0.070312 -0.136719 0.126532 253 253 253
0.074219 -0.136719 0.124844 253 253 253
0.078125 -0.136719 0.123219 253 253 253
0.082031 -0.136719 0.121810 253 253 253
0.085938 -0.136719 0.120767 253 253 253
0.089844 -0.136719 0.119868 253 253 253
0.093750 -0.136719 0.119118 253 253 253
0.097656 -0.136719 0.118439 252 252 252
0.101562 -0.136719 0.117834 252 252 252
0.105469 -0.136719 0.117321 252 252 252
0.109375 -0.136719 0.116795 251 251 251
0.113281 -0.136719 0.116183 251 251 251
0.117188 -0.136719 0.115336 250 250 250
0.121094 -0.136719 0.114361 248 248 248
0.125000 -0.136719 0.113353 248 248 248
0.128906 -0.136719 0.112404 248 248 248
0.132812 -0.136719 0.111565 248 248 248
0.136719 -0.136719 0.110790 248 248 248
0.140625 -0.136719 0.110095 248 248 248
0.144531 -0.136719 0.109476 248 248 248
0.148438 -0.136719 0.108780 248 248 248
0.152344 -0.136719 0.107962 249 249 249
0.156250 -0.136719 0.106814 249 249 249
0.160156 -0.136719 0.105145 249 249 249
0.164062 -0.136719 0.102949 249 249 249
0.167969 -0.136719 0.100370 249 249 249
0.171875 -0.136719 0.097633 250 250 250
0.175781 -0.136719 0.094909 250 250 250
0.179688 -0.136719 0.092362 250 250 250
0.183594 -0.136719 0.089787 250 250 250
0.187500 -0.136719 0.087110 250 250 250
0.191406 -0.136719 0.084243 250 250 250
0.195312 -0.136719 0.081228 250 250 250
0.199219 -0.136719 0.077939 250 250 250
0.203125 -0.136719 0.074522 251 251 251
0.207031 -0.136719 0.070849 251 251 251
0.210938 -0.136719 0.066576 251 251 251
0.214844 -0.136719 0.062088 251 251 251
0.218750 -0.136719 0.056839 249 249 249
0.222656 -0.136719 0.051123 245 245 245
0.226562 -0.136719 0.045641 241 241 241
0.230469 -0.136719 0.040713 241 241 241
0.234375 -0.136719 0.037004 241 241 241
0.238281 -0.136719 0.033428 240 240 240
0.242188 -0.136719 0.029370 234 234 234
0.246094 -0.136719 0.024323 218 219 218
0.250000 -0.136719 0.013709 155 169 140
0.253906 -0.136719 0.008949 168 144 121
0.257812 -0.136719 0.016314 205 160 147
0.261719 -0.136719 0.023930 208 159 123
0.265625 -0.136719 0.027636 210 154 115
0.269531 -0.136719 0.029377 218 161 118
0.273438 -0.136719 0.030447 224 171 127
0.277344 -0.136719 0.032351 228 178 135
0.281250 -0.136719 0.034162 234 189 146
0.285156 -0.136719 0.035078 237 194 152
0.289062 -0.136719 0.034866 238 197 156
0.292969 -0.136719 0.034127 239 199 159
0.296875 -0.136719 0.033133 239 196 156
0.300781 -0.136719 0.031623 239 198 157
0.304688 -0.136719 0.030190 238 194 153
0.308594 -0.136719 0.028741 238 197 157
0.312500 -0.136719 0.024941 238 203 164
0.316406 -0.136719 0.017151 221 182 155
-0.253906 -0.140625 -0.039697 139 120 102
-0.250000 -0.140625 -0.025195 162 132 106
-0.246094 -0.140625 -0.017246 184 143 110
-0.242188 -0.140625 -0.012525 186 139 107
-0.238281 -0.140625 -0.008924 192 142 113
-0.234375 -0.140625 -0.005483 202 151 123
-0.230469 -0.140625 -0.003445 212 161 134
-0.226562 -0.140625 -0.002543 219 170 144
-0.222656 -0.140625 -0.002110 224 177 151
-0.218750 -0.140625 -0.001984 227 182 157
-0.214844 -0.140625 -0.002439 229 185 161
-0.210938 -0.140625 -0.003628 229 185 162
-0.207031 -0.140625 -0.004826 228 184 162
-0.203125 -0.140625 -0.005742 225 181 159
-0.199219 -0.140625 -0.007505 217 170 151
-0.195312 -0.140625 -0.010025 206 161 144
-0.191406 -0.140625 -0.014281 199 163 150
-0.187500 -0.140625 -0.019217 179 150 144
-0.183594 -0.140625 -0.023212 152 142 133
-0.175781 -0.140625 0.005707 190 191 188
-0.171875 -0.140625 0.024557 190 189 189
-0.167969 -0.140625 0.031493 193 192 192
-0.164062 -0.140625 0.036024 206 206 206
-0.160156 -0.140625 0.038546 218 218 218
-0.156250 -0.140625 0.041102 227 227 227
-0.152344 -0.140625 0.044174 231 231 231
-0.148438 -0.140625 0.047408 235 235 235
-0.144531 -0.140625 0.050762 236 236 236
-0.140625 -0.140625 0.054059 236 236 236
-0.136719 -0.140625 0.057242 235 235 235
-0.132812 -0.140625 0.060562 235 235 235
-0.128906 -0.140625 0.064430 236 236 236
-0.125000 -0.140625 0.068852 237 237 237
-0.121094 -0.140625 0.073523 239 239 239
-0.117188 -0.140625 0.078449 241 241 241
-0.113281 -0.140625 0.083318 244 243 243
-0.109375 -0.140625 0.087982 245 245 245
-0.105469 -0.140625 0.092119 247 247 247
-0.101562 -0.140625 0.095567 248 248 248
-0.097656 -0.140625 0.098797 249 249 249
-0.093750 -0.140625 0.101875 250 250 250
-0.089844 -0.140625 0.104894 251 251 251
-0.085938 -0.140625 0.107854 251 251 251
-0.082031 -0.140625 0.110641 251 251 251
-0.078125 -0.140625 0.113150 252 252 252
-0.074219 -0.140625 0.115163 252 252 252
-0.070312 -0.140625 0.116734 252 252 252
-0.066406 -0.140625 0.118034 252 252 252
-0.062500 -0.140625 0.119239 253 253 253
-0.058594 -0.140625 0.120474 253 253 253
-0.054688 -0.140625 0.121721 253 253 253
-0.050781 -0.140625 0.123001 253 253 253
-0.046875 -0.140625 0.124284 253 253 253
-0.042969 -0.140625 0.125659 253 253 253
-0.039062 -0.140625 0.127109 253 253 253
-0.035156 -0.140625 0.128471 253 253 253
-0.031250 -0.140625 0.129689 253 253 253
-0.027344 -0.140625 0.130928 253 253 253
-0.023438 -0.140625 0.132229 253 253 253
-0.019531 -0.140625 0.133479 253 253 253
-0.015625 -0.140625 0.134587 253 253 253
-0.011719 -0.140625 0.135550 253 253 253
-0.007812 -0.140625 0.136370 253 253 253
-0.003906 -0.140625 0.137095 253 253 253
0.000000 -0.140625 0.137690 253 253 253
0.003906 -0.140625 0.137938 253 253 253
0.007812 -0.140625 0.137913 254 254 254
0.011719 -0.140625 0.137637 254 254 254
0.015625 -0.140625 0.137244 254 254 254
0.019531 -0.140625 0.136797 254 254 254
0.023438 -0.140625 0.136299 254 254 254
0.027344 -0.140625 0.135768 254 254 254
0.031250 -0.140625 0.135212 254 254 254
0.035156 -0.140625 0.134643 254 254 254
0.039062 -0.140625 0.134059 254 254 254
0.042969 -0.140625 0.133487 254 254 254
0.046875 -0.140625 0.132858 254 254 254
0.050781 -0.140625 0.132137 254 254 254
0.054688 -0.140625 0.131254 253 253 253
0.058594 -0.140625 0.130225 253 253 253
0.062500 -0.140625 0.129029 253 253 253
0.066406 -0.140625 0.127664 253 253 253
0.070312 -0.140625 0.126080 253 253 253
0.074219 -0.140625 0.124381 253 253 253
0.078125 -0.140625 0.122730 253 253 253
0.082031 -0.140625 0.121278 253 253 253
0.085938 -0.140625 0.120184 253 253 253
0.089844 -0.140625 0.119242 252 252 252
0.093750 -0.140625 0.118456 252 252 252
0.097656 -0.140625 0.117763 252 252 252
0.101562 -0.140625 0.117159 252 252 252
0.105469 -0.140625 0.116659 252 252 252
0.109375 -0.140625 0.116156 251 251 251
0.113281 -0.140625 0.115545 250 250 250
0.117188 -0.140625 0.114686 249 249 249
0.121094 -0.140625 0.113681 248 248 248
0.125000 -0.140625 0.112620 248 248 248
0.128906 -0.140625 0.111616 247 247 247
0.132812 -0.140625 0.110711 246 246 246
0.136719 -0.140625 0.109866 246 246 246
0.140625 -0.140625 0.109107 245 245 245
0.144531 -0.140625 0.108430 245 245 245
0.148438 -0.140625 0.107725 245 245 245
0.152344 -0.140625 0.106921 246 246 246
0.156250 -0.140625 0.105813 246 246 246
0.160156 -0.140625 0.104174 247 247 247
0.164062 -0.140625 0.101982 247 247 247
0.167969 -0.140625 0.099376 247 247 247
0.171875 -0.140625 0.096564 248 248 248
0.175781 -0.140625 0.093731 248 248 248
0.179688 -0.140625 0.091039 248 248 248
0.183594 -0.140625 0.088321 249 249 249
0.187500 -0.140625 0.085506 249 249 249
0.191406 -0.140625 0.082570 249 249 249
0.195312 -0.140625 0.079556 249 249 249
0.199219 -0.140625 0.076303 249 249 249
0.203125 -0.140625 0.072978 249 249 249
0.207031 -0.140625 0.069352 250 250 250
0.210938 -0.140625 0.065056 250 250 250
0.214844 -0.140625 0.060450 249 249 249
0.218750 -0.140625 0.055037 247 247 247
0.222656 -0.140625 0.049419 241 241 241
0.226562 -0.140625 0.044043 238 238 238
0.230469 -0.140625 0.039244 239 239 239
0.234375 -0.140625 0.035543 240 240 240
0.238281 -0.140625 0.031903 240 240 240
0.242188 -0.140625 0.027563 234 234 234
0.246094 -0.140625 0.022248 212 213 211
0.250000 -0.140625 0.012877 138 157 117
0.253906 -0.140625 0.009515 172 144 119
0.257812 -0.140625 0.016503 205 154 141
0.261719 -0.140625 0.023899 206 153 116
0.265625 -0.140625 0.027891 211 153 113
0.269531 -0.140625 0.030131 219 162 118
0.273438 -0.140625 0.031602 226 172 127
0.277344 -0.140625 0.033751 229 179 135
0.281250 -0.140625 0.035762 234 189 145
0.285156 -0.140625 0.036824 237 194 152
0.289062 -0.140625 0.036631 238 197 155
0.292969 -0.140625 0.035956 239 199 158
0.296875 -0.140625 0.035057 238 195 154
0.300781 -0.140625 0.033596 239 197 156
0.304688 -0.140625 0.031986 238 194 153
0.308594 -0.140625 0.030067 238 197 157
0.312500 -0.140625 0.025925 238 205 165
0.316406 -0.140625 0.018183 221 183 156
-0.253906 -0.144531 -0.038859 138 121 104
-0.250000 -0.144531 -0.024030 165 136 110
-0.246094 -0.144531 -0.016142 185 143 110
-0.242188 -0.144531 -0.011503 189 141 109
-0.238281 -0.144531 -0.007868 195 145 115
-0.234375 -0.144531 -0.004446 204 154 125
-0.230469 -0.144531 -0.002506 213 163 135
-0.226562 -0.144531 -0.001728 219 172 145
-0.222656 -0.144531 -0.001419 224 178 152
-0.218750 -0.144531 -0.001397 227 183 157
-0.214844 -0.144531 -0.001941 229 185 161
-0.210938 -0.144531 -0.003155 229 185 162
-0.207031 -0.144531 -0.004331 228 184 162
-0.203125 -0.144531 -0.005219 224 181 159
-0.199219 -0.144531 -0.006991 215 170 151
-0.195312 -0.144531 -0.009614 205 162 146
-0.191406 -0.144531 -0.014195 199 166 152
-0.187500 -0.144531 -0.019036 179 151 144
-0.183594 -0.144531 -0.023867 151 142 132
-0.175781 -0.144531 0.009518 185 185 184
-0.171875 -0.144531 0.023989 184 184 184
-0.167969 -0.144531 0.030906 189 188 189
-0.164062 -0.144531 0.035769 204 204 204
-0.160156 -0.144531 0.038226 218 218 218
-0.156250 -0.144531 0.040716 228 228 228
-0.152344 -0.144531 0.043824 232 232 232
-0.148438 -0.144531 0.047049 235 235 235
-0.144531 -0.144531 0.050339 236 236 236
-0.140625 -0.144531 0.053617 235 235 235
-0.136719 -0.144531 0.056842 233 233 233
-0.132812 -0.144531 0.060252 233 233 233
-0.128906 -0.144531 0.064227 233 233 233
-0.125000 -0.144531 0.068736 235 235 235
-0.121094 -0.144531 0.073491 237 236 236
-0.117188 -0.144531 0.078485 239 239 239
-0.113281 -0.144531 0.083394 242 242 242
-0.109375 -0.144531 0.088096 244 244 244
-0.105469 -0.144531 0.092263 246 246 246
-0.101562 -0.144531 0.095718 247 247 247
-0.097656 -0.144531 0.098954 248 248 248
-0.093750 -0.144531 0.102026 249 249 249
-0.089844 -0.144531 0.105041 250 250 250
-0.085938 -0.144531 0.108040 251 251 251
-0.082031 -0.144531 0.110882 251 251 251
-0.078125 -0.144531 0.113437 252 252 252
-0.074219 -0.144531 0.115481 252 252 252
-0.070312 -0.144531 0.117060 252 252 252
-0.066406 -0.144531 0.118348 252 252 252
-0.062500 -0.144531 0.119530 252 252 252
-0.058594 -0.144531 0.120745 253 253 253
-0.054688 -0.144531 0.121981 253 253 253
-0.050781 -0.144531 0.123254 253 253 253
-0.046875 -0.144531 0.124542 253 253 253
-0.042969 -0.144531 0.125943 253 253 253
-0.039062 -0.144531 0.127430 253 253 253
-0.035156 -0.144531 0.128829 253 253 253
-0.031250 -0.144531 0.130069 253 253 253
-0.027344 -0.144531 0.131295 253 253 253
-0.023438 -0.144531 0.132542 253 253 253
-0.019531 -0.144531 0.133720 253 253 253
-0.015625 -0.144531 0.134757 253 253 253
-0.011719 -0.144531 0.135652 253 253 253
-0.007812 -0.144531 0.136409 253 253 253
-0.003906 -0.144531 0.137092 253 253 253
0.000000 -0.144531 0.137668 253 253 253
0.003906 -0.144531 0.137927 253 253 253
0.007812 -0.144531 0.137933 253 253 253
0.011719 -0.144531 0.137695 253 253 253
0.015625 -0.144531 0.137330 254 254 254
0.019531 -0.144531 0.136905 254 254 254
0.023438 -0.144531 0.136417 254 254 254
0.027344 -0.144531 0.135875 254 254 254
0.031250 -0.144531 0.135283 254 254 254
0.035156 -0.144531 0.134649 254 254 254
0.039062 -0.144531 0.133974 254 254 254
0.042969 -0.144531 0.133290 254 254 254
0.046875 -0.144531 0.132547 254 254 254
0.050781 -0.144531 0.131729 253 253 253
0.054688 -0.144531 0.130777 253 253 253
0.058594 -0.144531 0.129710 253 253 253
0.062500 -0.144531 0.128524 253 253 253
0.066406 -0.144531 0.127206 253 253 253
0.070312 -0.144531 0.125681 253 253 253
0.074219 -0.144531 0.124038 253 253 253
0.078125 -0.144531 0.122413 253 253 253
0.082031 -0.144531 0.120943 253 253 253
0.085938 -0.144531 0.119791 252 252 252
0.089844 -0.144531 0.118784 252 252 252
0.093750 -0.144531 0.117936 252 252 252
0.097656 -0.144531 0.117204 252 252 252
0.101562 -0.144531 0.116579 252 252 252
0.105469 -0.144531 0.116068 251 251 251
0.109375 -0.144531 0.115573 251 251 251
0.113281 -0.144531 0.114964 250 250 250
0.117188 -0.144531 0.114101 249 249 249
0.121094 -0.144531 0.113089 248 248 248
0.125000 -0.144531 0.112002 247 247 247
0.128906 -0.144531 0.110964 245 245 245
0.132812 -0.144531 0.110018 244 244 244
0.136719 -0.144531 0.109122 243 243 243
0.140625 -0.144531 0.108306 242 242 242
0.144531 -0.144531 0.107581 241 241 241
0.148438 -0.144531 0.106872 242 242 242
0.152344 -0.144531 0.106079 243 243 243
0.156250 -0.144531 0.105005 243 243 243
0.160156 -0.144531 0.103392 244 244 244
0.164062 -0.144531 0.101195 245 245 245
0.167969 -0.144531 0.098557 245 245 245
0.171875 -0.144531 0.095672 246 246 246
0.175781 -0.144531 0.092726 247 247 247
0.179688 -0.144531 0.089878 247 247 247
0.183594 -0.144531 0.086989 247 247 247
0.187500 -0.144531 0.084001 247 247 247
0.191406 -0.144531 0.080949 248 248 248
0.195312 -0.144531 0.077866 248 248 248
0.199219 -0.144531 0.074630 248 248 248
0.203125 -0.144531 0.071378 248 248 248
0.207031 -0.144531 0.067801 249 249 249
0.210938 -0.144531 0.063497 248 248 248
0.214844 -0.144531 0.058746 247 247 247
0.218750 -0.144531 0.053356 244 244 244
0.222656 -0.144531 0.047928 239 239 239
0.226562 -0.144531 0.042740 236 236 236
0.230469 -0.144531 0.038108 237 237 237
0.234375 -0.144531 0.034502 240 240 240
0.238281 -0.144531 0.030799 241 241 241
0.242188 -0.144531 0.026150 235 235 235
0.246094 -0.144531 0.020449 198 200 197
0.250000 -0.144531 0.011980 117 147 86
0.253906 -0.144531 0.010224 176 148 118
0.257812 -0.144531 0.016923 205 152 137
0.261719 -0.144531 0.023801 206 152 113
0.265625 -0.144531 0.027980 212 154 112
0.269531 -0.144531 0.030709 220 161 117
0.273438 -0.144531 0.032667 227 171 126
0.277344 -0.144531 0.035143 230 178 134
0.281250 -0.144531 0.037442 235 189 145
0.285156 -0.144531 0.038711 238 194 151
0.289062 -0.144531 0.038599 239 196 154
0.292969 -0.144531 0.038015 239 198 157
0.296875 -0.144531 0.037228 238 194 153
0.300781 -0.144531 0.035838 238 195 154
0.304688 -0.144531 0.034244 238 192 151
0.308594 -0.144531 0.031978 237 196 155
0.312500 -0.144531 0.027478 237 203 163
0.316406 -0.144531 0.020153 215 177 150
-0.253906 -0.148438 -0.037469 145 127 107
-0.250000 -0.148438 -0.022652 172 142 116
-0.246094 -0.148438 -0.014856 189 146 114
-0.242188 -0.148438 -0.010336 193 144 113
-0.238281 -0.148438 -0.006715 199 149 118
-0.234375 -0.148438 -0.003361 206 157 128
-0.230469 -0.148438 -0.001536 214 165 137
-0.226562 -0.148438 -0.000870 220 173 146
-0.222656 -0.148438 -0.000678 224 179 152
-0.218750 -0.148438 -0.000751 227 183 158
-0.214844 -0.148438 -0.001370 229 186 162
-0.210938 -0.148438 -0.002628 228 185 162
-0.207031 -0.148438 -0.003773 227 184 162
-0.203125 -0.148438 -0.004582 223 180 159
-0.199219 -0.148438 -0.006271 213 169 150
-0.195312 -0.148438 -0.009064 204 162 146
-0.191406 -0.148438 -0.014225 199 165 152
-0.187500 -0.148438 -0.019248 172 144 139
-0.183594 -0.148438 -0.024209 144 136 129
-0.175781 -0.148438 0.013519 187 186 186
-0.171875 -0.148438 0.024172 183 183 183
-0.167969 -0.148438 0.030856 187 187 187
-0.164062 -0.148438 0.035647 202 202 202
-0.160156 -0.148438 0.038177 217 217 217
-0.156250 -0.148438 0.040700 227 227 227
-0.152344 -0.148438 0.043772 232 232 232
-0.148438 -0.148438 0.046945 235 235 235
-0.144531 -0.148438 0.050191 235 235 235
-0.140625 -0.148438 0.053463 234 234 234
-0.136719 -0.148438 0.056722 232 232 232
-0.132812 -0.148438 0.060216 230 230 230
-0.128906 -0.148438 0.064280 231 231 231
-0.125000 -0.148438 0.068843 232 232 232
-0.121094 -0.148438 0.073633 234 234 234
-0.117188 -0.148438 0.078649 237 237 237
-0.113281 -0.148438 0.083564 240 240 240
-0.109375 -0.148438 0.088277 242 242 242
-0.105469 -0.148438 0.092450 244 244 244
-0.101562 -0.148438 0.095891 246 246 246
-0.097656 -0.148438 0.099114 248 248 248
-0.093750 -0.148438 0.102165 249 249 249
-0.089844 -0.148438 0.105167 250 250 250
-0.085938 -0.148438 0.108187 250 250 250
-0.082031 -0.148438 0.111056 251 251 251
-0.078125 -0.148438 0.113636 251 251 251
-0.074219 -0.148438 0.115696 252 252 252
-0.070312 -0.148438 0.117272 252 252 252
-0.066406 -0.148438 0.118543 252 252 252
-0.062500 -0.148438 0.119701 252 252 252
-0.058594 -0.148438 0.120905 252 252 252
-0.054688 -0.148438 0.122146 253 253 253
-0.050781 -0.148438 0.123435 253 253 253
-0.046875 -0.148438 0.124748 253 253 253
-0.042969 -0.148438 0.126185 253 253 253
-0.039062 -0.148438 0.127726 253 253 253
-0.035156 -0.148438 0.129174 253 253 253
-0.031250 -0.148438 0.130446 253 253 253
-0.027344 -0.148438 0.131667 253 253 253
-0.023438 -0.148438 0.132866 253 253 253
-0.019531 -0.148438 0.133975 253 253 253
-0.015625 -0.148438 0.134944 253 253 253
-0.011719 -0.148438 0.135768 253 253 253
-0.007812 -0.148438 0.136453 253 253 253
-0.003906 -0.148438 0.137079 253 253 253
0.000000 -0.148438 0.137618 253 253 253
0.003906 -0.148438 0.137872 253 253 253
0.007812 -0.148438 0.137898 253 253 253
0.011719 -0.148438 0.137691 253 253 253
0.015625 -0.148438 0.137353 253 253 253
0.019531 -0.148438 0.136952 253 253 253
0.023438 -0.148438 0.136480 253 253 253
0.027344 -0.148438 0.135934 254 254 254
0.031250 -0.148438 0.135314 254 254 254
0.035156 -0.148438 0.134624 254 254 254
0.039062 -0.148438 0.133867 254 254 254
0.042969 -0.148438 0.133077 254 254 254
0.046875 -0.148438 0.132225 253 253 253
0.050781 -0.148438 0.131313 253 253 253
0.054688 -0.148438 0.130291 253 253 253
0.058594 -0.148438 0.129189 253 253 253
0.062500 -0.148438 0.128016 253 253 253
0.066406 -0.148438 0.126743 253 253 253
0.070312 -0.148438 0.125290 253 253 253
0.074219 -0.148438 0.123729 253 253 253
0.078125 -0.148438 0.122161 253 253 253
0.082031 -0.148438 0.120702 253 253 253
0.085938 -0.148438 0.119509 252 252 252
0.089844 -0.148438 0.118446 252 252 252
0.093750 -0.148438 0.117536 252 252 252
0.097656 -0.148438 0.116762 252 252 252
0.101562 -0.148438 0.116118 251 251 251
0.105469 -0.148438 0.115596 251 251 251
0.109375 -0.148438 0.115110 251 251 251
0.113281 -0.148438 0.114510 250 250 250
0.117188 -0.148438 0.113658 249 249 249
0.121094 -0.148438 0.112660 248 248 248
0.125000 -0.148438 0.111577 247 247 247
0.128906 -0.148438 0.110533 245 245 245
0.132812 -0.148438 0.109567 243 243 243
0.136719 -0.148438 0.108644 241 241 241
0.140625 -0.148438 0.107788 241 241 241
0.144531 -0.148438 0.107031 240 240 240
0.148438 -0.148438 0.106330 241 241 241
0.152344 -0.148438 0.105547 242 242 242
0.156250 -0.148438 0.104500 243 243 243
0.160156 -0.148438 0.102898 243 243 243
0.164062 -0.148438 0.100681 244 244 244
0.167969 -0.148438 0.098000 245 245 245
0.171875 -0.148438 0.095036 245 245 245
0.175781 -0.148438 0.091970 246 246 246
0.179688 -0.148438 0.088952 246 246 246
0.183594 -0.148438 0.085870 246 246 246
0.187500 -0.148438 0.082673 246 246 246
0.191406 -0.148438 0.079454 247 247 247
0.195312 -0.148438 0.076256 247 247 247
0.199219 -0.148438 0.072977 247 247 247
0.203125 -0.148438 0.069762 248 248 248
0.207031 -0.148438 0.066227 248 248 248
0.210938 -0.148438 0.061931 248 248 248
0.214844 -0.148438 0.057222 247 247 247
0.218750 -0.148438 0.052043 244 244 244
0.222656 -0.148438 0.046854 239 239 239
0.226562 -0.148438 0.041943 236 236 236
0.230469 -0.148438 0.037476 238 238 238
0.234375 -0.148438 0.033956 241 241 241
0.238281 -0.148438 0.030125 244 244 244
0.242188 -0.148438 0.025237 238 239 238
0.246094 -0.148438 0.019333 190 197 189
0.250000 -0.148438 0.011615 129 163 83
0.253906 -0.148438 0.010925 187 159 124
0.257812 -0.148438 0.017469 205 151 132
0.261719 -0.148438 0.023947 207 150 110
0.265625 -0.148438 0.028245 213 154 112
0.269531 -0.148438 0.031286 221 161 117
0.273438 -0.148438 0.033650 227 171 125
0.277344 -0.148438 0.036451 231 179 133
0.281250 -0.148438 0.039034 236 190 144
0.285156 -0.148438 0.040535 238 194 150
0.289062 -0.148438 0.040558 239 196 153
0.292969 -0.148438 0.040104 239 198 156
0.296875 -0.148438 0.039443 238 193 151
0.300781 -0.148438 0.038203 238 194 152
0.304688 -0.148438 0.036728 237 191 149
0.308594 -0.148438 0.034432 237 195 154
0.312500 -0.148438 0.029531 237 204 163
0.316406 -0.148438 0.021512 216 180 152
-0.253906 -0.152344 -0.035851 151 132 113
-0.250000 -0.152344 -0.021057 177 147 122
-0.246094 -0.152344 -0.013364 191 149 117
-0.242188 -0.152344 -0.008938 195 147 115
-0.238281 -0.152344 -0.005348 201 151 121
-0.234375 -0.152344 -0.002084 207 158 130
-0.230469 -0.152344 -0.000346 214 166 139
-0.226562 -0.152344 0.000219 220 174 147
-0.222656 -0.152344 0.000334 224 179 153
-0.218750 -0.152344 0.000194 227 184 160
-0.214844 -0.152344 -0.000497 229 187 164
-0.210938 -0.152344 -0.001818 228 185 163
-0.207031 -0.152344 -0.002912 227 184 163
-0.203125 -0.152344 -0.003674 222 181 160
-0.199219 -0.152344 -0.005294 211 167 149
-0.195312 -0.152344 -0.008370 202 162 146
-0.191406 -0.152344 -0.014230 196 165 153
-0.187500 -0.152344 -0.019492 165 141 137
-0.183594 -0.152344 -0.024637 153 150 145
-0.179688 -0.152344 -0.009635 185 185 183
-0.175781 -0.152344 0.016814 195 195 195
-0.171875 -0.152344 0.024913 186 186 186
-0.167969 -0.152344 0.031086 187 187 187
-0.164062 -0.152344 0.035752 201 201 201
-0.160156 -0.152344 0.038481 217 217 217
-0.156250 -0.152344 0.040980 228 228 228
-0.152344 -0.152344 0.043909 233 233 233
-0.148438 -0.152344 0.046990 235 235 235
-0.144531 -0.152344 0.050196 235 235 235
-0.140625 -0.152344 0.053471 233 233 233
-0.136719 -0.152344 0.056771 230 230 230
-0.132812 -0.152344 0.060341 228 228 228
-0.128906 -0.152344 0.064492 228 228 228
-0.125000 -0.152344 0.069086 229 229 229
-0.121094 -0.152344 0.073866 231 231 231
-0.117188 -0.152344 0.078853 234 234 234
-0.113281 -0.152344 0.083743 237 237 237
-0.109375 -0.152344 0.088459 240 240 240
-0.105469 -0.152344 0.092641 243 243 243
-0.101562 -0.152344 0.096071 245 245 245
-0.097656 -0.152344 0.099279 247 247 247
-0.093750 -0.152344 0.102312 248 248 248
-0.089844 -0.152344 0.105300 249 249 249
-0.085938 -0.152344 0.108326 250 250 250
-0.082031 -0.152344 0.111200 251 251 251
-0.078125 -0.152344 0.113788 251 251 251
-0.074219 -0.152344 0.115855 252 252 252
-0.070312 -0.152344 0.117422 252 252 252
-0.066406 -0.152344 0.118674 252 252 252
-0.062500 -0.152344 0.119813 252 252 252
-0.058594 -0.152344 0.121015 252 252 252
-0.054688 -0.152344 0.122277 253 253 253
-0.050781 -0.152344 0.123600 253 253 253
-0.046875 -0.152344 0.124954 253 253 253
-0.042969 -0.152344 0.126431 253 253 253
-0.039062 -0.152344 0.128019 253 253 253
-0.035156 -0.152344 0.129518 253 253 253
-0.031250 -0.152344 0.130821 253 253 253
-0.027344 -0.152344 0.132034 253 253 253
-0.023438 -0.152344 0.133183 253 253 253
-0.019531 -0.152344 0.134220 253 253 253
-0.015625 -0.152344 0.135119 253 253 253
-0.011719 -0.152344 0.135872 253 253 253
-0.007812 -0.152344 0.136481 253 253 253
-0.003906 -0.152344 0.137039 253 253 253
0.000000 -0.152344 0.137527 253 253 253
0.003906 -0.152344 0.137762 253 253 253
0.007812 -0.152344 0.137791 253 253 253
0.011719 -0.152344 0.137602 253 253 253
0.015625 -0.152344 0.137279 253 253 253
0.019531 -0.152344 0.136894 253 253 253
0.023438 -0.152344 0.136433 253 253 253
0.027344 -0.152344 0.135880 253 253 253
0.031250 -0.152344 0.135229 253 253 253
0.035156 -0.152344 0.134478 253 253 253
0.039062 -0.152344 0.133637 253 253 253
0.042969 -0.152344 0.132740 253 253 253
0.046875 -0.152344 0.131786 253 253 253
0.050781 -0.152344 0.130784 253 253 253
0.054688 -0.152344 0.129690 253 253 253
0.058594 -0.152344 0.128547 253 253 253
0.062500 -0.152344 0.127371 253 253 253
0.066406 -0.152344 0.126131 253 253 253
0.070312 -0.152344 0.124759 253 253 253
0.074219 -0.152344 0.123308 253 253 253
0.078125 -0.152344 0.121833 253 253 253
0.082031 -0.152344 0.120425 252 252 252
0.085938 -0.152344 0.119220 252 252 252
0.089844 -0.152344 0.118118 252 252 252
0.093750 -0.152344 0.117149 252 252 252
0.097656 -0.152344 0.116325 251 251 251
0.101562 -0.152344 0.115656 251 251 251
0.105469 -0.152344 0.115113 251 251 251
0.109375 -0.152344 0.114623 250 250 250
0.113281 -0.152344 0.114030 250 250 250
0.117188 -0.152344 0.113195 249 249 249
0.121094 -0.152344 0.112224 248 248 248
0.125000 -0.152344 0.111171 247 247 247
0.128906 -0.152344 0.110155 245 245 245
0.132812 -0.152344 0.109199 244 244 244
0.136719 -0.152344 0.108276 242 242 242
0.140625 -0.152344 0.107410 241 241 241
0.144531 -0.152344 0.106649 241 241 241
0.148438 -0.152344 0.105970 242 242 242
0.152344 -0.152344 0.105205 243 243 243
0.156250 -0.152344 0.104189 243 243 243
0.160156 -0.152344 0.102603 244 244 244
0.164062 -0.152344 0.100374 245 245 245
0.167969 -0.152344 0.097667 246 246 246
0.171875 -0.152344 0.094645 246 246 246
0.175781 -0.152344 0.091487 246 246 246
0.179688 -0.152344 0.088328 246 246 246
0.183594 -0.152344 0.085073 246 246 246
0.187500 -0.152344 0.081681 246 246 246
0.191406 -0.152344 0.078276 247 247 247
0.195312 -0.152344 0.074946 247 247 247
0.199219 -0.152344 0.071589 247 247 247
0.203125 -0.152344 0.068357 248 248 248
0.207031 -0.152344 0.064835 248 248 248
0.210938 -0.152344 0.060585 248 248 248
0.214844 -0.152344 0.056066 247 247 247
0.218750 -0.152344 0.051141 245 245 245
0.222656 -0.152344 0.046285 240 240 240
0.226562 -0.152344 0.041649 238 238 238
0.230469 -0.152344 0.037338 240 240 240
0.234375 -0.152344 0.033836 243 243 243
0.238281 -0.152344 0.029915 246 246 246
0.242188 -0.152344 0.024893 241 241 241
0.246094 -0.152344 0.018924 190 200 187
0.250000 -0.152344 0.011851 149 176 94
0.253906 -0.152344 0.011751 196 164 129
0.257812 -0.152344 0.018237 207 150 127
0.261719 -0.152344 0.024477 207 148 107
0.265625 -0.152344 0.028814 214 154 112
0.269531 -0.152344 0.032061 221 161 116
0.273438 -0.152344 0.034716 228 170 124
0.277344 -0.152344 0.037780 231 178 132
0.281250 -0.152344 0.040554 236 189 143
0.285156 -0.152344 0.042261 238 194 149
0.289062 -0.152344 0.042404 239 196 152
0.292969 -0.152344 0.042064 240 197 155
0.296875 -0.152344 0.041543 238 192 150
0.300781 -0.152344 0.040510 238 193 151
0.304688 -0.152344 0.039135 237 191 149
0.308594 -0.152344 0.037039 237 195 153
0.312500 -0.152344 0.031954 237 205 164
0.316406 -0.152344 0.022707 218 187 157
-0.253906 -0.156250 -0.034224 157 136 118
-0.250000 -0.156250 -0.019516 183 152 128
