ply
    format ascii 1.0
    element vertex 89540
    property float x
    property float y
    property float z
    property uchar red
    property uchar green
    property uchar blue
    end_header
0.160156 -0.546875 0.077726 107 34 44
0.164062 -0.546875 0.073586 120 42 54
0.167969 -0.546875 0.069660 120 47 59
0.171875 -0.546875 0.066373 112 43 55
0.175781 -0.546875 0.063372 106 39 49
0.179688 -0.546875 0.059288 104 39 48
0.183594 -0.546875 0.052515 138 66 70
0.187500 -0.546875 0.021718 145 71 77
-0.222656 -0.550781 0.042783 101 50 49
-0.218750 -0.550781 0.068354 106 51 53
-0.214844 -0.550781 0.078472 92 39 44
-0.210938 -0.550781 0.083028 91 34 39
-0.207031 -0.550781 0.085847 92 31 36
-0.203125 -0.550781 0.088304 85 28 32
-0.199219 -0.550781 0.090975 106 37 41
-0.195312 -0.550781 0.094197 120 45 48
-0.191406 -0.550781 0.097526 96 35 39
-0.187500 -0.550781 0.100927 117 45 49
-0.183594 -0.550781 0.104406 124 47 52
-0.179688 -0.550781 0.107173 107 37 42
-0.175781 -0.550781 0.109840 101 36 40
-0.171875 -0.550781 0.113462 98 39 44
-0.167969 -0.550781 0.117964 135 62 68
-0.164062 -0.550781 0.122274 145 66 71
-0.160156 -0.550781 0.125551 130 53 58
-0.156250 -0.550781 0.127945 148 61 64
-0.152344 -0.550781 0.129136 149 62 66
-0.148438 -0.550781 0.129055 165 76 81
-0.144531 -0.550781 0.128739 170 83 86
-0.140625 -0.550781 0.128531 141 59 64
-0.136719 -0.550781 0.128822 159 68 72
-0.132812 -0.550781 0.129627 177 81 85
-0.128906 -0.550781 0.129958 161 66 71
-0.125000 -0.550781 0.129679 151 56 61
-0.121094 -0.550781 0.128833 154 55 60
-0.117188 -0.550781 0.127023 160 57 62
-0.113281 -0.550781 0.124579 178 67 71
-0.109375 -0.550781 0.121401 181 71 73
-0.105469 -0.550781 0.113401 135 46 50
-0.101562 -0.550781 0.097389 101 33 38
-0.097656 -0.550781 0.088745 100 35 41
-0.093750 -0.550781 0.085081 110 43 50
-0.089844 -0.550781 0.080247 114 46 53
-0.085938 -0.550781 0.075407 96 34 40
-0.082031 -0.550781 0.071108 87 27 32
-0.078125 -0.550781 0.067035 82 24 28
-0.074219 -0.550781 0.063053 78 22 24
-0.070312 -0.550781 0.058994 80 23 24
-0.066406 -0.550781 0.055438 72 21 21
-0.062500 -0.550781 0.052074 73 22 23
-0.058594 -0.550781 0.049559 89 29 30
-0.054688 -0.550781 0.047380 95 35 38
-0.050781 -0.550781 0.045014 108 45 49
-0.046875 -0.550781 0.042722 98 40 44
-0.042969 -0.550781 0.038835 69 26 28
-0.039062 -0.550781 0.034504 85 35 33
-0.035156 -0.550781 0.025602 56 27 26
-0.019531 -0.550781 0.046319 51 16 13
-0.015625 -0.550781 0.047190 65 20 18
-0.011719 -0.550781 0.051093 61 18 19
-0.007812 -0.550781 0.053170 65 20 22
-0.003906 -0.550781 0.056756 78 25 28
0.000000 -0.550781 0.060378 73 25 30
0.003906 -0.550781 0.064371 71 26 34
0.007812 -0.550781 0.069311 99 41 52
0.011719 -0.550781 0.074407 123 55 67
0.015625 -0.550781 0.078642 110 45 55
0.019531 -0.550781 0.080522 93 31 39
0.023438 -0.550781 0.080271 87 24 30
0.027344 -0.550781 0.080019 94 24 29
0.031250 -0.550781 0.080854 100 27 32
0.035156 -0.550781 0.082870 91 26 30
0.039062 -0.550781 0.086039 85 25 31
0.042969 -0.550781 0.089752 90 28 37
0.046875 -0.550781 0.093687 115 41 51
0.050781 -0.550781 0.097712 159 71 80
0.054688 -0.550781 0.101333 167 78 86
0.058594 -0.550781 0.104769 136 58 66
0.062500 -0.550781 0.108143 112 45 53
0.066406 -0.550781 0.111741 112 45 53
0.070312 -0.550781 0.115503 135 58 67
0.074219 -0.550781 0.118870 143 64 73
0.078125 -0.550781 0.121600 143 64 71
0.082031 -0.550781 0.123410 148 64 72
0.085938 -0.550781 0.123798 147 60 66
0.089844 -0.550781 0.123061 160 67 73
0.093750 -0.550781 0.120929 138 52 61
0.097656 -0.550781 0.118507 101 35 45
0.101562 -0.550781 0.117167 120 48 60
0.105469 -0.550781 0.115726 116 46 58
0.109375 -0.550781 0.113790 90 32 40
0.113281 -0.550781 0.111906 97 33 41
0.117188 -0.550781 0.110099 111 41 51
0.121094 -0.550781 0.107913 117 48 58
0.125000 -0.550781 0.105299 113 44 53
0.128906 -0.550781 0.102334 104 37 44
0.132812 -0.550781 0.099071 100 33 40
0.136719 -0.550781 0.095814 99 33 40
0.140625 -0.550781 0.092748 106 38 47
0.144531 -0.550781 0.089638 114 43 54
0.148438 -0.550781 0.086437 107 39 49
0.152344 -0.550781 0.083411 108 38 48
0.156250 -0.550781 0.080571 106 35 44
0.160156 -0.550781 0.077471 101 32 41
0.164062 -0.550781 0.073427 115 40 51
0.167969 -0.550781 0.069685 126 50 62
0.171875 -0.550781 0.066555 117 46 58
0.175781 -0.550781 0.063877 110 40 51
0.179688 -0.550781 0.060020 114 42 52
0.183594 -0.550781 0.053472 131 59 65
0.187500 -0.550781 0.021275 132 61 67
-0.222656 -0.554688 0.036004 103 53 51
-0.218750 -0.554688 0.065889 114 58 58
-0.214844 -0.554688 0.076749 97 42 46
-0.210938 -0.554688 0.081527 96 37 41
-0.207031 -0.554688 0.084563 102 35 39
-0.203125 -0.554688 0.086903 92 29 34
-0.199219 -0.554688 0.089389 90 28 33
-0.195312 -0.554688 0.092541 99 33 38
-0.191406 -0.554688 0.095849 92 32 37
-0.187500 -0.554688 0.099143 111 40 45
-0.183594 -0.554688 0.102238 112 39 43
-0.179688 -0.554688 0.104511 94 29 32
-0.175781 -0.554688 0.106837 89 29 31
-0.171875 -0.554688 0.110172 93 34 38
-0.167969 -0.554688 0.114623 126 54 59
-0.164062 -0.554688 0.119479 137 58 63
-0.160156 -0.554688 0.123697 131 50 55
-0.156250 -0.554688 0.126840 141 53 57
-0.152344 -0.554688 0.128314 134 49 54
-0.148438 -0.554688 0.128245 148 61 67
-0.144531 -0.554688 0.127972 161 75 78
-0.140625 -0.554688 0.127920 141 62 66
-0.136719 -0.554688 0.128327 153 68 73
-0.132812 -0.554688 0.128982 166 72 77
-0.128906 -0.554688 0.129301 156 61 65
-0.125000 -0.554688 0.129233 161 63 67
-0.121094 -0.554688 0.128586 167 66 70
-0.117188 -0.554688 0.126911 159 58 62
-0.113281 -0.554688 0.124566 170 63 67
-0.109375 -0.554688 0.122026 185 77 80
-0.105469 -0.554688 0.116241 157 61 63
-0.101562 -0.554688 0.103191 113 39 44
-0.097656 -0.554688 0.088995 102 37 42
-0.093750 -0.554688 0.084843 119 50 55
-0.089844 -0.554688 0.080023 126 55 61
-0.085938 -0.554688 0.074938 107 41 48
-0.082031 -0.554688 0.070300 104 37 43
-0.078125 -0.554688 0.066314 101 33 38
-0.074219 -0.554688 0.062103 85 25 28
-0.070312 -0.554688 0.057816 81 23 25
-0.066406 -0.554688 0.054020 73 21 21
-0.062500 -0.554688 0.050498 68 19 20
-0.058594 -0.554688 0.047844 75 22 24
-0.054688 -0.554688 0.045528 79 26 29
-0.050781 -0.554688 0.042919 93 35 39
-0.046875 -0.554688 0.040391 88 33 38
-0.042969 -0.554688 0.036042 66 24 27
-0.039062 -0.554688 0.031316 85 34 32
-0.035156 -0.554688 0.012366 52 24 25
-0.019531 -0.554688 0.043619 60 19 16
-0.015625 -0.554688 0.044388 75 24 21
-0.011719 -0.554688 0.049190 65 20 20
-0.007812 -0.554688 0.051407 61 18 19
-0.003906 -0.554688 0.053946 72 21 23
0.000000 -0.554688 0.057443 81 25 30
0.003906 -0.554688 0.061813 83 29 35
0.007812 -0.554688 0.067329 93 37 43
0.011719 -0.554688 0.073270 124 52 61
0.015625 -0.554688 0.079153 147 64 76
0.019531 -0.554688 0.082356 127 48 60
0.023438 -0.554688 0.081699 88 26 32
0.027344 -0.554688 0.080115 81 20 24
0.031250 -0.554688 0.079792 99 25 29
0.035156 -0.554688 0.081019 114 32 35
0.039062 -0.554688 0.083856 103 30 35
0.042969 -0.554688 0.087441 79 24 31
0.046875 -0.554688 0.091254 81 26 34
0.050781 -0.554688 0.095196 108 37 47
0.054688 -0.554688 0.098993 122 45 54
0.058594 -0.554688 0.102832 126 48 55
0.062500 -0.554688 0.106569 120 46 54
0.066406 -0.554688 0.110317 110 43 52
0.070312 -0.554688 0.113904 118 49 58
0.074219 -0.554688 0.117120 131 56 65
0.078125 -0.554688 0.119988 161 76 85
0.082031 -0.554688 0.122057 181 94 99
0.085938 -0.554688 0.122384 166 79 83
0.089844 -0.554688 0.121213 149 63 69
0.093750 -0.554688 0.118642 116 41 51
0.097656 -0.554688 0.116190 99 34 44
0.101562 -0.554688 0.115199 121 47 59
0.105469 -0.554688 0.114090 114 43 55
0.109375 -0.554688 0.112461 98 35 44
0.113281 -0.554688 0.110815 98 35 43
0.117188 -0.554688 0.109171 97 37 46
0.121094 -0.554688 0.107223 104 42 52
0.125000 -0.554688 0.104767 98 37 47
0.128906 -0.554688 0.101819 87 29 38
0.132812 -0.554688 0.098615 89 30 37
0.136719 -0.554688 0.095391 97 33 42
0.140625 -0.554688 0.092172 111 41 52
0.144531 -0.554688 0.088919 110 41 52
0.148438 -0.554688 0.085763 101 36 46
0.152344 -0.554688 0.082913 119 44 54
0.156250 -0.554688 0.080277 120 44 53
0.160156 -0.554688 0.077312 102 35 45
0.164062 -0.554688 0.073428 102 37 47
0.167969 -0.554688 0.069918 116 46 58
0.171875 -0.554688 0.066934 116 47 59
0.175781 -0.554688 0.064359 114 44 54
0.179688 -0.554688 0.060652 116 44 52
0.183594 -0.554688 0.054789 125 54 61
0.187500 -0.554688 0.022464 137 66 74
-0.222656 -0.558594 0.030403 99 51 49
-0.218750 -0.558594 0.062493 99 48 50
-0.214844 -0.558594 0.074383 79 33 37
-0.210938 -0.558594 0.079525 82 30 34
-0.207031 -0.558594 0.082754 94 31 35
-0.203125 -0.558594 0.085193 97 31 35
-0.199219 -0.558594 0.087725 90 28 32
-0.195312 -0.558594 0.090960 96 32 36
-0.191406 -0.558594 0.094449 102 37 42
-0.187500 -0.558594 0.097656 108 39 44
-0.183594 -0.558594 0.100191 97 30 35
-0.179688 -0.558594 0.101891 88 25 28
-0.175781 -0.558594 0.103937 88 25 29
-0.171875 -0.558594 0.106858 92 31 36
-0.167969 -0.558594 0.110817 113 44 50
-0.164062 -0.558594 0.115993 128 52 57
-0.160156 -0.558594 0.121361 148 60 63
-0.156250 -0.558594 0.125555 161 65 67
-0.152344 -0.558594 0.127531 147 54 58
-0.148438 -0.558594 0.127534 136 51 56
-0.144531 -0.558594 0.127316 136 54 58
-0.140625 -0.558594 0.127484 136 58 62
-0.136719 -0.558594 0.127907 145 63 69
-0.132812 -0.558594 0.128312 143 57 63
-0.128906 -0.558594 0.128678 145 54 58
-0.125000 -0.558594 0.128865 174 74 77
-0.121094 -0.558594 0.128324 188 85 88
-0.117188 -0.558594 0.126722 173 67 71
-0.113281 -0.558594 0.124484 173 63 67
-0.109375 -0.558594 0.122387 187 77 78
-0.105469 -0.558594 0.118193 170 68 70
-0.101562 -0.558594 0.109904 125 44 49
-0.097656 -0.558594 0.092256 101 35 40
-0.093750 -0.558594 0.083859 110 43 49
-0.089844 -0.558594 0.079599 109 44 51
-0.085938 -0.558594 0.074443 90 33 39
-0.082031 -0.558594 0.069595 92 31 37
-0.078125 -0.558594 0.065546 96 31 36
-0.074219 -0.558594 0.061305 85 26 29
-0.070312 -0.558594 0.056865 83 24 26
-0.066406 -0.558594 0.052873 78 22 23
-0.062500 -0.558594 0.049222 71 19 20
-0.058594 -0.558594 0.046420 77 22 23
-0.054688 -0.558594 0.043910 83 25 28
-0.050781 -0.558594 0.040977 89 30 34
-0.046875 -0.558594 0.038193 81 28 32
-0.042969 -0.558594 0.033618 68 23 26
-0.039062 -0.558594 0.028788 86 33 32
-0.035156 -0.558594 0.005086 49 21 22
-0.015625 -0.558594 0.042499 72 23 22
-0.011719 -0.558594 0.046736 66 20 21
-0.007812 -0.558594 0.049534 63 18 20
-0.003906 -0.558594 0.051813 67 18 21
0.000000 -0.558594 0.054757 70 19 23
0.003906 -0.558594 0.059083 76 23 28
0.007812 -0.558594 0.064402 78 25 32
0.011719 -0.558594 0.070216 89 30 38
0.015625 -0.558594 0.076815 144 59 67
0.019531 -0.558594 0.081689 184 93 100
0.023438 -0.558594 0.082927 157 64 72
0.027344 -0.558594 0.082009 100 28 34
0.031250 -0.558594 0.081166 81 19 24
0.035156 -0.558594 0.081356 97 24 28
0.039062 -0.558594 0.082925 107 29 34
0.042969 -0.558594 0.085348 96 29 34
0.046875 -0.558594 0.088412 95 31 37
0.050781 -0.558594 0.091980 98 33 40
0.054688 -0.558594 0.095909 97 31 39
0.058594 -0.558594 0.100082 108 35 43
0.062500 -0.558594 0.104199 123 43 51
0.066406 -0.558594 0.108288 132 52 60
0.070312 -0.558594 0.111972 130 52 61
0.074219 -0.558594 0.115217 113 43 52
0.078125 -0.558594 0.118178 127 51 59
0.082031 -0.558594 0.120424 159 72 77
0.085938 -0.558594 0.120743 164 77 81
0.089844 -0.558594 0.119248 145 61 67
0.093750 -0.558594 0.116381 101 34 43
0.097656 -0.558594 0.114014 90 29 39
0.101562 -0.558594 0.113290 102 36 47
0.105469 -0.558594 0.112461 93 33 43
0.109375 -0.558594 0.111108 100 36 45
0.113281 -0.558594 0.109681 104 41 50
0.117188 -0.558594 0.108197 104 44 54
0.121094 -0.558594 0.106493 120 55 66
0.125000 -0.558594 0.104242 111 48 58
0.128906 -0.558594 0.101388 100 39 48
0.132812 -0.558594 0.098223 114 45 54
0.136719 -0.558594 0.094920 126 51 61
0.140625 -0.558594 0.091487 134 54 66
0.144531 -0.558594 0.088116 116 43 54
0.148438 -0.558594 0.085054 102 35 46
0.152344 -0.558594 0.082348 128 47 58
0.156250 -0.558594 0.079889 133 51 61
0.160156 -0.558594 0.077114 120 47 56
0.164062 -0.558594 0.073442 114 46 57
0.167969 -0.558594 0.070130 123 54 66
0.171875 -0.558594 0.067205 128 57 69
0.175781 -0.558594 0.064680 119 48 60
0.179688 -0.558594 0.061322 107 40 49
0.183594 -0.558594 0.056358 122 53 61
0.187500 -0.558594 0.026134 160 86 94
-0.222656 -0.562500 0.025326 110 59 54
-0.218750 -0.562500 0.059317 106 53 53
-0.214844 -0.562500 0.071811 84 36 39
-0.210938 -0.562500 0.077244 84 31 34
-0.207031 -0.562500 0.080670 83 27 29
-0.203125 -0.562500 0.083306 92 29 32
-0.199219 -0.562500 0.086116 91 29 33
-0.195312 -0.562500 0.089643 92 32 36
-0.191406 -0.562500 0.093409 107 41 46
-0.187500 -0.562500 0.096632 106 39 43
-0.183594 -0.562500 0.098779 86 26 30
-0.179688 -0.562500 0.099903 88 24 28
-0.175781 -0.562500 0.101480 90 26 30
-0.171875 -0.562500 0.103892 90 29 34
-0.167969 -0.562500 0.107333 89 33 38
-0.164062 -0.562500 0.112454 101 38 44
-0.160156 -0.562500 0.118474 145 61 65
-0.156250 -0.562500 0.123646 165 71 73
-0.152344 -0.562500 0.126496 163 64 67
-0.148438 -0.562500 0.127077 153 57 61
-0.144531 -0.562500 0.127166 133 50 54
-0.140625 -0.562500 0.127522 134 56 61
-0.136719 -0.562500 0.127861 138 60 67
-0.132812 -0.562500 0.127947 127 49 55
-0.128906 -0.562500 0.128127 136 50 55
-0.125000 -0.562500 0.128287 173 73 77
-0.121094 -0.562500 0.127816 192 86 89
-0.117188 -0.562500 0.126488 183 71 74
-0.113281 -0.562500 0.124700 174 60 64
-0.109375 -0.562500 0.123077 172 60 63
-0.105469 -0.562500 0.119687 162 59 63
-0.101562 -0.562500 0.113744 131 45 50
-0.097656 -0.562500 0.099645 101 34 38
-0.093750 -0.562500 0.083388 107 40 45
-0.089844 -0.562500 0.079055 110 42 48
-0.085938 -0.562500 0.073975 93 32 38
-0.082031 -0.562500 0.069005 87 28 34
-0.078125 -0.562500 0.064833 87 27 33
-0.074219 -0.562500 0.060673 83 25 30
-0.070312 -0.562500 0.056083 81 24 27
-0.066406 -0.562500 0.051985 76 21 23
-0.062500 -0.562500 0.048238 69 19 20
-0.058594 -0.562500 0.045282 79 22 24
-0.054688 -0.562500 0.042527 93 28 31
-0.050781 -0.562500 0.039260 90 29 33
-0.046875 -0.562500 0.036162 80 27 31
-0.042969 -0.562500 0.031432 74 26 29
-0.039062 -0.562500 0.026117 84 31 32
-0.015625 -0.562500 0.041517 74 25 24
-0.011719 -0.562500 0.044252 72 23 25
-0.007812 -0.562500 0.048006 73 22 24
-0.003906 -0.562500 0.050189 80 23 25
0.000000 -0.562500 0.052189 73 19 22
0.003906 -0.562500 0.056098 72 19 23
0.007812 -0.562500 0.060931 73 20 26
0.011719 -0.562500 0.066268 65 19 26
0.015625 -0.562500 0.072407 95 33 40
0.019531 -0.562500 0.077967 176 80 86
0.023438 -0.562500 0.082161 203 100 110
0.027344 -0.562500 0.084695 169 63 74
0.031250 -0.562500 0.085072 109 30 36
0.035156 -0.562500 0.084101 88 22 27
0.039062 -0.562500 0.083457 94 24 29
0.042969 -0.562500 0.084009 101 30 34
0.046875 -0.562500 0.086053 104 36 39
0.050781 -0.562500 0.089102 96 34 39
0.054688 -0.562500 0.093095 85 28 34
0.058594 -0.562500 0.097614 86 27 34
0.062500 -0.562500 0.102107 101 34 42
0.066406 -0.562500 0.106364 129 50 58
0.070312 -0.562500 0.110214 142 57 66
0.074219 -0.562500 0.113753 126 49 56
0.078125 -0.562500 0.116868 114 42 48
0.082031 -0.562500 0.119059 124 46 53
0.085938 -0.562500 0.119232 154 67 73
0.089844 -0.562500 0.117488 154 69 75
0.093750 -0.562500 0.114518 105 38 46
0.097656 -0.562500 0.112291 98 33 43
0.101562 -0.562500 0.111735 111 40 51
0.105469 -0.562500 0.111017 100 36 45
0.109375 -0.562500 0.109790 111 42 51
0.113281 -0.562500 0.108520 114 47 57
0.117188 -0.562500 0.107161 118 53 64
0.121094 -0.562500 0.105641 138 70 80
0.125000 -0.562500 0.103566 128 61 72
0.128906 -0.562500 0.100798 119 52 62
0.132812 -0.562500 0.097630 130 55 65
0.136719 -0.562500 0.094249 121 48 59
0.140625 -0.562500 0.090693 107 39 50
0.144531 -0.562500 0.087267 92 29 40
0.148438 -0.562500 0.084266 88 26 36
0.152344 -0.562500 0.081670 102 31 41
0.156250 -0.562500 0.079441 102 34 44
0.160156 -0.562500 0.076905 110 42 52
0.164062 -0.562500 0.073378 125 54 64
0.167969 -0.562500 0.070096 140 67 77
0.171875 -0.562500 0.067094 141 66 78
0.175781 -0.562500 0.064837 131 56 68
0.179688 -0.562500 0.062310 119 47 57
0.183594 -0.562500 0.058224 130 58 65
0.187500 -0.562500 0.030944 162 87 94
-0.222656 -0.566406 0.019584 105 59 52
-0.218750 -0.566406 0.055337 100 51 49
-0.214844 -0.566406 0.068946 84 36 39
-0.210938 -0.566406 0.074750 85 32 34
-0.207031 -0.566406 0.078484 74 23 26
-0.203125 -0.566406 0.081454 83 26 29
-0.199219 -0.566406 0.084575 95 32 36
-0.195312 -0.566406 0.088424 93 34 39
-0.191406 -0.566406 0.092432 109 46 51
-0.187500 -0.566406 0.095744 102 41 46
-0.183594 -0.566406 0.097719 77 26 30
-0.179688 -0.566406 0.098324 91 29 32
-0.175781 -0.566406 0.099363 107 36 39
-0.171875 -0.566406 0.101278 115 42 46
-0.167969 -0.566406 0.104187 102 39 43
-0.164062 -0.566406 0.108901 98 37 43
-0.160156 -0.566406 0.114902 146 65 69
-0.156250 -0.566406 0.120693 167 79 82
-0.152344 -0.566406 0.124686 169 74 77
-0.148438 -0.566406 0.126372 165 67 70
-0.144531 -0.566406 0.127190 142 54 59
-0.140625 -0.566406 0.127985 149 66 73
-0.136719 -0.566406 0.128364 152 71 78
-0.132812 -0.566406 0.128060 130 52 58
-0.128906 -0.566406 0.127763 131 49 54
-0.125000 -0.566406 0.127695 156 62 66
-0.121094 -0.566406 0.127393 177 72 76
-0.117188 -0.566406 0.126426 186 72 75
-0.113281 -0.566406 0.125098 188 69 71
-0.109375 -0.566406 0.123566 180 65 67
-0.105469 -0.566406 0.120881 176 68 71
-0.101562 -0.566406 0.115973 152 56 60
-0.097656 -0.566406 0.107002 108 36 41
-0.093750 -0.566406 0.085757 106 37 43
-0.089844 -0.566406 0.078135 111 40 47
-0.085938 -0.566406 0.073694 97 33 39
-0.082031 -0.566406 0.068573 86 27 33
-0.078125 -0.566406 0.064322 83 26 33
-0.074219 -0.566406 0.060206 87 28 34
-0.070312 -0.566406 0.055435 87 28 32
-0.066406 -0.566406 0.051248 84 25 27
-0.062500 -0.566406 0.047429 74 21 23
-0.058594 -0.566406 0.044336 82 23 25
-0.054688 -0.566406 0.041318 94 28 31
-0.050781 -0.566406 0.037767 82 25 29
-0.046875 -0.566406 0.034399 80 27 30
-0.042969 -0.566406 0.029545 88 32 35
-0.039062 -0.566406 0.023936 92 34 35
-0.015625 -0.566406 0.039039 85 31 32
-0.011719 -0.566406 0.041599 74 26 29
-0.007812 -0.566406 0.045402 70 22 26
-0.003906 -0.566406 0.048206 83 25 28
0.000000 -0.566406 0.050492 82 23 26
0.003906 -0.566406 0.054190 80 21 25
0.007812 -0.566406 0.058057 83 22 26
0.011719 -0.566406 0.062388 76 22 27
0.015625 -0.566406 0.067284 75 23 30
0.019531 -0.566406 0.072454 105 31 42
0.023438 -0.566406 0.078932 175 64 77
0.027344 -0.566406 0.085458 216 108 116
0.031250 -0.566406 0.089797 204 95 100
0.035156 -0.566406 0.089624 141 46 52
0.039062 -0.566406 0.086088 92 26 30
0.042969 -0.566406 0.083437 92 29 33
0.046875 -0.566406 0.083845 108 41 46
0.050781 -0.566406 0.086702 99 39 44
0.054688 -0.566406 0.090755 83 30 36
0.058594 -0.566406 0.095392 88 31 38
0.062500 -0.566406 0.100047 106 40 48
0.066406 -0.566406 0.104448 119 45 54
0.070312 -0.566406 0.108415 129 49 57
0.074219 -0.566406 0.112285 140 55 62
0.078125 -0.566406 0.115665 137 52 58
0.082031 -0.566406 0.117794 128 46 52
0.085938 -0.566406 0.117743 147 60 68
0.089844 -0.566406 0.115758 143 61 69
0.093750 -0.566406 0.112751 96 36 44
0.097656 -0.566406 0.110627 104 38 49
0.101562 -0.566406 0.110069 123 46 57
0.105469 -0.566406 0.109288 106 37 46
0.109375 -0.566406 0.108130 110 39 48
0.113281 -0.566406 0.107038 104 39 48
0.117188 -0.566406 0.105807 103 41 52
0.121094 -0.566406 0.104455 119 53 64
0.125000 -0.566406 0.102597 112 48 60
0.128906 -0.566406 0.099967 108 43 54
0.132812 -0.566406 0.096872 117 46 56
0.136719 -0.566406 0.093597 107 40 51
0.140625 -0.566406 0.090172 96 34 45
0.144531 -0.566406 0.086828 95 31 42
0.148438 -0.566406 0.083819 95 28 39
0.152344 -0.566406 0.081236 101 31 40
0.156250 -0.566406 0.079145 107 37 47
0.160156 -0.566406 0.076722 116 45 56
0.164062 -0.566406 0.073229 128 54 64
0.167969 -0.566406 0.069933 131 59 68
0.171875 -0.566406 0.066900 116 49 60
0.175781 -0.566406 0.065037 117 46 57
0.179688 -0.566406 0.063703 126 48 59
0.183594 -0.566406 0.060521 131 56 63
0.187500 -0.566406 0.035940 152 77 82
-0.222656 -0.570312 0.014577 90 50 46
-0.218750 -0.570312 0.051112 92 46 44
-0.214844 -0.570312 0.065850 82 36 38
-0.210938 -0.570312 0.072110 88 33 35
-0.207031 -0.570312 0.076372 76 24 26
-0.203125 -0.570312 0.079844 89 29 31
-0.199219 -0.570312 0.083018 109 39 41
-0.195312 -0.570312 0.086885 105 41 45
-0.191406 -0.570312 0.090904 124 57 63
-0.187500 -0.570312 0.094335 125 58 64
-0.183594 -0.570312 0.096392 94 36 43
-0.179688 -0.570312 0.096763 97 34 39
-0.175781 -0.570312 0.097515 96 33 36
-0.171875 -0.570312 0.099253 98 34 38
-0.167969 -0.570312 0.101949 94 33 37
-0.164062 -0.570312 0.106196 85 30 34
-0.160156 -0.570312 0.111627 120 48 53
-0.156250 -0.570312 0.117310 148 66 72
-0.152344 -0.570312 0.122027 173 82 85
-0.148438 -0.570312 0.124985 182 82 86
-0.144531 -0.570312 0.126983 167 67 73
-0.140625 -0.570312 0.128644 185 91 97
-0.136719 -0.570312 0.129344 181 92 97
-0.132812 -0.570312 0.128728 142 58 63
-0.128906 -0.570312 0.127857 130 50 54
-0.125000 -0.570312 0.127406 146 59 63
-0.121094 -0.570312 0.127140 169 70 74
-0.117188 -0.570312 0.126372 184 73 77
-0.113281 -0.570312 0.125417 191 73 75
-0.109375 -0.570312 0.124010 187 71 73
-0.105469 -0.570312 0.121737 184 74 76
-0.101562 -0.570312 0.117886 160 58 64
-0.097656 -0.570312 0.111594 112 36 43
-0.093750 -0.570312 0.092489 100 33 40
-0.089844 -0.570312 0.077057 106 36 44
-0.085938 -0.570312 0.073660 105 37 43
-0.082031 -0.570312 0.068352 92 32 39
-0.078125 -0.570312 0.063987 89 31 38
-0.074219 -0.570312 0.059749 100 37 42
-0.070312 -0.570312 0.054830 94 33 37
-0.066406 -0.570312 0.050528 86 27 29
-0.062500 -0.570312 0.046664 77 23 24
-0.058594 -0.570312 0.043419 80 23 25
-0.054688 -0.570312 0.040142 88 26 28
-0.050781 -0.570312 0.036383 75 22 25
-0.046875 -0.570312 0.032736 77 25 28
-0.042969 -0.570312 0.028007 92 33 36
-0.039062 -0.570312 0.021876 81 29 31
-0.011719 -0.570312 0.037584 81 29 35
-0.007812 -0.570312 0.043055 68 22 27
-0.003906 -0.570312 0.046836 76 22 27
0.000000 -0.570312 0.049668 79 22 27
0.003906 -0.570312 0.052390 81 22 27
0.007812 -0.570312 0.055158 81 21 25
0.011719 -0.570312 0.058658 79 21 25
0.015625 -0.570312 0.062740 78 21 27
0.019531 -0.570312 0.067643 73 20 29
0.023438 -0.570312 0.074895 111 32 43
0.027344 -0.570312 0.082998 202 84 95
0.031250 -0.570312 0.090280 228 125 132
0.035156 -0.570312 0.093331 202 89 96
0.039062 -0.570312 0.089605 131 41 47
0.042969 -0.570312 0.084455 101 33 38
0.046875 -0.570312 0.082741 124 51 58
0.050781 -0.570312 0.085288 132 60 66
0.054688 -0.570312 0.089450 110 47 53
0.058594 -0.570312 0.093858 108 44 50
0.062500 -0.570312 0.098349 122 49 57
0.066406 -0.570312 0.102854 116 44 51
0.070312 -0.570312 0.107045 110 39 46
0.074219 -0.570312 0.111170 133 50 58
0.078125 -0.570312 0.114777 143 54 60
0.082031 -0.570312 0.116822 134 49 54
0.085938 -0.570312 0.116424 145 58 65
0.089844 -0.570312 0.114199 131 53 61
0.093750 -0.570312 0.111169 94 36 45
0.097656 -0.570312 0.108972 109 42 52
0.101562 -0.570312 0.108201 116 41 52
0.105469 -0.570312 0.107327 92 28 37
0.109375 -0.570312 0.106232 93 28 36
0.113281 -0.570312 0.105234 88 28 36
0.117188 -0.570312 0.104070 88 30 40
0.121094 -0.570312 0.102830 106 41 52
0.125000 -0.570312 0.101216 108 42 54
0.128906 -0.570312 0.098815 102 37 48
0.132812 -0.570312 0.095862 111 40 52
0.136719 -0.570312 0.092802 122 46 58
0.140625 -0.570312 0.089744 133 54 68
0.144531 -0.570312 0.086654 140 59 74
0.148438 -0.570312 0.083672 121 44 57
0.152344 -0.570312 0.081089 125 44 55
0.156250 -0.570312 0.078973 151 62 75
0.160156 -0.570312 0.076411 144 61 73
0.164062 -0.570312 0.072853 129 54 63
0.167969 -0.570312 0.069668 125 53 62
0.171875 -0.570312 0.066828 107 43 53
0.175781 -0.570312 0.065344 107 39 50
0.179688 -0.570312 0.065003 115 41 52
0.183594 -0.570312 0.062673 122 49 57
0.187500 -0.570312 0.041325 147 70 76
-0.222656 -0.574219 0.007944 96 53 49
-0.218750 -0.574219 0.047992 94 46 45
-0.214844 -0.574219 0.063056 84 38 39
-0.210938 -0.574219 0.069518 88 35 36
-0.207031 -0.574219 0.074417 83 27 29
-0.203125 -0.574219 0.078253 92 29 31
-0.199219 -0.574219 0.081271 98 32 34
-0.195312 -0.574219 0.084937 82 28 32
-0.191406 -0.574219 0.088798 95 37 43
-0.187500 -0.574219 0.092254 110 47 53
-0.183594 -0.574219 0.094530 97 38 44
-0.179688 -0.574219 0.095108 99 38 42
-0.175781 -0.574219 0.096016 87 32 35
-0.171875 -0.574219 0.097905 84 30 33
-0.167969 -0.574219 0.100678 89 31 34
-0.164062 -0.574219 0.104510 73 23 26
-0.160156 -0.574219 0.109036 80 27 31
-0.156250 -0.574219 0.114052 94 35 42
-0.152344 -0.574219 0.118930 139 56 64
-0.148438 -0.574219 0.123005 185 85 87
-0.144531 -0.574219 0.126444 193 85 89
-0.140625 -0.574219 0.129221 209 111 112
-0.136719 -0.574219 0.130500 200 103 107
-0.132812 -0.574219 0.129817 156 62 67
-0.128906 -0.574219 0.128496 132 48 54
-0.125000 -0.574219 0.127554 140 53 58
-0.121094 -0.574219 0.127003 160 65 69
-0.117188 -0.574219 0.126277 170 67 71
-0.113281 -0.574219 0.125626 180 69 72
-0.109375 -0.574219 0.124412 185 71 74
-0.105469 -0.574219 0.122165 182 70 73
-0.101562 -0.574219 0.119397 163 59 64
-0.097656 -0.574219 0.114641 131 44 51
-0.093750 -0.574219 0.101181 112 37 45
-0.089844 -0.574219 0.076672 110 36 44
-0.085938 -0.574219 0.073439 123 44 51
-0.082031 -0.574219 0.068059 112 41 48
-0.078125 -0.574219 0.063508 100 36 43
-0.074219 -0.574219 0.058967 105 39 45
-0.070312 -0.574219 0.054143 89 30 34
-0.066406 -0.574219 0.049785 76 23 26
-0.062500 -0.574219 0.045943 73 21 23
-0.058594 -0.574219 0.042592 75 22 24
-0.054688 -0.574219 0.039082 82 23 26
-0.050781 -0.574219 0.035200 72 20 23
-0.046875 -0.574219 0.031287 75 23 26
-0.042969 -0.574219 0.026493 90 32 34
-0.039062 -0.574219 0.019736 63 22 24
-0.011719 -0.574219 0.030994 82 29 35
-0.007812 -0.574219 0.039763 75 24 30
-0.003906 -0.574219 0.045633 77 23 29
0.000000 -0.574219 0.047284 81 24 30
0.003906 -0.574219 0.050414 90 27 32
0.007812 -0.574219 0.052933 88 25 29
0.011719 -0.574219 0.056091 78 20 25
0.015625 -0.574219 0.059394 82 21 27
0.019531 -0.574219 0.063707 84 22 30
0.023438 -0.574219 0.070157 89 23 34
0.027344 -0.574219 0.077951 135 37 50
0.031250 -0.574219 0.086065 200 79 89
0.035156 -0.574219 0.092046 224 117 120
0.039062 -0.574219 0.092682 204 93 96
0.042969 -0.574219 0.087682 141 50 57
0.046875 -0.574219 0.083962 113 42 50
0.050781 -0.574219 0.084979 116 47 56
0.054688 -0.574219 0.088852 106 43 51
0.058594 -0.574219 0.092733 97 37 43
0.062500 -0.574219 0.096797 103 38 44
0.066406 -0.574219 0.101271 106 38 43
0.070312 -0.574219 0.105825 114 41 47
0.074219 -0.574219 0.110241 144 57 64
0.078125 -0.574219 0.113929 149 58 65
0.082031 -0.574219 0.115796 134 49 55
0.085938 -0.574219 0.114990 139 53 60
0.089844 -0.574219 0.112604 125 49 57
0.093750 -0.574219 0.109658 102 40 49
0.097656 -0.574219 0.107336 111 42 53
0.101562 -0.574219 0.106313 110 36 47
0.105469 -0.574219 0.105398 100 29 38
0.109375 -0.574219 0.104371 106 31 40
0.113281 -0.574219 0.103400 104 31 41
0.117188 -0.574219 0.102236 103 33 43
0.121094 -0.574219 0.101001 111 38 49
0.125000 -0.574219 0.099563 111 38 50
0.128906 -0.574219 0.097445 97 31 41
0.132812 -0.574219 0.094645 95 30 40
0.136719 -0.574219 0.091752 104 35 45
0.140625 -0.574219 0.089087 122 46 59
0.144531 -0.574219 0.086326 140 60 74
0.148438 -0.574219 0.083410 110 42 55
0.152344 -0.574219 0.080823 104 36 47
0.156250 -0.574219 0.078581 131 49 62
0.160156 -0.574219 0.075828 119 45 56
0.164062 -0.574219 0.072326 113 43 52
0.167969 -0.574219 0.069381 130 54 63
0.171875 -0.574219 0.066988 126 51 62
0.175781 -0.574219 0.065894 115 43 54
0.179688 -0.574219 0.066176 108 38 48
0.183594 -0.574219 0.065219 124 49 58
0.187500 -0.574219 0.047947 154 78 83
-0.218750 -0.578125 0.045171 84 41 40
-0.214844 -0.578125 0.060516 82 38 40
-0.210938 -0.578125 0.067225 85 35 36
-0.207031 -0.578125 0.072634 81 27 29
-0.203125 -0.578125 0.076670 85 25 27
-0.199219 -0.578125 0.079659 84 24 26
-0.195312 -0.578125 0.083200 71 21 24
-0.191406 -0.578125 0.086919 75 25 30
-0.187500 -0.578125 0.090194 85 31 36
-0.183594 -0.578125 0.092557 84 30 36
-0.179688 -0.578125 0.093533 99 37 41
-0.175781 -0.578125 0.094836 104 41 43
-0.171875 -0.578125 0.096971 111 45 47
-0.167969 -0.578125 0.099772 115 46 47
-0.164062 -0.578125 0.103331 90 31 33
-0.160156 -0.578125 0.107271 90 32 34
-0.156250 -0.578125 0.111520 97 36 42
-0.152344 -0.578125 0.116017 118 45 52
-0.148438 -0.578125 0.120610 169 70 75
-0.144531 -0.578125 0.125217 196 85 88
-0.140625 -0.578125 0.129270 211 102 103
-0.136719 -0.578125 0.131385 205 94 98
-0.132812 -0.578125 0.131022 175 65 71
-0.128906 -0.578125 0.129603 142 48 55
-0.125000 -0.578125 0.128199 126 42 47
-0.121094 -0.578125 0.127144 138 49 54
-0.117188 -0.578125 0.126252 155 60 65
-0.113281 -0.578125 0.125615 176 72 76
-0.109375 -0.578125 0.124475 186 76 79
-0.105469 -0.578125 0.122249 184 69 73
-0.101562 -0.578125 0.120573 178 67 70
-0.097656 -0.578125 0.117069 160 59 65
-0.093750 -0.578125 0.108754 122 39 47
-0.089844 -0.578125 0.078686 92 27 33
-0.085938 -0.578125 0.073064 98 30 36
-0.082031 -0.578125 0.067631 96 31 37
-0.078125 -0.578125 0.062777 89 29 35
-0.074219 -0.578125 0.057951 94 31 37
-0.070312 -0.578125 0.053369 80 25 29
-0.066406 -0.578125 0.049089 72 22 24
-0.062500 -0.578125 0.045351 79 24 26
-0.058594 -0.578125 0.041877 83 25 28
-0.054688 -0.578125 0.038155 85 25 28
-0.050781 -0.578125 0.034169 76 22 24
-0.046875 -0.578125 0.029914 75 23 25
-0.042969 -0.578125 0.024957 94 34 35
-0.039062 -0.578125 0.017593 69 25 26
-0.007812 -0.578125 0.029985 75 25 32
-0.003906 -0.578125 0.042540 77 25 30
0.000000 -0.578125 0.047090 77 24 30
0.003906 -0.578125 0.049210 85 26 32
0.007812 -0.578125 0.051864 89 26 32
0.011719 -0.578125 0.054101 80 22 27
0.015625 -0.578125 0.056939 82 21 27
0.019531 -0.578125 0.060662 91 23 29
0.023438 -0.578125 0.065822 89 22 30
0.027344 -0.578125 0.072266 89 22 32
0.031250 -0.578125 0.079512 135 41 51
0.035156 -0.578125 0.086082 211 96 102
0.039062 -0.578125 0.090932 229 126 130
0.042969 -0.578125 0.091509 201 90 97
0.046875 -0.578125 0.088945 141 51 59
0.050781 -0.578125 0.086937 105 37 46
0.054688 -0.578125 0.088594 99 34 43
0.058594 -0.578125 0.091995 101 35 41
0.062500 -0.578125 0.095636 104 37 42
0.066406 -0.578125 0.099847 109 38 43
0.070312 -0.578125 0.104614 126 47 51
0.074219 -0.578125 0.109169 157 65 71
0.078125 -0.578125 0.112918 164 69 75
0.082031 -0.578125 0.114747 151 61 66
0.085938 -0.578125 0.113623 135 52 59
0.089844 -0.578125 0.110998 113 44 50
0.093750 -0.578125 0.108098 108 43 52
0.097656 -0.578125 0.105702 111 41 52
0.101562 -0.578125 0.104432 103 33 43
0.105469 -0.578125 0.103441 104 30 39
0.109375 -0.578125 0.102500 106 30 39
0.113281 -0.578125 0.101582 108 32 42
0.117188 -0.578125 0.100373 108 33 43
0.121094 -0.578125 0.099085 104 32 42
0.125000 -0.578125 0.097772 110 36 46
0.128906 -0.578125 0.095939 103 32 42
0.132812 -0.578125 0.093375 98 30 38
0.136719 -0.578125 0.090689 100 31 40
0.140625 -0.578125 0.088302 105 35 46
0.144531 -0.578125 0.085813 122 47 59
0.148438 -0.578125 0.082963 106 39 51
0.152344 -0.578125 0.080244 101 35 46
0.156250 -0.578125 0.077855 111 38 50
0.160156 -0.578125 0.075179 99 33 44
0.164062 -0.578125 0.071893 106 38 48
0.167969 -0.578125 0.069128 127 50 60
0.171875 -0.578125 0.067116 133 54 67
0.175781 -0.578125 0.066610 124 49 62
0.179688 -0.578125 0.067330 107 40 50
0.183594 -0.578125 0.067498 125 51 60
0.187500 -0.578125 0.055115 160 83 88
-0.218750 -0.582031 0.042908 78 37 37
-0.214844 -0.582031 0.057848 87 42 43
-0.210938 -0.582031 0.064875 88 38 40
-0.207031 -0.582031 0.070795 83 29 31
-0.203125 -0.582031 0.075015 81 24 26
-0.199219 -0.582031 0.078106 81 22 24
-0.195312 -0.582031 0.081545 86 25 28
-0.191406 -0.582031 0.085075 93 30 34
-0.187500 -0.582031 0.088109 93 30 34
-0.183594 -0.582031 0.090554 85 27 32
-0.179688 -0.582031 0.092030 88 30 34
-0.175781 -0.582031 0.093771 90 32 35
-0.171875 -0.582031 0.096152 99 38 40
-0.167969 -0.582031 0.099025 106 43 43
-0.164062 -0.582031 0.102293 93 35 35
-0.160156 -0.582031 0.105745 105 39 40
-0.156250 -0.582031 0.109272 113 43 46
-0.152344 -0.582031 0.113034 105 38 43
-0.148438 -0.582031 0.117811 132 46 52
-0.144531 -0.582031 0.123442 177 66 72
-0.140625 -0.582031 0.128720 208 90 92
-0.136719 -0.582031 0.131940 215 95 96
-0.132812 -0.582031 0.132254 205 83 86
-0.128906 -0.582031 0.131026 177 63 68
-0.125000 -0.582031 0.129420 142 44 50
-0.121094 -0.582031 0.127875 134 43 49
-0.117188 -0.582031 0.126548 145 52 58
-0.113281 -0.582031 0.125562 164 64 70
-0.109375 -0.582031 0.124388 177 69 73
-0.105469 -0.582031 0.122088 182 66 69
-0.101562 -0.582031 0.121052 189 73 75
-0.097656 -0.582031 0.118755 181 74 77
-0.093750 -0.582031 0.113934 136 45 53
-0.089844 -0.582031 0.083736 89 25 32
-0.085938 -0.582031 0.072261 90 27 33
-0.082031 -0.582031 0.067365 96 29 36
-0.078125 -0.582031 0.062129 90 27 33
-0.074219 -0.582031 0.057034 93 30 34
-0.070312 -0.582031 0.052710 82 26 30
-0.066406 -0.582031 0.048511 76 24 27
-0.062500 -0.582031 0.044766 86 28 31
-0.058594 -0.582031 0.041084 86 27 30
-0.054688 -0.582031 0.037175 82 24 27
-0.050781 -0.582031 0.033158 81 23 26
-0.046875 -0.582031 0.028674 78 24 26
-0.042969 -0.582031 0.023422 90 32 32
-0.039062 -0.582031 0.015892 62 21 23
0.000000 -0.582031 0.046160 71 23 29
0.003906 -0.582031 0.047437 78 25 31
0.007812 -0.582031 0.049354 82 27 32
0.011719 -0.582031 0.051515 80 26 32
0.015625 -0.582031 0.054779 82 25 31
0.019531 -0.582031 0.058461 81 22 27
0.023438 -0.582031 0.062088 79 19 25
0.027344 -0.582031 0.066570 77 20 26
0.031250 -0.582031 0.071699 87 23 32
0.035156 -0.582031 0.077418 144 41 54
0.039062 -0.582031 0.084831 210 91 100
0.042969 -0.582031 0.093074 229 131 132
0.046875 -0.582031 0.097798 216 112 116
0.050781 -0.582031 0.095249 165 62 71
0.054688 -0.582031 0.091481 118 36 44
0.058594 -0.582031 0.091807 112 35 42
0.062500 -0.582031 0.094658 121 41 47
0.066406 -0.582031 0.098464 121 41 47
0.070312 -0.582031 0.103213 123 43 49
0.074219 -0.582031 0.107913 139 52 59
0.078125 -0.582031 0.111754 158 63 69
0.082031 -0.582031 0.113679 170 75 79
0.085938 -0.582031 0.112422 144 61 67
0.089844 -0.582031 0.109621 102 41 48
0.093750 -0.582031 0.106777 102 43 50
0.097656 -0.582031 0.104336 99 38 47
0.101562 -0.582031 0.102848 87 28 37
0.105469 -0.582031 0.101742 92 27 37
0.109375 -0.582031 0.100858 93 27 38
0.113281 -0.582031 0.099946 106 33 45
0.117188 -0.582031 0.098564 112 35 47
0.121094 -0.582031 0.097063 100 31 41
0.125000 -0.582031 0.095774 114 37 48
0.128906 -0.582031 0.094205 115 38 49
0.132812 -0.582031 0.092044 106 34 43
0.136719 -0.582031 0.089665 106 34 43
0.140625 -0.582031 0.087504 106 35 45
0.144531 -0.582031 0.085266 119 44 54
0.148438 -0.582031 0.082520 117 44 55
0.152344 -0.582031 0.079663 119 44 55
0.156250 -0.582031 0.077188 118 41 54
0.160156 -0.582031 0.074725 107 37 48
0.164062 -0.582031 0.071566 116 43 54
0.167969 -0.582031 0.068777 118 44 56
0.171875 -0.582031 0.066901 128 50 64
0.175781 -0.582031 0.067032 135 57 70
0.179688 -0.582031 0.068226 122 51 64
0.183594 -0.582031 0.068262 138 60 71
0.187500 -0.582031 0.060438 188 106 110
0.191406 -0.582031 0.009035 154 83 89
-0.218750 -0.585938 0.040705 77 37 37
-0.214844 -0.585938 0.055305 86 41 43
-0.210938 -0.585938 0.062462 90 40 43
-0.207031 -0.585938 0.068702 92 34 37
-0.203125 -0.585938 0.073154 87 27 29
-0.199219 -0.585938 0.076364 79 21 24
-0.195312 -0.585938 0.079744 90 26 28
-0.191406 -0.585938 0.083203 95 29 32
-0.187500 -0.585938 0.086153 86 26 29
-0.183594 -0.585938 0.088815 81 24 27
-0.179688 -0.585938 0.090824 82 26 29
-0.175781 -0.585938 0.092991 80 27 29
-0.171875 -0.585938 0.095535 81 29 31
-0.167969 -0.585938 0.098363 94 35 36
-0.164062 -0.585938 0.101278 102 39 38
-0.160156 -0.585938 0.104227 113 43 41
-0.156250 -0.585938 0.107306 112 40 40
-0.152344 -0.585938 0.110852 91 30 33
-0.148438 -0.585938 0.115701 99 32 37
-0.144531 -0.585938 0.121623 148 51 58
-0.140625 -0.585938 0.127444 198 79 83
-0.136719 -0.585938 0.131622 220 95 97
-0.132812 -0.585938 0.133023 220 95 96
-0.128906 -0.585938 0.132540 201 74 80
-0.125000 -0.585938 0.131181 171 54 61
-0.121094 -0.585938 0.129307 150 49 54
-0.117188 -0.585938 0.127359 142 49 56
-0.113281 -0.585938 0.125681 148 54 62
-0.109375 -0.585938 0.124100 163 59 66
-0.105469 -0.585938 0.121562 178 62 67
-0.101562 -0.585938 0.120780 189 71 73
-0.097656 -0.585938 0.119413 185 75 77
-0.093750 -0.585938 0.116960 145 50 57
-0.089844 -0.585938 0.092028 100 31 37
-0.085938 -0.585938 0.071497 113 37 44
-0.082031 -0.585938 0.067267 118 40 46
-0.078125 -0.585938 0.061534 96 30 35
-0.074219 -0.585938 0.056206 99 32 36
-0.070312 -0.585938 0.052054 100 34 38
-0.066406 -0.585938 0.047872 94 32 36
-0.062500 -0.585938 0.044072 97 34 37
-0.058594 -0.585938 0.040239 83 27 30
-0.054688 -0.585938 0.036141 76 23 26
-0.050781 -0.585938 0.031920 87 26 29
-0.046875 -0.585938 0.027248 86 26 28
-0.042969 -0.585938 0.021744 91 31 31
-0.039062 -0.585938 0.014300 56 18 19
0.003906 -0.585938 0.043628 83 30 36
0.007812 -0.585938 0.048053 89 34 41
0.011719 -0.585938 0.050606 89 36 43
0.015625 -0.585938 0.052301 89 34 40
0.019531 -0.585938 0.055605 76 23 28
0.023438 -0.585938 0.058891 72 19 23
0.027344 -0.585938 0.062216 80 20 25
0.031250 -0.585938 0.066213 81 21 28
0.035156 -0.585938 0.071047 93 25 36
0.039062 -0.585938 0.078553 153 50 62
0.042969 -0.585938 0.088385 220 109 115
0.046875 -0.585938 0.098836 235 141 144
0.050781 -0.585938 0.101532 217 102 109
0.054688 -0.585938 0.097460 165 51 58
0.058594 -0.585938 0.093954 125 36 42
0.062500 -0.585938 0.094500 128 41 48
0.066406 -0.585938 0.098025 131 44 50
0.070312 -0.585938 0.102855 122 42 48
0.074219 -0.585938 0.107359 118 41 50
0.078125 -0.585938 0.110888 128 46 53
0.082031 -0.585938 0.112422 155 64 69
0.085938 -0.585938 0.110964 144 62 68
0.089844 -0.585938 0.108216 106 46 53
0.093750 -0.585938 0.105494 109 51 59
0.097656 -0.585938 0.103018 104 46 55
0.101562 -0.585938 0.101392 97 37 47
0.105469 -0.585938 0.100188 114 41 53
0.109375 -0.585938 0.099246 121 43 57
0.113281 -0.585938 0.098237 133 49 64
0.117188 -0.585938 0.096692 127 44 58
0.121094 -0.585938 0.094995 101 31 42
0.125000 -0.585938 0.093623 109 35 46
0.128906 -0.585938 0.092319 118 40 52
0.132812 -0.585938 0.090644 118 41 52
0.136719 -0.585938 0.088632 114 40 50
0.140625 -0.585938 0.086746 98 33 43
0.144531 -0.585938 0.084778 102 35 45
0.148438 -0.585938 0.082115 105 38 49
0.152344 -0.585938 0.079129 109 39 51
0.156250 -0.585938 0.076536 118 43 55
0.160156 -0.585938 0.074094 130 50 62
0.164062 -0.585938 0.070876 143 57 71
0.167969 -0.585938 0.068091 125 47 60
0.171875 -0.585938 0.066348 120 46 59
0.175781 -0.585938 0.066982 130 53 67
0.179688 -0.585938 0.068985 135 58 73
0.183594 -0.585938 0.069471 155 70 82
0.187500 -0.585938 0.063305 202 119 116
0.191406 -0.585938 0.020405 214 153 142
-0.218750 -0.589844 0.038535 75 36 37
-0.214844 -0.589844 0.052712 81 38 41
-0.210938 -0.589844 0.059817 82 34 38
-0.207031 -0.589844 0.066099 89 32 35
-0.203125 -0.589844 0.070759 90 27 30
-0.199219 -0.589844 0.074141 79 22 24
-0.195312 -0.589844 0.077671 90 26 28
-0.191406 -0.589844 0.081274 95 29 31
-0.187500 -0.589844 0.084380 86 25 28
-0.183594 -0.589844 0.087349 89 26 29
-0.179688 -0.589844 0.089871 98 32 34
-0.175781 -0.589844 0.092477 94 33 35
-0.171875 -0.589844 0.095147 83 29 32
-0.167969 -0.589844 0.097916 86 31 34
-0.164062 -0.589844 0.100625 98 36 38
-0.160156 -0.589844 0.103227 103 37 38
-0.156250 -0.589844 0.106024 104 35 35
-0.152344 -0.589844 0.109575 98 31 33
-0.148438 -0.589844 0.114203 97 31 35
-0.144531 -0.589844 0.119537 126 41 48
-0.140625 -0.589844 0.125081 171 58 65
-0.136719 -0.589844 0.129904 208 79 84
-0.132812 -0.589844 0.132777 225 101 101
-0.128906 -0.589844 0.133774 222 96 98
-0.125000 -0.589844 0.133271 207 83 86
-0.121094 -0.589844 0.131415 186 75 78
-0.117188 -0.589844 0.128848 165 66 72
-0.113281 -0.589844 0.126334 154 60 69
-0.109375 -0.589844 0.124086 155 56 64
-0.105469 -0.589844 0.121147 168 57 63
-0.101562 -0.589844 0.120155 177 61 63
-0.097656 -0.589844 0.119196 178 67 69
-0.093750 -0.589844 0.118183 149 54 60
-0.089844 -0.589844 0.101190 100 32 39
-0.085938 -0.589844 0.072116 109 37 44
-0.082031 -0.589844 0.067146 114 39 45
-0.078125 -0.589844 0.061128 89 28 33
-0.074219 -0.589844 0.055414 93 29 34
-0.070312 -0.589844 0.051153 97 32 36
-0.066406 -0.589844 0.046845 95 33 36
-0.062500 -0.589844 0.042907 98 35 38
-0.058594 -0.589844 0.038947 83 27 30
-0.054688 -0.589844 0.034687 76 23 26
-0.050781 -0.589844 0.030265 82 23 26
-0.046875 -0.589844 0.025421 79 22 24
-0.042969 -0.589844 0.020247 92 30 30
-0.039062 -0.589844 0.011801 63 21 22
0.007812 -0.589844 0.028192 82 34 41
0.011719 -0.589844 0.046656 105 52 58
0.015625 -0.589844 0.049376 111 54 59
0.019531 -0.589844 0.050925 90 35 40
0.023438 -0.589844 0.055431 78 24 29
0.027344 -0.589844 0.058979 80 21 25
0.031250 -0.589844 0.062279 82 20 27
0.035156 -0.589844 0.066338 83 21 30
0.039062 -0.589844 0.071997 98 25 36
0.042969 -0.589844 0.079961 163 50 64
0.046875 -0.589844 0.091326 222 110 118
0.050781 -0.589844 0.101687 235 138 137
0.054688 -0.589844 0.103409 220 101 102
0.058594 -0.589844 0.100159 169 55 61
0.062500 -0.589844 0.098841 132 40 48
0.066406 -0.589844 0.100511 126 40 47
0.070312 -0.589844 0.104162 133 48 56
0.074219 -0.589844 0.107804 145 59 68
0.078125 -0.589844 0.110363 142 57 64
0.082031 -0.589844 0.110947 151 63 68
0.085938 -0.589844 0.109151 143 62 68
0.089844 -0.589844 0.106500 122 56 63
0.093750 -0.589844 0.103769 132 69 77
0.097656 -0.589844 0.101218 120 59 69
0.101562 -0.589844 0.099506 104 45 54
0.105469 -0.589844 0.098238 119 48 59
0.109375 -0.589844 0.097196 122 46 59
0.113281 -0.589844 0.096011 125 45 59
0.117188 -0.589844 0.094374 116 38 51
0.121094 -0.589844 0.092662 99 30 41
0.125000 -0.589844 0.091332 104 33 44
0.128906 -0.589844 0.090287 114 39 51
0.132812 -0.589844 0.089096 132 50 61
0.136719 -0.589844 0.087563 135 54 64
0.140625 -0.589844 0.086091 109 41 52
0.144531 -0.589844 0.084434 113 44 55
0.148438 -0.589844 0.081726 124 52 64
0.152344 -0.589844 0.078472 117 46 60
0.156250 -0.589844 0.075660 123 47 60
0.160156 -0.589844 0.073153 134 52 65
0.164062 -0.589844 0.069907 133 49 63
0.167969 -0.589844 0.067336 114 39 52
0.171875 -0.589844 0.065828 110 39 51
0.175781 -0.589844 0.066818 116 45 57
0.179688 -0.589844 0.069351 128 53 65
0.183594 -0.589844 0.070235 151 63 73
0.187500 -0.589844 0.064768 190 98 95
0.191406 -0.589844 0.025746 206 135 126
-0.218750 -0.593750 0.036432 83 40 42
-0.214844 -0.593750 0.050310 85 39 42
-0.210938 -0.593750 0.057235 78 31 34
-0.207031 -0.593750 0.063352 80 26 30
-0.203125 -0.593750 0.068075 83 24 27
-0.199219 -0.593750 0.071574 77 21 23
-0.195312 -0.593750 0.075474 82 23 26
-0.191406 -0.593750 0.079546 89 26 29
-0.187500 -0.593750 0.083054 83 24 26
-0.183594 -0.593750 0.086370 86 25 27
-0.179688 -0.593750 0.089230 94 29 32
-0.175781 -0.593750 0.092021 94 31 34
-0.171875 -0.593750 0.094741 94 34 38
-0.167969 -0.593750 0.097561 98 39 43
-0.164062 -0.593750 0.100242 101 41 45
-0.160156 -0.593750 0.102681 93 35 39
-0.156250 -0.593750 0.105252 97 33 35
-0.152344 -0.593750 0.108562 110 36 37
-0.148438 -0.593750 0.112768 105 34 37
-0.144531 -0.593750 0.117365 106 34 39
-0.140625 -0.593750 0.122204 132 41 47
-0.136719 -0.593750 0.127207 180 58 66
-0.132812 -0.593750 0.131525 222 94 96
-0.128906 -0.593750 0.134439 232 109 108
-0.125000 -0.593750 0.135393 226 101 102
-0.121094 -0.593750 0.133918 207 88 92
-0.117188 -0.593750 0.130808 186 78 85
-0.113281 -0.593750 0.127399 172 74 82
-0.109375 -0.593750 0.124350 164 66 73
-0.105469 -0.593750 0.120993 173 65 70
-0.101562 -0.593750 0.119595 179 66 68
-0.097656 -0.593750 0.118866 192 81 82
-0.093750 -0.593750 0.118550 186 83 88
-0.089844 -0.593750 0.107778 123 46 52
-0.085938 -0.593750 0.075718 99 35 40
-0.082031 -0.593750 0.066772 101 34 39
-0.078125 -0.593750 0.060845 89 28 32
-0.074219 -0.593750 0.054626 91 29 32
-0.070312 -0.593750 0.050094 84 26 30
-0.066406 -0.593750 0.045594 81 26 30
-0.062500 -0.593750 0.041503 90 30 34
-0.058594 -0.593750 0.037413 82 26 29
-0.054688 -0.593750 0.033063 76 22 25
-0.050781 -0.593750 0.028627 74 20 23
-0.046875 -0.593750 0.023785 72 19 20
-0.042969 -0.593750 0.019528 84 25 25
-0.039062 -0.593750 0.008341 45 14 16
0.011719 -0.593750 0.021991 89 44 49
0.015625 -0.593750 0.046059 105 54 58
0.019531 -0.593750 0.048014 93 42 47
0.023438 -0.593750 0.051239 86 31 35
0.027344 -0.593750 0.055353 83 23 28
0.031250 -0.593750 0.058496 87 22 27
0.035156 -0.593750 0.062403 85 21 27
0.039062 -0.593750 0.067626 79 19 27
0.042969 -0.593750 0.073710 101 27 39
0.046875 -0.593750 0.082389 173 62 75
0.050781 -0.593750 0.093883 228 118 123
0.054688 -0.593750 0.102360 234 125 128
0.058594 -0.593750 0.105482 202 77 85
0.062500 -0.593750 0.105884 141 41 49
0.066406 -0.593750 0.106299 110 31 39
0.070312 -0.593750 0.107299 133 46 57
0.074219 -0.593750 0.108811 171 77 87
0.078125 -0.593750 0.109924 166 73 79
0.082031 -0.593750 0.109548 151 62 67
0.085938 -0.593750 0.107277 128 52 59
0.089844 -0.593750 0.104110 110 47 55
0.093750 -0.593750 0.100956 125 59 69
0.097656 -0.593750 0.098310 111 50 61
0.101562 -0.593750 0.096645 98 40 50
0.105469 -0.593750 0.095422 106 41 51
0.109375 -0.593750 0.094439 97 33 44
0.113281 -0.593750 0.093233 96 31 42
0.117188 -0.593750 0.091603 102 31 43
0.121094 -0.593750 0.090057 104 31 42
0.125000 -0.593750 0.088984 102 31 42
0.128906 -0.593750 0.088222 94 29 41
0.132812 -0.593750 0.087385 106 35 48
0.136719 -0.593750 0.086324 121 44 57
0.140625 -0.593750 0.085307 119 47 59
0.144531 -0.593750 0.083911 145 68 80
0.148438 -0.593750 0.081158 165 85 99
0.152344 -0.593750 0.077672 138 62 77
0.156250 -0.593750 0.074659 119 45 58
0.160156 -0.593750 0.072146 109 37 50
0.164062 -0.593750 0.069087 98 32 44
0.167969 -0.593750 0.066798 96 31 42
0.171875 -0.593750 0.065531 114 41 52
0.175781 -0.593750 0.066897 127 51 63
0.179688 -0.593750 0.069869 125 50 61
0.183594 -0.593750 0.070989 134 50 60
0.187500 -0.593750 0.066195 175 82 81
0.191406 -0.593750 0.027851 203 130 123
-0.218750 -0.597656 0.034095 87 44 46
-0.214844 -0.597656 0.047956 90 42 45
-0.210938 -0.597656 0.054776 86 33 36
-0.207031 -0.597656 0.060725 83 26 29
-0.203125 -0.597656 0.065380 82 23 26
-0.199219 -0.597656 0.068968 79 21 24
-0.195312 -0.597656 0.073307 81 23 26
-0.191406 -0.597656 0.077954 89 27 30
-0.187500 -0.597656 0.082074 80 23 27
-0.183594 -0.597656 0.085828 76 22 26
-0.179688 -0.597656 0.088879 82 26 29
-0.175781 -0.597656 0.091655 85 28 32
-0.171875 -0.597656 0.094272 98 35 39
-0.167969 -0.597656 0.097038 114 47 52
-0.164062 -0.597656 0.099785 126 56 61
-0.160156 -0.597656 0.102239 115 48 53
-0.156250 -0.597656 0.104641 105 38 41
-0.152344 -0.597656 0.107617 114 38 39
-0.148438 -0.597656 0.111330 103 33 35
-0.144531 -0.597656 0.115195 93 30 32
-0.140625 -0.597656 0.119246 105 32 38
-0.136719 -0.597656 0.123903 141 41 49
-0.132812 -0.597656 0.129437 201 70 75
-0.128906 -0.597656 0.134634 227 93 95
-0.125000 -0.597656 0.137343 227 92 94
-0.121094 -0.597656 0.136383 214 81 84
-0.117188 -0.597656 0.132787 196 76 81
-0.113281 -0.597656 0.128546 186 81 87
-0.109375 -0.597656 0.124672 175 73 80
-0.105469 -0.597656 0.120953 176 69 75
-0.101562 -0.597656 0.119102 177 66 69
-0.097656 -0.597656 0.118119 190 77 80
-0.093750 -0.597656 0.117789 195 91 94
-0.089844 -0.597656 0.111219 140 56 61
-0.085938 -0.597656 0.083077 100 37 42
-0.082031 -0.597656 0.066371 98 34 39
-0.078125 -0.597656 0.060513 95 31 35
-0.074219 -0.597656 0.053882 97 31 34
-0.070312 -0.597656 0.049013 89 28 31
-0.066406 -0.597656 0.044255 91 28 32
-0.062500 -0.597656 0.039940 94 29 33
-0.058594 -0.597656 0.035759 80 24 26
-0.054688 -0.597656 0.031400 75 21 24
-0.050781 -0.597656 0.027010 73 19 22
-0.046875 -0.597656 0.022210 77 19 21
-0.042969 -0.597656 0.019143 75 21 22
-0.039062 -0.597656 0.004875 27 9 11
0.019531 -0.597656 0.042523 86 40 46
0.023438 -0.597656 0.046311 86 35 40
0.027344 -0.597656 0.050584 75 23 28
0.031250 -0.597656 0.055123 84 23 27
0.035156 -0.597656 0.059350 88 22 27
0.039062 -0.597656 0.064350 90 23 30
0.042969 -0.597656 0.068713 95 27 38
