ply
    format ascii 1.0
    element vertex 52586
    property float x
    property float y
    property float z
    property uchar red
    property uchar green
    property uchar blue
    end_header
0.101562 0.273438 0.016420 172 174 168
0.105469 0.273438 0.013410 215 207 214
0.109375 0.273438 0.010479 190 185 200
0.113281 0.273438 0.007490 210 206 212
0.117188 0.273438 0.004610 219 209 222
0.121094 0.273438 0.002007 222 222 222
0.125000 0.273438 -0.000418 226 226 226
0.128906 0.273438 -0.003068 230 230 230
0.132812 0.273438 -0.006322 231 231 231
0.136719 0.273438 -0.009732 234 234 234
0.140625 0.273438 -0.013275 239 239 239
0.144531 0.273438 -0.017298 244 244 244
0.148438 0.273438 -0.021951 248 248 248
0.152344 0.273438 -0.027688 251 250 251
0.156250 0.273438 -0.034780 248 247 248
-0.179688 0.269531 -0.052051 108 107 108
-0.175781 0.269531 -0.038989 136 134 134
-0.171875 0.269531 -0.029533 117 116 116
-0.167969 0.269531 -0.023124 136 136 136
-0.164062 0.269531 -0.017201 153 153 153
-0.160156 0.269531 -0.012079 153 153 153
-0.156250 0.269531 -0.007090 146 147 146
-0.152344 0.269531 -0.002937 139 139 138
-0.148438 0.269531 0.000738 130 131 129
-0.144531 0.269531 0.004321 116 116 114
-0.140625 0.269531 0.007975 97 97 95
-0.136719 0.269531 0.011018 117 117 115
-0.132812 0.269531 0.011961 195 194 190
-0.128906 0.269531 0.012782 230 233 213
-0.125000 0.269531 0.013179 224 230 209
-0.121094 0.269531 0.016642 212 221 199
-0.117188 0.269531 0.028868 192 199 176
-0.113281 0.269531 0.043124 171 177 149
-0.109375 0.269531 0.051297 192 194 164
-0.105469 0.269531 0.055717 181 181 153
-0.101562 0.269531 0.057668 195 194 170
-0.097656 0.269531 0.058956 190 185 168
-0.093750 0.269531 0.060370 179 175 159
-0.089844 0.269531 0.061784 188 190 165
-0.085938 0.269531 0.063134 124 129 108
-0.082031 0.269531 0.064741 68 88 87
-0.078125 0.269531 0.066441 65 88 98
-0.074219 0.269531 0.067748 69 94 110
-0.070312 0.269531 0.068589 79 105 126
-0.066406 0.269531 0.069213 89 81 120
-0.062500 0.269531 0.069743 75 71 106
-0.058594 0.269531 0.070295 60 65 97
-0.054688 0.269531 0.070932 48 59 87
-0.050781 0.269531 0.071626 131 145 170
-0.046875 0.269531 0.072248 150 157 185
-0.042969 0.269531 0.072709 136 133 164
-0.039062 0.269531 0.073010 95 75 111
-0.035156 0.269531 0.073308 162 126 169
-0.031250 0.269531 0.073565 176 133 183
-0.027344 0.269531 0.073934 185 143 196
-0.023438 0.269531 0.074369 147 114 169
-0.019531 0.269531 0.074816 144 131 183
-0.015625 0.269531 0.075188 134 144 193
-0.011719 0.269531 0.075569 114 145 191
-0.007812 0.269531 0.076014 57 100 142
-0.003906 0.269531 0.076364 81 129 169
0.000000 0.269531 0.076732 135 170 212
0.003906 0.269531 0.076934 95 112 156
0.007812 0.269531 0.077026 79 77 114
0.011719 0.269531 0.076929 81 67 84
0.015625 0.269531 0.076752 81 61 54
0.019531 0.269531 0.076743 107 90 62
0.023438 0.269531 0.076460 79 70 37
0.027344 0.269531 0.075891 52 55 34
0.031250 0.269531 0.075222 66 77 83
0.035156 0.269531 0.074080 118 133 166
0.039062 0.269531 0.072390 124 138 185
0.042969 0.269531 0.070252 118 127 169
0.046875 0.269531 0.067639 103 106 125
0.050781 0.269531 0.064761 53 52 40
0.054688 0.269531 0.061731 84 79 48
0.058594 0.269531 0.058517 43 76 60
0.062500 0.269531 0.055042 73 104 96
0.066406 0.269531 0.051227 93 115 118
0.070312 0.269531 0.047381 111 122 128
0.074219 0.269531 0.043667 130 138 136
0.078125 0.269531 0.039807 143 148 139
0.082031 0.269531 0.036093 147 138 133
0.085938 0.269531 0.032830 212 203 194
0.089844 0.269531 0.029364 232 229 218
0.093750 0.269531 0.025243 189 184 169
0.097656 0.269531 0.021390 99 104 94
0.101562 0.269531 0.018094 118 122 116
0.105469 0.269531 0.014884 216 213 221
0.109375 0.269531 0.011694 177 172 193
0.113281 0.269531 0.008565 202 198 206
0.117188 0.269531 0.005627 217 206 220
0.121094 0.269531 0.003019 221 221 221
0.125000 0.269531 0.000621 227 227 227
0.128906 0.269531 -0.002071 232 232 232
0.132812 0.269531 -0.005440 234 234 234
0.136719 0.269531 -0.008928 236 236 236
0.140625 0.269531 -0.012516 239 239 239
0.144531 0.269531 -0.016415 243 243 243
0.148438 0.269531 -0.021136 248 247 247
0.152344 0.269531 -0.026554 252 251 252
0.156250 0.269531 -0.032808 253 252 253
-0.179688 0.265625 -0.049594 126 125 126
-0.175781 0.265625 -0.037272 120 119 119
-0.171875 0.265625 -0.027919 110 110 110
-0.167969 0.265625 -0.021376 133 133 133
-0.164062 0.265625 -0.015310 150 150 150
-0.160156 0.265625 -0.010097 149 150 149
-0.156250 0.265625 -0.005084 143 143 143
-0.152344 0.265625 -0.000886 136 136 135
-0.148438 0.265625 0.002880 127 128 126
-0.144531 0.265625 0.006562 113 113 111
-0.140625 0.265625 0.010378 94 93 91
-0.136719 0.265625 0.013541 114 113 111
-0.132812 0.265625 0.014493 192 191 187
-0.128906 0.265625 0.015466 230 230 211
-0.125000 0.265625 0.015797 221 224 203
-0.121094 0.265625 0.019411 210 219 198
-0.117188 0.265625 0.032040 188 196 173
-0.113281 0.265625 0.046104 170 178 151
-0.109375 0.265625 0.054112 192 195 170
-0.105469 0.265625 0.058332 182 182 159
-0.101562 0.265625 0.060265 194 193 171
-0.097656 0.265625 0.061551 187 182 164
-0.093750 0.265625 0.063074 190 184 171
-0.089844 0.265625 0.064625 182 183 167
-0.085938 0.265625 0.066030 97 108 96
-0.082031 0.265625 0.067805 70 87 83
-0.078125 0.265625 0.069766 65 82 88
-0.074219 0.265625 0.071231 75 91 103
-0.070312 0.265625 0.072151 67 85 99
-0.066406 0.265625 0.072892 96 90 126
-0.062500 0.265625 0.073546 74 73 107
-0.058594 0.265625 0.074186 84 90 122
-0.054688 0.265625 0.074890 63 76 108
-0.050781 0.265625 0.075624 154 168 199
-0.046875 0.265625 0.076282 118 128 162
-0.042969 0.265625 0.076786 118 117 157
-0.039062 0.265625 0.077136 102 89 135
-0.035156 0.265625 0.077466 171 145 199
-0.031250 0.265625 0.077743 169 135 196
-0.027344 0.265625 0.078127 174 142 205
-0.023438 0.265625 0.078594 128 106 170
-0.019531 0.265625 0.079071 110 104 166
-0.015625 0.265625 0.079485 97 114 170
-0.011719 0.265625 0.079892 107 140 193
-0.007812 0.265625 0.080314 72 115 166
-0.003906 0.265625 0.080645 43 101 164
0.000000 0.265625 0.080964 110 159 217
0.003906 0.265625 0.081115 98 132 180
0.007812 0.265625 0.081155 84 100 133
0.011719 0.265625 0.081040 85 87 100
0.015625 0.265625 0.080723 82 77 71
0.019531 0.265625 0.080453 95 90 70
0.023438 0.265625 0.080227 75 77 56
0.027344 0.265625 0.079798 81 91 83
0.031250 0.265625 0.079128 57 73 86
0.035156 0.265625 0.077924 106 126 158
0.039062 0.265625 0.076211 78 98 140
0.042969 0.265625 0.074054 89 107 142
0.046875 0.265625 0.071352 119 132 151
0.050781 0.265625 0.068381 41 50 46
0.054688 0.265625 0.065232 117 120 105
0.058594 0.265625 0.061851 67 96 71
0.062500 0.265625 0.058283 55 82 65
0.066406 0.265625 0.054584 70 92 89
0.070312 0.265625 0.050611 93 108 118
0.074219 0.265625 0.046597 133 141 144
0.078125 0.265625 0.042432 166 165 158
0.082031 0.265625 0.038309 141 132 130
0.085938 0.265625 0.034537 190 185 179
0.089844 0.265625 0.030581 215 214 206
0.093750 0.265625 0.026319 189 184 172
0.097656 0.265625 0.022669 105 109 98
0.101562 0.265625 0.019450 97 102 96
0.105469 0.265625 0.016073 197 196 208
0.109375 0.265625 0.012683 158 156 184
0.113281 0.265625 0.009487 191 187 199
0.117188 0.265625 0.006540 215 210 217
0.121094 0.265625 0.003934 221 221 221
0.125000 0.265625 0.001571 229 229 229
0.128906 0.265625 -0.001168 235 235 235
0.132812 0.265625 -0.004666 237 237 237
0.136719 0.265625 -0.008257 238 238 238
0.140625 0.265625 -0.011916 239 239 239
0.144531 0.265625 -0.015775 241 241 241
0.148438 0.265625 -0.020273 246 246 246
0.152344 0.265625 -0.025357 250 250 250
0.156250 0.265625 -0.031260 251 250 251
-0.183594 0.261719 -0.020064 19 19 22
-0.179688 0.261719 -0.045855 125 123 125
-0.175781 0.261719 -0.035869 115 114 114
-0.171875 0.261719 -0.026808 113 113 113
-0.167969 0.261719 -0.019635 136 136 136
-0.164062 0.261719 -0.013548 150 150 150
-0.160156 0.261719 -0.008297 148 148 148
-0.156250 0.261719 -0.003258 141 142 141
-0.152344 0.261719 0.000997 135 136 134
-0.148438 0.261719 0.004844 127 128 126
-0.144531 0.261719 0.008622 114 113 111
-0.140625 0.261719 0.012579 92 91 90
-0.136719 0.261719 0.015879 111 110 107
-0.132812 0.261719 0.016934 189 188 183
-0.128906 0.261719 0.018010 226 225 204
-0.125000 0.261719 0.018455 215 217 195
-0.121094 0.261719 0.022642 205 215 193
-0.117188 0.261719 0.035608 183 193 168
-0.113281 0.261719 0.048893 169 178 151
-0.109375 0.261719 0.056620 189 194 170
-0.105469 0.261719 0.060693 181 182 162
-0.101562 0.261719 0.062697 189 188 169
-0.097656 0.261719 0.064067 177 174 159
-0.093750 0.261719 0.065650 193 185 175
-0.089844 0.261719 0.067304 150 154 142
-0.085938 0.261719 0.068905 88 101 89
-0.082031 0.261719 0.070878 71 84 75
-0.078125 0.261719 0.072986 59 69 69
-0.074219 0.261719 0.074533 79 88 95
-0.070312 0.261719 0.075535 63 70 80
-0.066406 0.261719 0.076383 76 83 112
-0.062500 0.261719 0.077133 76 85 116
-0.058594 0.261719 0.077860 66 77 109
-0.054688 0.261719 0.078639 78 91 125
-0.050781 0.261719 0.079422 127 139 177
-0.046875 0.261719 0.080115 126 133 179
-0.042969 0.261719 0.080649 99 101 151
-0.039062 0.261719 0.081031 91 86 144
-0.035156 0.261719 0.081394 122 110 174
-0.031250 0.261719 0.081696 109 94 163
-0.027344 0.261719 0.082086 119 108 177
-0.023438 0.261719 0.082581 106 103 172
-0.019531 0.261719 0.083079 89 98 165
-0.015625 0.261719 0.083495 70 94 158
-0.011719 0.261719 0.083877 84 118 179
-0.007812 0.261719 0.084279 74 116 174
-0.003906 0.261719 0.084641 33 91 165
0.000000 0.261719 0.084954 68 123 180
0.003906 0.261719 0.085070 86 131 160
0.007812 0.261719 0.085081 76 111 113
0.011719 0.261719 0.084923 76 98 85
0.015625 0.261719 0.084658 77 90 73
0.019531 0.261719 0.084293 76 81 74
0.023438 0.261719 0.083907 85 88 95
0.027344 0.261719 0.083386 113 119 135
0.031250 0.261719 0.082677 144 152 171
0.035156 0.261719 0.081466 179 194 207
0.039062 0.261719 0.079785 152 169 175
0.042969 0.261719 0.077675 143 161 160
0.046875 0.261719 0.074985 143 162 160
0.050781 0.261719 0.071995 47 63 62
0.054688 0.261719 0.068701 83 97 99
0.058594 0.261719 0.065194 105 127 100
0.062500 0.261719 0.061654 68 90 71
0.066406 0.261719 0.057905 74 95 90
0.070312 0.261719 0.053675 83 97 111
0.074219 0.261719 0.049312 106 115 129
0.078125 0.261719 0.044945 158 158 160
0.082031 0.261719 0.040629 160 152 151
0.085938 0.261719 0.036362 184 178 177
0.089844 0.261719 0.031825 196 193 189
0.093750 0.261719 0.027405 188 186 179
0.097656 0.261719 0.023823 114 119 109
0.101562 0.261719 0.020516 96 101 96
0.105469 0.261719 0.017015 163 164 179
0.109375 0.261719 0.013531 150 149 183
0.113281 0.261719 0.010310 178 173 192
0.117188 0.261719 0.007343 210 205 213
0.121094 0.261719 0.004710 219 219 220
0.125000 0.261719 0.002351 230 229 230
0.128906 0.261719 -0.000451 236 236 236
0.132812 0.261719 -0.004093 238 238 238
0.136719 0.261719 -0.007799 239 239 239
0.140625 0.261719 -0.011490 239 239 239
0.144531 0.261719 -0.015305 240 240 240
0.148438 0.261719 -0.019711 245 245 245
0.152344 0.261719 -0.024725 250 250 250
0.156250 0.261719 -0.030682 252 249 251
0.160156 0.261719 -0.040270 141 132 142
-0.183594 0.257812 -0.017908 16 15 18
-0.179688 0.257812 -0.044954 104 103 105
-0.175781 0.257812 -0.034866 104 104 104
-0.171875 0.257812 -0.025605 111 111 111
-0.167969 0.257812 -0.017983 135 135 135
-0.164062 0.257812 -0.011979 150 150 150
-0.160156 0.257812 -0.006691 149 149 149
-0.156250 0.257812 -0.001615 142 143 142
-0.152344 0.257812 0.002723 136 138 136
-0.148438 0.257812 0.006678 128 129 126
-0.144531 0.257812 0.010587 113 112 110
-0.140625 0.257812 0.014679 89 88 86
-0.136719 0.257812 0.018123 104 103 98
-0.132812 0.257812 0.019444 180 177 169
-0.128906 0.257812 0.020522 213 211 192
-0.125000 0.257812 0.021267 199 200 178
-0.121094 0.257812 0.026338 198 210 186
-0.117188 0.257812 0.039238 178 190 161
-0.113281 0.257812 0.051426 169 178 151
-0.109375 0.257812 0.058837 188 192 172
-0.105469 0.257812 0.062949 182 180 164
-0.101562 0.257812 0.065004 188 185 168
-0.097656 0.257812 0.066437 184 182 168
-0.093750 0.257812 0.067909 187 180 172
-0.089844 0.257812 0.069441 114 122 110
-0.085938 0.257812 0.071264 95 107 96
-0.082031 0.257812 0.073599 79 86 78
-0.078125 0.257812 0.075876 56 60 59
-0.074219 0.257812 0.077472 96 96 100
-0.070312 0.257812 0.078546 80 77 84
-0.066406 0.257812 0.079512 58 75 91
-0.062500 0.257812 0.080395 56 71 90
-0.058594 0.257812 0.081242 56 66 91
-0.054688 0.257812 0.082118 67 72 104
-0.050781 0.257812 0.082962 143 142 181
-0.046875 0.257812 0.083704 163 159 208
-0.042969 0.257812 0.084279 141 133 190
-0.039062 0.257812 0.084685 96 90 152
-0.035156 0.257812 0.085064 106 104 169
-0.031250 0.257812 0.085382 90 93 160
-0.027344 0.257812 0.085770 104 113 180
-0.023438 0.257812 0.086267 135 150 216
-0.019531 0.257812 0.086753 126 145 211
-0.015625 0.257812 0.087145 95 119 183
-0.011719 0.257812 0.087488 74 102 165
-0.007812 0.257812 0.087843 73 103 165
-0.003906 0.257812 0.088181 25 65 134
0.000000 0.257812 0.088480 50 90 139
0.003906 0.257812 0.088609 94 132 151
0.007812 0.257812 0.088611 83 118 112
0.011719 0.257812 0.088439 50 77 60
0.015625 0.257812 0.088195 49 65 55
0.019531 0.257812 0.087892 85 87 99
0.023438 0.257812 0.087511 145 136 163
0.027344 0.257812 0.086942 163 148 179
0.031250 0.257812 0.086126 180 166 186
0.035156 0.257812 0.084847 144 134 138
0.039062 0.257812 0.083138 170 166 156
0.042969 0.257812 0.080979 165 167 151
0.046875 0.257812 0.078256 117 124 112
0.050781 0.257812 0.075277 48 58 57
0.054688 0.257812 0.072009 54 67 76
0.058594 0.257812 0.068518 131 147 121
0.062500 0.257812 0.064880 82 99 83
0.066406 0.257812 0.060900 81 95 96
0.070312 0.257812 0.056428 75 87 107
0.074219 0.257812 0.051784 80 84 113
0.078125 0.257812 0.047183 126 125 144
0.082031 0.257812 0.042609 154 146 157
0.085938 0.257812 0.038019 180 171 174
0.089844 0.257812 0.033214 189 183 180
0.093750 0.257812 0.028652 177 177 172
0.097656 0.257812 0.024875 112 120 111
0.101562 0.257812 0.021362 89 97 90
0.105469 0.257812 0.017784 117 120 134
0.109375 0.257812 0.014242 137 138 171
0.113281 0.257812 0.010952 164 161 184
0.117188 0.257812 0.007951 208 199 215
0.121094 0.257812 0.005327 222 221 224
0.125000 0.257812 0.002974 232 231 232
0.128906 0.257812 0.000108 237 237 237
0.132812 0.257812 -0.003676 239 238 239
0.136719 0.257812 -0.007482 239 239 239
0.140625 0.257812 -0.011230 238 238 238
0.144531 0.257812 -0.015089 240 240 240
0.148438 0.257812 -0.019345 244 244 244
0.152344 0.257812 -0.024131 250 249 249
0.156250 0.257812 -0.030045 253 250 252
0.160156 0.257812 -0.037399 227 216 225
-0.183594 0.253906 -0.026231 16 16 19
-0.179688 0.253906 -0.044617 104 102 104
-0.175781 0.253906 -0.033860 106 105 105
-0.171875 0.253906 -0.024506 114 114 114
-0.167969 0.253906 -0.016556 136 136 136
-0.164062 0.253906 -0.010588 151 151 150
-0.160156 0.253906 -0.005283 150 150 149
-0.156250 0.253906 -0.000104 143 144 143
-0.152344 0.253906 0.004366 137 140 137
-0.148438 0.253906 0.008448 129 130 127
-0.144531 0.253906 0.012525 113 112 110
-0.140625 0.253906 0.016691 86 84 82
-0.136719 0.253906 0.020299 97 94 88
-0.132812 0.253906 0.021983 162 157 146
-0.128906 0.253906 0.023084 186 181 164
-0.125000 0.253906 0.024436 173 172 151
-0.121094 0.253906 0.030459 187 199 173
-0.117188 0.253906 0.042868 167 178 149
-0.113281 0.253906 0.053765 166 174 147
-0.109375 0.253906 0.060851 188 191 173
-0.105469 0.253906 0.065008 178 176 163
-0.101562 0.253906 0.067099 187 185 167
-0.097656 0.253906 0.068648 205 204 187
-0.093750 0.253906 0.070005 190 183 176
-0.089844 0.253906 0.071329 99 107 100
-0.085938 0.253906 0.073295 103 114 103
-0.082031 0.253906 0.075989 92 97 89
-0.078125 0.253906 0.078447 66 65 61
-0.074219 0.253906 0.080077 112 106 108
-0.070312 0.253906 0.081219 87 77 85
-0.066406 0.253906 0.082342 64 85 86
-0.062500 0.253906 0.083394 46 61 66
-0.058594 0.253906 0.084367 73 76 91
-0.054688 0.253906 0.085326 89 81 105
-0.050781 0.253906 0.086213 169 153 188
-0.046875 0.253906 0.086999 168 144 191
-0.042969 0.253906 0.087636 164 143 198
-0.039062 0.253906 0.088083 118 107 165
-0.035156 0.253906 0.088468 90 89 149
-0.031250 0.253906 0.088796 87 97 158
-0.027344 0.253906 0.089185 88 108 167
-0.023438 0.253906 0.089661 136 161 217
-0.019531 0.253906 0.090106 121 143 201
-0.015625 0.253906 0.090482 92 111 169
-0.011719 0.253906 0.090801 55 70 127
-0.007812 0.253906 0.091100 76 86 145
-0.003906 0.253906 0.091380 72 85 129
0.000000 0.253906 0.091657 91 106 145
0.003906 0.253906 0.091812 126 142 175
0.007812 0.253906 0.091827 122 139 165
0.011719 0.253906 0.091670 63 75 99
0.015625 0.253906 0.091421 54 56 81
0.019531 0.253906 0.091099 135 122 150
0.023438 0.253906 0.090711 199 172 203
0.027344 0.253906 0.090164 200 160 191
0.031250 0.253906 0.089375 166 119 144
0.035156 0.253906 0.088157 106 62 79
0.039062 0.253906 0.086484 162 127 138
0.042969 0.253906 0.084319 198 171 175
0.046875 0.253906 0.081559 183 165 167
0.050781 0.253906 0.078491 86 82 81
0.054688 0.253906 0.075182 52 54 53
0.058594 0.253906 0.071645 110 122 102
0.062500 0.253906 0.067870 78 89 80
0.066406 0.253906 0.063686 81 92 98
0.070312 0.253906 0.059037 72 81 108
0.074219 0.253906 0.054204 76 81 120
0.078125 0.253906 0.049316 115 113 150
0.082031 0.253906 0.044362 143 138 162
0.085938 0.253906 0.039506 170 164 172
0.089844 0.253906 0.034662 172 171 171
0.093750 0.253906 0.029940 136 143 140
0.097656 0.253906 0.025766 92 106 96
0.101562 0.253906 0.022052 83 94 82
0.105469 0.253906 0.018491 82 88 93
0.109375 0.253906 0.014876 142 141 171
0.113281 0.253906 0.011476 165 159 188
0.117188 0.253906 0.008421 210 198 220
0.121094 0.253906 0.005779 227 226 230
0.125000 0.253906 0.003399 235 234 235
0.128906 0.253906 0.000498 239 239 239
0.132812 0.253906 -0.003378 240 240 240
0.136719 0.253906 -0.007239 240 239 239
0.140625 0.253906 -0.010971 238 238 238
0.144531 0.253906 -0.014791 238 238 238
0.148438 0.253906 -0.018934 242 241 241
0.152344 0.253906 -0.023452 247 245 246
0.156250 0.253906 -0.028806 250 248 249
0.160156 0.253906 -0.037227 240 234 240
-0.183594 0.250000 -0.046688 15 15 18
-0.179688 0.250000 -0.044169 102 101 103
-0.175781 0.250000 -0.032900 108 107 107
-0.171875 0.250000 -0.023342 119 119 119
-0.167969 0.250000 -0.015455 141 141 141
-0.164062 0.250000 -0.009458 154 155 154
-0.160156 0.250000 -0.004068 153 154 153
-0.156250 0.250000 0.001258 147 148 146
-0.152344 0.250000 0.005900 141 144 140
-0.148438 0.250000 0.010138 133 134 131
-0.144531 0.250000 0.014384 118 116 114
-0.140625 0.250000 0.018628 92 89 87
-0.136719 0.250000 0.022419 99 95 88
-0.132812 0.250000 0.024540 149 142 128
-0.128906 0.250000 0.025845 153 146 130
-0.125000 0.250000 0.027915 147 146 123
-0.121094 0.250000 0.034679 177 188 160
-0.117188 0.250000 0.046262 164 173 145
-0.113281 0.250000 0.056020 169 175 150
-0.109375 0.250000 0.062825 191 192 175
-0.105469 0.250000 0.066962 180 178 166
-0.101562 0.250000 0.069096 190 190 172
-0.097656 0.250000 0.070644 219 218 202
-0.093750 0.250000 0.071907 199 193 184
-0.089844 0.250000 0.073280 89 99 93
-0.085938 0.250000 0.075407 101 111 102
-0.082031 0.250000 0.078166 101 104 97
-0.078125 0.250000 0.080676 75 70 67
-0.074219 0.250000 0.082404 115 104 108
-0.070312 0.250000 0.083649 73 60 67
-0.066406 0.250000 0.084920 78 100 87
-0.062500 0.250000 0.086123 63 76 69
-0.058594 0.250000 0.087217 79 77 82
-0.054688 0.250000 0.088270 150 131 150
-0.050781 0.250000 0.089215 151 121 152
-0.046875 0.250000 0.090052 143 107 150
-0.042969 0.250000 0.090743 123 91 141
-0.039062 0.250000 0.091243 131 113 167
-0.035156 0.250000 0.091662 85 82 137
-0.031250 0.250000 0.092020 97 110 163
-0.027344 0.250000 0.092416 89 112 161
-0.023438 0.250000 0.092875 133 159 208
-0.019531 0.250000 0.093281 109 130 180
-0.015625 0.250000 0.093638 102 114 165
-0.011719 0.250000 0.093952 83 84 138
-0.007812 0.250000 0.094221 135 130 184
-0.003906 0.250000 0.094456 162 157 179
0.000000 0.250000 0.094697 159 153 189
0.003906 0.250000 0.094851 150 147 199
0.007812 0.250000 0.094871 162 160 225
0.011719 0.250000 0.094738 113 107 177
0.015625 0.250000 0.094513 98 87 145
0.019531 0.250000 0.094208 183 158 200
0.023438 0.250000 0.093822 204 162 189
0.027344 0.250000 0.093254 217 158 182
0.031250 0.250000 0.092435 220 149 178
0.035156 0.250000 0.091235 210 139 177
0.039062 0.250000 0.089563 185 121 161
0.042969 0.250000 0.087375 175 124 159
0.046875 0.250000 0.084607 216 179 201
0.050781 0.250000 0.081497 99 82 82
0.054688 0.250000 0.078161 64 58 44
0.058594 0.250000 0.074616 82 90 75
0.062500 0.250000 0.070791 79 88 83
0.066406 0.250000 0.066462 93 101 112
0.070312 0.250000 0.061636 61 69 100
0.074219 0.250000 0.056626 46 54 98
0.078125 0.250000 0.051524 81 83 129
0.082031 0.250000 0.046303 105 104 139
0.085938 0.250000 0.041217 127 125 146
0.089844 0.250000 0.036216 130 135 144
0.093750 0.250000 0.031267 69 83 82
0.097656 0.250000 0.026752 69 85 74
0.101562 0.250000 0.022836 82 93 81
0.105469 0.250000 0.019194 55 60 56
0.109375 0.250000 0.015441 146 142 163
0.113281 0.250000 0.011921 170 158 191
0.117188 0.250000 0.008819 214 206 223
0.121094 0.250000 0.006130 231 229 234
0.125000 0.250000 0.003701 237 236 238
0.128906 0.250000 0.000784 240 239 240
0.132812 0.250000 -0.003107 241 240 240
0.136719 0.250000 -0.006955 240 240 240
0.140625 0.250000 -0.010647 238 238 238
0.144531 0.250000 -0.014426 238 238 238
0.148438 0.250000 -0.018470 241 241 241
0.152344 0.250000 -0.022809 246 244 245
0.156250 0.250000 -0.027444 250 247 249
0.160156 0.250000 -0.035433 251 247 250
-0.183594 0.246094 -0.056388 17 17 21
-0.179688 0.246094 -0.043586 106 104 107
-0.175781 0.246094 -0.032312 111 110 110
-0.171875 0.246094 -0.022379 123 123 123
-0.167969 0.246094 -0.014695 144 144 144
-0.164062 0.246094 -0.008644 156 156 156
-0.160156 0.246094 -0.003139 155 155 155
-0.156250 0.246094 0.002406 148 149 148
-0.152344 0.246094 0.007281 143 145 142
-0.148438 0.246094 0.011742 136 137 134
-0.144531 0.246094 0.016136 123 121 119
-0.140625 0.246094 0.020581 98 95 94
-0.136719 0.246094 0.024481 99 94 87
-0.132812 0.246094 0.027002 128 120 105
-0.128906 0.246094 0.028672 120 112 99
-0.125000 0.246094 0.031427 135 135 107
-0.121094 0.246094 0.038722 189 199 169
-0.117188 0.246094 0.049209 184 191 164
-0.113281 0.246094 0.057811 182 185 161
-0.109375 0.246094 0.064318 200 198 179
-0.105469 0.246094 0.068550 195 189 176
-0.101562 0.246094 0.070748 199 199 185
-0.097656 0.246094 0.072120 209 212 198
-0.093750 0.246094 0.073224 180 178 185
-0.089844 0.246094 0.074846 75 86 125
-0.085938 0.246094 0.077313 95 107 141
-0.082031 0.246094 0.080143 90 102 123
-0.078125 0.246094 0.082661 76 87 93
-0.074219 0.246094 0.084495 78 89 83
-0.070312 0.246094 0.085865 83 93 82
-0.066406 0.246094 0.087265 62 71 102
-0.062500 0.246094 0.088591 58 56 93
-0.058594 0.246094 0.089794 139 120 166
-0.054688 0.246094 0.090951 193 154 213
-0.050781 0.246094 0.091975 168 114 180
-0.046875 0.246094 0.092869 158 99 167
-0.042969 0.246094 0.093604 185 126 193
-0.039062 0.246094 0.094153 162 114 173
-0.035156 0.246094 0.094624 101 72 119
-0.031250 0.246094 0.095027 112 97 135
-0.027344 0.246094 0.095445 143 137 170
-0.023438 0.246094 0.095906 139 133 167
-0.019531 0.246094 0.096286 131 120 159
-0.015625 0.246094 0.096624 124 100 147
-0.011719 0.246094 0.096947 132 97 152
-0.007812 0.246094 0.097217 199 158 220
-0.003906 0.246094 0.097422 137 128 133
0.000000 0.246094 0.097629 141 141 143
0.003906 0.246094 0.097764 115 127 127
0.007812 0.246094 0.097791 114 140 137
0.011719 0.246094 0.097704 103 137 136
0.015625 0.246094 0.097530 47 81 82
0.019531 0.246094 0.097292 162 187 192
0.023438 0.246094 0.096948 179 186 199
0.027344 0.246094 0.096372 165 153 175
0.031250 0.246094 0.095526 111 82 109
0.035156 0.246094 0.094318 168 130 160
0.039062 0.246094 0.092629 158 118 148
0.042969 0.246094 0.090414 178 145 172
0.046875 0.246094 0.087672 190 164 189
0.050781 0.246094 0.084612 115 97 119
0.054688 0.246094 0.081317 71 62 81
0.058594 0.246094 0.077826 80 98 102
0.062500 0.246094 0.074025 100 119 126
0.066406 0.246094 0.069611 43 64 77
0.070312 0.246094 0.064621 47 73 92
0.074219 0.246094 0.059412 53 82 108
0.078125 0.246094 0.054145 47 74 108
0.082031 0.246094 0.048798 53 73 109
0.085938 0.246094 0.043487 83 99 133
0.089844 0.246094 0.038148 107 127 156
0.093750 0.246094 0.032862 84 110 135
0.097656 0.246094 0.028027 58 80 97
0.101562 0.246094 0.023832 60 76 84
0.105469 0.246094 0.019955 68 78 76
0.109375 0.246094 0.015992 121 120 123
0.113281 0.246094 0.012355 175 165 178
0.117188 0.246094 0.009190 212 206 204
0.121094 0.246094 0.006466 230 226 233
0.125000 0.246094 0.004005 238 235 238
0.128906 0.246094 0.001095 241 240 241
0.132812 0.246094 -0.002797 241 241 241
0.136719 0.246094 -0.006608 240 240 240
0.140625 0.246094 -0.010219 238 238 238
0.144531 0.246094 -0.013934 238 237 237
0.148438 0.246094 -0.017824 240 240 240
0.152344 0.246094 -0.022082 245 243 244
0.156250 0.246094 -0.026321 249 246 248
0.160156 0.246094 -0.033440 252 249 251
0.164062 0.246094 -0.044728 251 247 250
-0.183594 0.242188 -0.056600 23 23 28
-0.179688 0.242188 -0.042710 117 115 118
-0.175781 0.242188 -0.031780 118 117 117
-0.171875 0.242188 -0.021724 128 128 128
-0.167969 0.242188 -0.014268 147 147 146
-0.164062 0.242188 -0.008211 157 158 157
-0.160156 0.242188 -0.002586 155 156 155
-0.156250 0.242188 0.003224 148 150 147
-0.152344 0.242188 0.008424 143 145 142
-0.148438 0.242188 0.013154 137 138 135
-0.144531 0.242188 0.017746 125 123 122
-0.140625 0.242188 0.022362 101 99 98
-0.136719 0.242188 0.026388 92 88 82
-0.132812 0.242188 0.029167 99 91 80
-0.128906 0.242188 0.031318 98 90 78
-0.125000 0.242188 0.034645 146 144 112
-0.121094 0.242188 0.041956 208 214 186
-0.117188 0.242188 0.051382 208 212 186
-0.113281 0.242188 0.059174 197 198 171
-0.109375 0.242188 0.065295 204 202 178
-0.105469 0.242188 0.069574 203 194 177
-0.101562 0.242188 0.071957 214 209 197
-0.097656 0.242188 0.073170 198 203 192
-0.093750 0.242188 0.074109 118 125 147
-0.089844 0.242188 0.076067 74 85 124
-0.085938 0.242188 0.078938 86 99 130
-0.082031 0.242188 0.081903 109 121 137
-0.078125 0.242188 0.084489 92 102 106
-0.074219 0.242188 0.086440 64 75 67
-0.070312 0.242188 0.087919 89 100 86
-0.066406 0.242188 0.089425 48 59 79
-0.062500 0.242188 0.090857 64 64 92
-0.058594 0.242188 0.092157 147 129 167
-0.054688 0.242188 0.093401 201 164 215
-0.050781 0.242188 0.094502 201 152 209
-0.046875 0.242188 0.095459 204 146 206
-0.042969 0.242188 0.096248 205 151 208
-0.039062 0.242188 0.096859 158 115 165
-0.035156 0.242188 0.097381 153 125 165
-0.031250 0.242188 0.097828 98 83 116
-0.027344 0.242188 0.098272 146 142 169
-0.023438 0.242188 0.098743 206 201 230
-0.019531 0.242188 0.099132 180 168 203
-0.015625 0.242188 0.099478 151 129 171
-0.011719 0.242188 0.099809 159 125 177
-0.007812 0.242188 0.100094 173 133 189
-0.003906 0.242188 0.100310 172 150 195
0.000000 0.242188 0.100515 158 146 188
0.003906 0.242188 0.100660 110 112 150
0.007812 0.242188 0.100700 113 129 161
0.011719 0.242188 0.100648 123 147 177
0.015625 0.242188 0.100506 43 70 96
0.019531 0.242188 0.100313 106 126 153
0.023438 0.242188 0.100011 137 142 171
0.027344 0.242188 0.099457 128 117 148
0.031250 0.242188 0.098626 123 97 129
0.035156 0.242188 0.097437 153 119 149
0.039062 0.242188 0.095786 148 116 141
0.042969 0.242188 0.093646 176 152 171
0.046875 0.242188 0.091015 182 166 181
0.050781 0.242188 0.088058 127 121 128
0.054688 0.242188 0.084831 47 48 53
0.058594 0.242188 0.081381 57 74 81
0.062500 0.242188 0.077611 106 124 134
0.066406 0.242188 0.073170 60 79 94
0.070312 0.242188 0.068065 35 59 81
0.074219 0.242188 0.062699 45 71 100
0.078125 0.242188 0.057282 67 96 130
0.082031 0.242188 0.051788 60 88 127
0.085938 0.242188 0.046226 59 85 123
0.089844 0.242188 0.040518 97 121 157
0.093750 0.242188 0.034864 71 96 125
0.097656 0.242188 0.029672 87 109 129
0.101562 0.242188 0.025137 41 58 67
0.105469 0.242188 0.020948 62 71 73
0.109375 0.242188 0.016736 100 100 97
0.113281 0.242188 0.012957 206 197 199
0.117188 0.242188 0.009700 218 209 207
0.121094 0.242188 0.006909 233 228 236
0.125000 0.242188 0.004381 240 237 240
0.128906 0.242188 0.001454 243 241 242
0.132812 0.242188 -0.002446 243 242 242
0.136719 0.242188 -0.006223 241 240 240
0.140625 0.242188 -0.009737 238 238 238
0.144531 0.242188 -0.013331 236 236 236
0.148438 0.242188 -0.017040 238 237 237
0.152344 0.242188 -0.021181 242 240 241
0.156250 0.242188 -0.025391 247 244 246
0.160156 0.242188 -0.032415 252 249 251
0.164062 0.242188 -0.040297 252 249 252
-0.183594 0.238281 -0.055824 30 30 37
-0.179688 0.238281 -0.042095 125 124 127
-0.175781 0.238281 -0.031300 121 120 120
-0.171875 0.238281 -0.021357 130 130 130
-0.167969 0.238281 -0.014198 149 148 148
-0.164062 0.238281 -0.008150 159 159 158
-0.160156 0.238281 -0.002404 157 158 156
-0.156250 0.238281 0.003732 150 152 149
-0.152344 0.238281 0.009362 145 148 144
-0.148438 0.238281 0.014442 141 142 139
-0.144531 0.238281 0.019291 132 131 129
-0.140625 0.238281 0.023975 112 110 108
-0.136719 0.238281 0.028059 96 92 88
-0.132812 0.238281 0.031150 95 88 78
-0.128906 0.238281 0.033731 112 103 86
-0.125000 0.238281 0.037426 159 156 126
-0.121094 0.238281 0.044276 187 188 157
-0.117188 0.238281 0.052982 212 212 183
-0.113281 0.238281 0.060397 207 208 177
-0.109375 0.238281 0.066117 204 205 179
-0.105469 0.238281 0.070275 204 198 182
-0.101562 0.238281 0.072794 224 218 209
-0.097656 0.238281 0.073966 205 206 199
-0.093750 0.238281 0.074896 93 103 126
-0.089844 0.238281 0.077177 74 89 118
-0.085938 0.238281 0.080345 56 71 93
-0.082031 0.238281 0.083361 97 109 120
-0.078125 0.238281 0.086073 90 102 102
-0.074219 0.238281 0.088214 48 60 50
-0.070312 0.238281 0.089800 107 118 102
-0.066406 0.238281 0.091380 72 85 91
-0.062500 0.238281 0.092896 75 79 90
-0.058594 0.238281 0.094284 121 107 130
-0.054688 0.238281 0.095600 165 135 168
-0.050781 0.238281 0.096760 182 137 179
-0.046875 0.238281 0.097785 196 144 191
-0.042969 0.238281 0.098648 204 154 198
-0.039062 0.238281 0.099329 183 143 182
-0.035156 0.238281 0.099902 178 151 182
-0.031250 0.238281 0.100389 155 141 166
-0.027344 0.238281 0.100844 161 156 176
-0.023438 0.238281 0.101321 200 197 217
-0.019531 0.238281 0.101745 210 200 226
-0.015625 0.238281 0.102139 197 176 213
-0.011719 0.238281 0.102496 179 148 193
-0.007812 0.238281 0.102802 141 104 153
-0.003906 0.238281 0.103042 119 84 167
0.000000 0.238281 0.103259 143 117 196
0.003906 0.238281 0.103423 119 107 182
0.007812 0.238281 0.103484 104 107 176
0.011719 0.238281 0.103467 133 147 207
0.015625 0.238281 0.103335 77 96 152
0.019531 0.238281 0.103142 92 108 159
0.023438 0.238281 0.102862 110 113 163
0.027344 0.238281 0.102342 131 121 170
0.031250 0.238281 0.101534 157 137 180
0.035156 0.238281 0.100377 139 114 151
0.039062 0.238281 0.098790 131 108 137
0.042969 0.238281 0.096753 149 134 154
0.046875 0.238281 0.094238 140 137 149
0.050781 0.238281 0.091385 127 134 141
0.054688 0.238281 0.088243 57 71 74
0.058594 0.238281 0.084836 56 69 78
0.062500 0.238281 0.081168 114 128 139
0.066406 0.238281 0.076837 78 95 111
0.070312 0.238281 0.071710 39 59 83
0.074219 0.238281 0.066271 47 72 102
0.078125 0.238281 0.060762 80 108 145
0.082031 0.238281 0.055101 72 100 140
0.085938 0.238281 0.049283 53 80 120
0.089844 0.238281 0.043254 70 95 135
0.093750 0.238281 0.037240 62 85 119
0.097656 0.238281 0.031623 116 136 161
0.101562 0.238281 0.026688 66 79 95
0.105469 0.238281 0.022129 68 75 81
0.109375 0.238281 0.017667 71 72 69
0.113281 0.238281 0.013752 200 194 193
0.117188 0.238281 0.010388 219 209 211
0.121094 0.238281 0.007512 229 223 232
0.125000 0.238281 0.004918 239 236 239
0.128906 0.238281 0.001927 243 241 242
0.132812 0.238281 -0.002005 243 242 242
0.136719 0.238281 -0.005762 242 241 241
0.140625 0.238281 -0.009196 239 238 238
0.144531 0.238281 -0.012664 237 236 236
0.148438 0.238281 -0.016234 237 236 236
0.152344 0.238281 -0.020162 242 239 240
0.156250 0.238281 -0.024362 248 245 247
0.160156 0.238281 -0.030843 253 250 252
0.164062 0.238281 -0.038879 253 251 253
-0.183594 0.234375 -0.055511 42 43 52
-0.179688 0.234375 -0.041989 137 136 139
-0.175781 0.234375 -0.031184 126 125 126
-0.171875 0.234375 -0.021323 134 133 133
-0.167969 0.234375 -0.014513 151 151 151
-0.164062 0.234375 -0.008516 162 162 161
-0.160156 0.234375 -0.002680 160 161 159
-0.156250 0.234375 0.003831 153 155 152
-0.152344 0.234375 0.009977 148 151 147
-0.148438 0.234375 0.015535 144 146 142
-0.144531 0.234375 0.020709 138 137 135
-0.140625 0.234375 0.025450 123 122 119
-0.136719 0.234375 0.029511 106 101 96
-0.132812 0.234375 0.032882 108 97 83
-0.128906 0.234375 0.035899 143 136 108
-0.125000 0.234375 0.039727 172 167 142
-0.121094 0.234375 0.046038 134 130 103
-0.117188 0.234375 0.054248 208 207 178
-0.113281 0.234375 0.061381 216 218 189
-0.109375 0.234375 0.066871 214 217 193
-0.105469 0.234375 0.070868 218 218 203
-0.101562 0.234375 0.073203 224 220 211
-0.097656 0.234375 0.074358 180 182 181
-0.093750 0.234375 0.075520 89 104 120
-0.089844 0.234375 0.078077 81 95 116
-0.085938 0.234375 0.081447 55 68 84
-0.082031 0.234375 0.084625 79 92 98
-0.078125 0.234375 0.087522 86 97 93
-0.074219 0.234375 0.089816 44 54 43
-0.070312 0.234375 0.091496 114 125 108
-0.066406 0.234375 0.093150 47 65 53
-0.062500 0.234375 0.094728 65 75 67
-0.058594 0.234375 0.096187 71 65 69
-0.054688 0.234375 0.097572 186 162 178
-0.050781 0.234375 0.098789 167 128 153
-0.046875 0.234375 0.099875 205 161 191
-0.042969 0.234375 0.100810 172 130 159
-0.039062 0.234375 0.101563 202 169 191
-0.035156 0.234375 0.102188 190 167 185
-0.031250 0.234375 0.102714 156 145 156
-0.027344 0.234375 0.103193 80 77 86
-0.023438 0.234375 0.103686 55 52 63
-0.019531 0.234375 0.104136 82 71 88
-0.015625 0.234375 0.104565 136 117 143
-0.011719 0.234375 0.104953 180 150 185
-0.007812 0.234375 0.105277 151 117 155
-0.003906 0.234375 0.105531 131 90 172
0.000000 0.234375 0.105758 140 103 185
0.003906 0.234375 0.105931 124 101 179
0.007812 0.234375 0.106018 101 93 165
0.011719 0.234375 0.106051 124 129 196
0.015625 0.234375 0.105948 96 107 171
0.019531 0.234375 0.105773 95 105 167
0.023438 0.234375 0.105534 104 105 168
0.027344 0.234375 0.105068 108 99 160
0.031250 0.234375 0.104297 144 127 185
0.035156 0.234375 0.103183 116 97 148
0.039062 0.234375 0.101675 116 101 145
0.042969 0.234375 0.099748 125 119 155
0.046875 0.234375 0.097340 114 119 149
0.050781 0.234375 0.094583 131 146 173
0.054688 0.234375 0.091533 116 139 164
0.058594 0.234375 0.088190 73 81 92
0.062500 0.234375 0.084599 106 115 130
0.066406 0.234375 0.080339 84 97 116
0.070312 0.234375 0.075199 53 69 94
0.074219 0.234375 0.069707 58 77 109
0.078125 0.234375 0.064107 70 92 129
0.082031 0.234375 0.058292 60 84 124
0.085938 0.234375 0.052254 53 77 119
0.089844 0.234375 0.045945 73 95 136
0.093750 0.234375 0.039588 65 84 119
0.097656 0.234375 0.033556 72 89 117
0.101562 0.234375 0.028274 62 75 94
0.105469 0.234375 0.023423 46 53 63
0.109375 0.234375 0.018742 56 57 60
0.113281 0.234375 0.014699 159 155 156
0.117188 0.234375 0.011211 215 208 215
0.121094 0.234375 0.008222 218 210 221
0.125000 0.234375 0.005530 233 228 233
0.128906 0.234375 0.002422 240 237 239
0.132812 0.234375 -0.001555 242 240 241
0.136719 0.234375 -0.005300 242 240 241
0.140625 0.234375 -0.008640 240 239 239
0.144531 0.234375 -0.011958 237 236 236
0.148438 0.234375 -0.015362 236 235 235
0.152344 0.234375 -0.019020 239 237 238
0.156250 0.234375 -0.023154 246 243 245
0.160156 0.234375 -0.029006 252 249 251
0.164062 0.234375 -0.036725 252 249 251
-0.183594 0.230469 -0.054245 56 56 68
-0.179688 0.230469 -0.042307 149 147 151
-0.175781 0.230469 -0.031381 132 131 131
-0.171875 0.230469 -0.021646 137 137 136
-0.167969 0.230469 -0.015171 155 155 155
-0.164062 0.230469 -0.009246 167 167 166
-0.160156 0.230469 -0.003347 166 167 165
-0.156250 0.230469 0.003543 159 162 158
-0.152344 0.230469 0.010311 155 158 153
-0.148438 0.230469 0.016515 151 153 149
-0.144531 0.230469 0.022086 145 145 142
-0.140625 0.230469 0.026915 133 132 128
-0.136719 0.230469 0.030837 114 109 103
-0.132812 0.230469 0.034232 117 105 87
-0.128906 0.230469 0.037633 159 148 112
-0.125000 0.230469 0.041677 184 180 155
-0.121094 0.230469 0.047650 152 150 129
-0.117188 0.230469 0.055334 211 213 193
-0.113281 0.230469 0.062082 218 221 198
-0.109375 0.230469 0.067365 224 227 206
-0.105469 0.230469 0.071218 230 232 217
-0.101562 0.230469 0.073257 199 201 188
-0.097656 0.230469 0.074400 91 104 104
-0.093750 0.230469 0.076044 79 95 103
-0.089844 0.230469 0.078967 80 94 103
-0.085938 0.230469 0.082413 87 100 108
-0.082031 0.230469 0.085734 81 92 94
-0.078125 0.230469 0.088819 93 104 98
-0.074219 0.230469 0.091227 57 68 54
-0.070312 0.230469 0.093001 107 116 99
-0.066406 0.230469 0.094734 86 106 81
-0.062500 0.230469 0.096361 52 65 45
-0.058594 0.230469 0.097865 108 105 96
-0.054688 0.230469 0.099314 117 98 100
-0.050781 0.230469 0.100599 209 177 188
-0.046875 0.230469 0.101742 162 125 143
-0.042969 0.230469 0.102731 192 159 174
-0.039062 0.230469 0.103545 188 161 172
-0.035156 0.230469 0.104219 213 195 198
-0.031250 0.230469 0.104793 124 116 114
-0.027344 0.230469 0.105326 74 73 69
-0.023438 0.230469 0.105858 87 86 84
-0.019531 0.230469 0.106319 74 64 72
-0.015625 0.230469 0.106741 121 103 119
-0.011719 0.230469 0.107128 215 188 211
-0.007812 0.230469 0.107475 206 173 201
-0.003906 0.230469 0.107760 172 128 179
0.000000 0.230469 0.108019 128 90 140
0.003906 0.230469 0.108218 128 102 149
0.007812 0.230469 0.108319 144 132 179
0.011719 0.230469 0.108373 137 138 186
0.015625 0.230469 0.108288 81 89 138
0.019531 0.230469 0.108133 59 66 118
0.023438 0.230469 0.107920 62 64 121
0.027344 0.230469 0.107481 119 113 174
0.031250 0.230469 0.106717 151 141 204
0.035156 0.230469 0.105618 138 126 189
0.039062 0.230469 0.104154 125 117 176
0.042969 0.230469 0.102301 118 118 172
0.046875 0.230469 0.099973 107 117 167
0.050781 0.230469 0.097278 100 119 170
0.054688 0.230469 0.094318 96 125 176
0.058594 0.230469 0.091081 72 78 89
0.062500 0.230469 0.087577 89 95 109
0.066406 0.230469 0.083347 83 91 110
0.070312 0.230469 0.078182 56 68 92
0.074219 0.230469 0.072676 59 74 105
0.078125 0.230469 0.067038 60 78 114
0.082031 0.230469 0.061110 53 72 112
0.085938 0.230469 0.054903 54 73 115
0.089844 0.230469 0.048340 82 101 141
0.093750 0.230469 0.041671 77 96 129
0.097656 0.230469 0.035280 53 67 96
0.101562 0.230469 0.029693 73 84 104
0.105469 0.230469 0.024580 65 71 85
0.109375 0.230469 0.019700 55 56 61
0.113281 0.230469 0.015522 106 102 106
0.117188 0.230469 0.011939 218 208 220
0.121094 0.230469 0.008833 214 204 216
0.125000 0.230469 0.006023 231 225 230
0.128906 0.230469 0.002797 239 235 237
0.132812 0.230469 -0.001203 241 238 240
0.136719 0.230469 -0.004876 242 240 240
0.140625 0.230469 -0.008071 240 238 239
0.144531 0.230469 -0.011218 237 236 236
0.148438 0.230469 -0.014409 236 235 235
0.152344 0.230469 -0.017713 238 237 237
0.156250 0.230469 -0.021735 246 243 244
0.160156 0.230469 -0.027307 251 249 251
0.164062 0.230469 -0.035062 251 248 251
0.167969 0.230469 -0.045661 79 66 73
-0.183594 0.226562 -0.050143 69 70 84
-0.179688 0.226562 -0.042499 157 156 159
-0.175781 0.226562 -0.031718 136 135 135
-0.171875 0.226562 -0.022320 140 139 139
-0.167969 0.226562 -0.016124 158 158 158
-0.164062 0.226562 -0.010368 171 171 171
-0.160156 0.226562 -0.004678 172 173 171
-0.156250 0.226562 0.002554 167 169 166
-0.152344 0.226562 0.010008 163 166 161
-0.148438 0.226562 0.017003 158 161 156
-0.144531 0.226562 0.023128 153 154 150
-0.140625 0.226562 0.028106 143 143 138
-0.136719 0.226562 0.031997 126 122 115
-0.132812 0.226562 0.035381 126 115 99
-0.128906 0.226562 0.038998 174 159 128
-0.125000 0.226562 0.043371 188 178 153
-0.121094 0.226562 0.049118 171 167 147
-0.117188 0.226562 0.055969 196 197 178
-0.113281 0.226562 0.062002 193 193 172
-0.109375 0.226562 0.066877 211 211 191
-0.105469 0.226562 0.070538 218 221 205
-0.101562 0.226562 0.072684 144 150 138
-0.097656 0.226562 0.074362 48 63 57
-0.093750 0.226562 0.076680 55 71 70
-0.089844 0.226562 0.079838 57 71 74
-0.085938 0.226562 0.083279 88 99 101
-0.082031 0.226562 0.086705 65 75 74
-0.078125 0.226562 0.089941 89 98 92
-0.074219 0.226562 0.092471 74 81 70
-0.070312 0.226562 0.094338 99 107 94
-0.066406 0.226562 0.096135 87 111 79
-0.062500 0.226562 0.097806 65 79 54
-0.058594 0.226562 0.099358 47 50 33
-0.054688 0.226562 0.100863 67 56 50
-0.050781 0.226562 0.102208 124 99 102
-0.046875 0.226562 0.103399 185 157 162
-0.042969 0.226562 0.104430 213 186 191
-0.039062 0.226562 0.105289 217 196 198
-0.035156 0.226562 0.106004 187 174 168
-0.031250 0.226562 0.106624 109 105 94
-0.027344 0.226562 0.107207 66 67 53
-0.023438 0.226562 0.107769 75 75 63
-0.019531 0.226562 0.108244 66 59 53
-0.015625 0.226562 0.108676 88 73 76
-0.011719 0.226562 0.109081 168 144 157
-0.007812 0.226562 0.109469 209 181 196
-0.003906 0.226562 0.109804 194 150 170
0.000000 0.226562 0.110106 178 140 159
0.003906 0.226562 0.110341 187 161 179
0.007812 0.226562 0.110455 182 169 187
0.011719 0.226562 0.110506 128 126 147
0.015625 0.226562 0.110422 67 73 97
0.019531 0.226562 0.110273 57 64 93
0.023438 0.226562 0.110056 52 56 93
0.027344 0.226562 0.109606 63 62 106
0.031250 0.226562 0.108824 96 89 139
0.035156 0.226562 0.107726 100 93 146
0.039062 0.226562 0.106278 91 88 142
0.042969 0.226562 0.104449 96 103 153
0.046875 0.226562 0.102166 125 140 189
0.050781 0.226562 0.099533 106 132 178
0.054688 0.226562 0.096664 87 120 167
0.058594 0.226562 0.093541 62 64 76
0.062500 0.226562 0.090154 82 86 98
0.066406 0.226562 0.085988 92 98 114
0.070312 0.226562 0.080804 54 62 83
0.074219 0.226562 0.075266 61 71 99
0.078125 0.226562 0.069597 73 86 119
0.082031 0.226562 0.063590 72 86 121
0.085938 0.226562 0.057233 62 78 114
0.089844 0.226562 0.050452 75 89 124
0.093750 0.226562 0.043518 87 100 132
0.097656 0.226562 0.036849 82 94 120
0.101562 0.226562 0.030994 71 79 100
0.105469 0.226562 0.025603 72 75 90
0.109375 0.226562 0.020476 40 40 48
0.113281 0.226562 0.016194 91 86 96
0.117188 0.226562 0.012527 202 191 205
0.121094 0.226562 0.009317 204 192 205
0.125000 0.226562 0.006386 226 218 224
0.128906 0.226562 0.003080 236 231 233
0.132812 0.226562 -0.000901 239 235 237
0.136719 0.226562 -0.004462 240 237 238
0.140625 0.226562 -0.007466 239 236 237
0.144531 0.226562 -0.010382 237 235 235
0.148438 0.226562 -0.013277 237 235 236
0.152344 0.226562 -0.016183 241 239 240
0.156250 0.226562 -0.019987 247 245 246
0.160156 0.226562 -0.025345 252 250 252
0.164062 0.226562 -0.033317 253 251 253
0.167969 0.226562 -0.042157 195 180 186
-0.183594 0.222656 -0.041656 79 81 97
-0.179688 0.222656 -0.043006 164 163 167
-0.175781 0.222656 -0.032212 140 139 139
-0.171875 0.222656 -0.023209 143 142 142
-0.167969 0.222656 -0.017324 162 162 162
-0.164062 0.222656 -0.011835 176 176 176
-0.160156 0.222656 -0.006789 178 179 178
-0.156250 0.222656 0.000688 174 176 174
-0.152344 0.222656 0.009106 171 173 169
-0.148438 0.222656 0.016973 166 169 164
-0.144531 0.222656 0.023886 162 164 159
-0.140625 0.222656 0.029184 155 156 150
-0.136719 0.222656 0.033178 144 142 135
-0.132812 0.222656 0.036630 142 135 122
-0.128906 0.222656 0.040343 177 161 141
-0.125000 0.222656 0.044819 200 188 168
-0.121094 0.222656 0.050190 179 172 149
-0.117188 0.222656 0.056114 168 165 138
-0.113281 0.222656 0.061454 161 158 134
-0.109375 0.222656 0.066001 182 179 161
-0.105469 0.222656 0.069566 200 199 184
-0.101562 0.222656 0.072133 118 122 108
-0.097656 0.222656 0.074582 93 104 94
-0.093750 0.222656 0.077343 48 61 54
-0.089844 0.222656 0.080473 46 58 56
-0.085938 0.222656 0.083935 63 73 74
-0.082031 0.222656 0.087498 43 52 51
-0.078125 0.222656 0.090858 67 76 73
-0.074219 0.222656 0.093520 68 75 67
-0.070312 0.222656 0.095481 84 91 83
-0.066406 0.222656 0.097325 109 132 104
-0.062500 0.222656 0.099058 95 110 89
-0.058594 0.222656 0.100686 73 79 65
-0.054688 0.222656 0.102249 70 65 61
-0.050781 0.222656 0.103638 76 60 61
-0.046875 0.222656 0.104870 113 92 97
-0.042969 0.222656 0.105941 122 102 104
-0.039062 0.222656 0.106842 106 92 89
-0.035156 0.222656 0.107595 80 72 61
-0.031250 0.222656 0.108249 76 75 57
-0.027344 0.222656 0.108865 65 68 47
-0.023438 0.222656 0.109447 59 60 42
-0.019531 0.222656 0.109946 74 71 56
-0.015625 0.222656 0.110428 73 62 56
-0.011719 0.222656 0.110879 69 51 51
-0.007812 0.222656 0.111294 100 80 82
-0.003906 0.222656 0.111660 192 151 159
0.000000 0.222656 0.111994 222 187 194
0.003906 0.222656 0.112257 191 166 172
0.007812 0.222656 0.112386 134 122 126
0.011719 0.222656 0.112435 81 79 84
0.015625 0.222656 0.112344 62 67 73
0.019531 0.222656 0.112182 82 89 97
0.023438 0.222656 0.111946 81 88 98
0.027344 0.222656 0.111478 55 57 72
0.031250 0.222656 0.110669 67 66 82
0.035156 0.222656 0.109551 54 53 71
0.039062 0.222656 0.108092 52 55 72
0.042969 0.222656 0.106246 42 54 68
0.046875 0.222656 0.103981 74 94 105
0.050781 0.222656 0.101424 64 93 99
0.054688 0.222656 0.098645 38 73 77
0.058594 0.222656 0.095595 62 63 68
0.062500 0.222656 0.092300 79 79 87
0.066406 0.222656 0.088212 101 103 115
0.070312 0.222656 0.083020 56 62 79
0.074219 0.222656 0.077436 65 72 91
0.078125 0.222656 0.071751 82 92 117
0.082031 0.222656 0.065701 83 95 121
0.085938 0.222656 0.059234 73 84 112
0.089844 0.222656 0.052291 77 88 116
0.093750 0.222656 0.045158 78 88 115
0.097656 0.222656 0.038257 76 84 105
0.101562 0.222656 0.032147 38 45 63
0.105469 0.222656 0.026490 63 67 79
0.109375 0.222656 0.021033 94 92 102
0.113281 0.222656 0.016569 149 140 155
0.117188 0.222656 0.012819 205 192 207
0.121094 0.222656 0.009487 211 199 210
0.125000 0.222656 0.006438 226 218 224
0.128906 0.222656 0.003092 234 228 231
0.132812 0.222656 -0.000800 237 233 235
0.136719 0.222656 -0.004199 239 235 236
0.140625 0.222656 -0.006989 238 235 236
0.144531 0.222656 -0.009643 236 234 234
0.148438 0.222656 -0.012143 236 235 235
0.152344 0.222656 -0.014518 241 240 240
0.156250 0.222656 -0.017973 247 246 247
0.160156 0.222656 -0.023302 252 250 252
0.164062 0.222656 -0.030619 253 252 253
0.167969 0.222656 -0.040628 239 232 235
-0.183594 0.218750 -0.028240 85 87 104
-0.179688 0.218750 -0.043787 170 169 172
-0.175781 0.218750 -0.032976 145 144 144
-0.171875 0.218750 -0.024240 148 147 147
-0.167969 0.218750 -0.018472 168 167 167
-0.164062 0.218750 -0.013635 182 182 182
-0.160156 0.218750 -0.009340 185 186 185
-0.156250 0.218750 -0.002657 183 184 182
-0.152344 0.218750 0.007312 180 182 179
-0.148438 0.218750 0.016384 176 179 174
-0.144531 0.218750 0.024290 173 175 170
-0.140625 0.218750 0.030097 170 171 165
-0.136719 0.218750 0.034345 167 166 159
-0.132812 0.218750 0.037932 168 164 155
-0.128906 0.218750 0.041713 189 177 167
-0.125000 0.218750 0.046123 206 196 181
-0.121094 0.218750 0.051089 188 180 159
-0.117188 0.218750 0.056369 184 179 146
-0.113281 0.218750 0.061256 191 189 156
-0.109375 0.218750 0.065603 205 199 177
-0.105469 0.218750 0.069198 219 214 195
-0.101562 0.218750 0.072040 227 225 208
-0.097656 0.218750 0.074784 156 164 152
-0.093750 0.218750 0.077676 58 69 63
-0.089844 0.218750 0.080854 62 72 71
-0.085938 0.218750 0.084443 60 68 70
-0.082031 0.218750 0.088139 44 52 54
-0.078125 0.218750 0.091617 57 62 65
-0.074219 0.218750 0.094402 51 55 56
-0.070312 0.218750 0.096452 60 64 62
-0.066406 0.218750 0.098336 77 98 83
-0.062500 0.218750 0.100105 73 89 78
-0.058594 0.218750 0.101784 81 90 85
-0.054688 0.218750 0.103382 90 90 92
-0.050781 0.218750 0.104801 66 56 64
-0.046875 0.218750 0.106074 64 51 60
-0.042969 0.218750 0.107193 67 55 59
-0.039062 0.218750 0.108146 64 54 52
-0.035156 0.218750 0.108946 74 70 59
-0.031250 0.218750 0.109636 42 45 26
-0.027344 0.218750 0.110282 66 71 48
-0.023438 0.218750 0.110897 67 72 49
-0.019531 0.218750 0.111442 57 59 38
-0.015625 0.218750 0.111988 70 67 52
-0.011719 0.218750 0.112501 67 57 48
-0.007812 0.218750 0.112956 72 59 53
-0.003906 0.218750 0.113352 71 39 44
0.000000 0.218750 0.113713 111 82 86
0.003906 0.218750 0.113991 70 50 51
0.007812 0.218750 0.114123 63 53 51
0.011719 0.218750 0.114169 80 79 74
0.015625 0.218750 0.114066 70 75 68
