ply
    format ascii 1.0
    element vertex 90712
    property float x
    property float y
    property float z
    property uchar red
    property uchar green
    property uchar blue
    end_header
0.035156 0.789062 0.066946 205 170 151
0.039062 0.789062 0.063060 206 172 155
0.042969 0.789062 0.059958 206 174 161
0.046875 0.789062 0.056335 211 185 174
0.050781 0.789062 0.052177 215 191 178
0.054688 0.789062 0.047460 215 196 179
0.058594 0.789062 0.048179 220 200 183
0.062500 0.789062 -0.023895 161 115 105
0.066406 0.789062 -0.035718 40 22 24
0.070312 0.789062 -0.022660 19 12 12
0.074219 0.789062 -0.010383 29 18 16
0.078125 0.789062 0.002963 59 42 34
0.082031 0.789062 0.012493 72 59 53
0.085938 0.789062 0.009153 101 88 78
-0.175781 0.785156 0.072521 59 39 38
-0.171875 0.785156 0.080354 60 39 38
-0.167969 0.785156 0.080072 37 25 24
-0.164062 0.785156 0.077529 14 9 10
-0.160156 0.785156 0.076167 9 6 8
-0.156250 0.785156 0.074847 11 8 10
-0.152344 0.785156 0.074004 17 13 14
-0.148438 0.785156 0.073114 21 15 17
-0.144531 0.785156 0.071769 18 13 14
-0.140625 0.785156 0.069845 15 10 12
-0.136719 0.785156 0.067287 16 10 12
-0.132812 0.785156 0.063816 21 12 13
-0.128906 0.785156 0.059993 25 15 15
-0.125000 0.785156 0.054975 23 13 14
-0.121094 0.785156 0.050730 26 14 14
-0.117188 0.785156 0.050868 56 32 29
-0.113281 0.785156 0.057758 133 91 79
-0.109375 0.785156 0.073642 179 140 121
-0.105469 0.785156 0.086171 192 159 142
-0.101562 0.785156 0.092195 193 165 155
-0.097656 0.785156 0.096640 193 166 159
-0.093750 0.785156 0.099746 194 166 159
-0.089844 0.785156 0.101405 188 158 148
-0.085938 0.785156 0.101451 184 150 136
-0.082031 0.785156 0.100951 176 137 120
-0.078125 0.785156 0.100698 170 128 109
-0.074219 0.785156 0.100954 169 126 104
-0.070312 0.785156 0.102047 168 123 101
-0.066406 0.785156 0.103263 170 125 103
-0.062500 0.785156 0.104555 170 126 104
-0.058594 0.785156 0.106077 172 127 106
-0.054688 0.785156 0.107816 177 134 111
-0.050781 0.785156 0.109602 174 132 110
-0.046875 0.785156 0.111352 177 136 114
-0.042969 0.785156 0.112714 189 150 128
-0.039062 0.785156 0.113290 196 159 137
-0.035156 0.785156 0.113039 185 146 123
-0.031250 0.785156 0.111518 145 101 84
-0.027344 0.785156 0.109942 140 91 75
-0.023438 0.785156 0.109240 174 124 103
-0.019531 0.785156 0.107608 163 117 99
-0.015625 0.785156 0.104852 106 67 60
-0.011719 0.785156 0.103089 112 69 61
-0.007812 0.785156 0.102908 172 124 106
-0.003906 0.785156 0.102587 183 140 119
0.000000 0.785156 0.101381 180 135 117
0.003906 0.785156 0.099372 189 141 124
0.007812 0.785156 0.096680 194 152 131
0.011719 0.785156 0.094247 216 185 163
0.015625 0.785156 0.091520 221 194 176
0.019531 0.785156 0.087358 208 177 159
0.023438 0.785156 0.082080 207 173 154
0.027344 0.785156 0.076658 207 174 154
0.031250 0.785156 0.071553 205 172 152
0.035156 0.785156 0.066854 207 174 157
0.039062 0.785156 0.062839 208 178 163
0.042969 0.785156 0.059430 211 182 172
0.046875 0.785156 0.055501 215 191 182
0.050781 0.785156 0.051168 217 195 184
0.054688 0.785156 0.046640 220 203 189
0.058594 0.785156 0.044133 226 209 197
0.062500 0.785156 -0.034596 173 130 121
0.066406 0.785156 -0.034424 57 35 34
0.070312 0.785156 -0.022914 39 26 24
0.074219 0.785156 -0.011160 53 34 28
0.078125 0.785156 0.001523 66 45 38
0.082031 0.785156 0.011514 65 51 48
0.085938 0.785156 0.010063 99 84 76
-0.179688 0.781250 0.037754 53 37 40
-0.175781 0.781250 0.076442 62 41 38
-0.171875 0.781250 0.079381 56 37 34
-0.167969 0.781250 0.080195 31 20 21
-0.164062 0.781250 0.077820 14 9 10
-0.160156 0.781250 0.076522 10 7 9
-0.156250 0.781250 0.075595 14 10 11
-0.152344 0.781250 0.074738 20 14 15
-0.148438 0.781250 0.073570 21 15 16
-0.144531 0.781250 0.071933 18 12 14
-0.140625 0.781250 0.069969 20 13 16
-0.136719 0.781250 0.067483 24 14 16
-0.132812 0.781250 0.064003 25 14 15
-0.128906 0.781250 0.059858 25 14 14
-0.125000 0.781250 0.053985 21 11 12
-0.121094 0.781250 0.048579 24 12 12
-0.117188 0.781250 0.048020 56 31 28
-0.113281 0.781250 0.053870 133 91 78
-0.109375 0.781250 0.069565 177 139 119
-0.105469 0.781250 0.083262 192 159 143
-0.101562 0.781250 0.090136 195 167 157
-0.097656 0.781250 0.095211 195 169 161
-0.093750 0.781250 0.098713 194 167 160
-0.089844 0.781250 0.100746 190 161 152
-0.085938 0.781250 0.101054 188 156 143
-0.082031 0.781250 0.100724 179 143 127
-0.078125 0.781250 0.100525 172 132 113
-0.074219 0.781250 0.100742 169 127 106
-0.070312 0.781250 0.101785 169 125 103
-0.066406 0.781250 0.102945 172 127 105
-0.062500 0.781250 0.104195 173 128 106
-0.058594 0.781250 0.105747 173 128 105
-0.054688 0.781250 0.107614 176 131 108
-0.050781 0.781250 0.109558 175 131 109
-0.046875 0.781250 0.111473 180 139 116
-0.042969 0.781250 0.112903 189 149 126
-0.039062 0.781250 0.113446 193 154 130
-0.035156 0.781250 0.113228 181 141 118
-0.031250 0.781250 0.111589 140 97 80
-0.027344 0.781250 0.109499 111 68 55
-0.023438 0.781250 0.108136 114 67 53
-0.019531 0.781250 0.106057 99 58 50
-0.015625 0.781250 0.103189 56 31 30
-0.011719 0.781250 0.101261 58 31 29
-0.007812 0.781250 0.101079 126 77 66
-0.003906 0.781250 0.101024 170 123 105
0.000000 0.781250 0.099582 169 123 106
0.003906 0.781250 0.096770 130 85 77
0.007812 0.781250 0.093657 107 66 61
0.011719 0.781250 0.091695 175 125 110
0.015625 0.781250 0.090076 215 180 160
0.019531 0.781250 0.086821 207 174 152
0.023438 0.781250 0.081848 206 171 150
0.027344 0.781250 0.076502 208 175 154
0.031250 0.781250 0.071344 207 175 156
0.035156 0.781250 0.066614 210 180 164
0.039062 0.781250 0.062408 211 183 170
0.042969 0.781250 0.058592 214 190 182
0.046875 0.781250 0.054983 218 195 189
0.050781 0.781250 0.050393 218 199 187
0.054688 0.781250 0.045938 222 207 193
0.058594 0.781250 0.035006 219 200 192
0.062500 0.781250 -0.042564 150 113 113
0.066406 0.781250 -0.033473 54 37 37
0.070312 0.781250 -0.022918 44 30 28
0.074219 0.781250 -0.011393 57 38 32
0.078125 0.781250 0.000240 66 45 39
0.082031 0.781250 0.010234 64 50 45
0.085938 0.781250 0.010665 99 83 72
-0.179688 0.777344 0.055949 62 42 41
-0.175781 0.777344 0.077214 76 53 45
-0.171875 0.777344 0.079238 52 34 32
-0.167969 0.777344 0.080307 27 17 18
-0.164062 0.777344 0.077951 15 10 11
-0.160156 0.777344 0.076872 14 10 11
-0.156250 0.777344 0.076222 18 13 14
-0.152344 0.777344 0.075379 21 16 16
-0.148438 0.777344 0.073948 18 12 14
-0.144531 0.777344 0.072013 15 10 12
-0.140625 0.777344 0.069985 22 14 17
-0.136719 0.777344 0.067613 33 19 21
-0.132812 0.777344 0.064127 34 18 19
-0.128906 0.777344 0.059675 29 16 16
-0.125000 0.777344 0.053037 24 13 13
-0.121094 0.777344 0.046079 25 12 13
-0.117188 0.777344 0.044740 54 30 27
-0.113281 0.777344 0.049662 133 90 76
-0.109375 0.777344 0.065055 178 140 120
-0.105469 0.777344 0.080058 193 162 144
-0.101562 0.777344 0.087745 197 171 160
-0.097656 0.777344 0.093421 198 172 164
-0.093750 0.777344 0.097244 196 170 162
-0.089844 0.777344 0.099596 191 164 154
-0.085938 0.777344 0.100189 190 160 148
-0.082031 0.777344 0.100114 182 148 133
-0.078125 0.777344 0.100103 175 137 119
-0.074219 0.777344 0.100393 171 130 110
-0.070312 0.777344 0.101447 170 127 106
-0.066406 0.777344 0.102613 174 129 106
-0.062500 0.777344 0.103904 173 127 105
-0.058594 0.777344 0.105534 172 126 103
-0.054688 0.777344 0.107560 174 129 105
-0.050781 0.777344 0.109705 178 135 111
-0.046875 0.777344 0.111797 186 144 120
-0.042969 0.777344 0.113292 189 149 126
-0.039062 0.777344 0.113796 191 152 128
-0.035156 0.777344 0.113767 190 151 128
-0.031250 0.777344 0.112542 179 136 115
-0.027344 0.777344 0.110396 155 109 88
-0.023438 0.777344 0.108432 136 90 71
-0.019531 0.777344 0.106165 134 90 75
-0.015625 0.777344 0.103504 121 81 70
-0.011719 0.777344 0.101369 113 73 63
-0.007812 0.777344 0.100447 135 88 74
-0.003906 0.777344 0.099888 165 117 100
0.000000 0.777344 0.098590 181 138 122
0.003906 0.777344 0.095811 151 110 99
0.007812 0.777344 0.092523 113 77 70
0.011719 0.777344 0.090668 161 116 102
0.015625 0.777344 0.089303 207 169 148
0.019531 0.777344 0.086230 207 171 148
0.023438 0.777344 0.081330 205 169 146
0.027344 0.777344 0.075892 206 172 150
0.031250 0.777344 0.070589 206 174 154
0.035156 0.777344 0.065823 210 181 165
0.039062 0.777344 0.061455 211 185 174
0.042969 0.777344 0.057118 215 193 186
0.046875 0.777344 0.053719 216 196 190
0.050781 0.777344 0.048374 220 201 189
0.054688 0.777344 0.045473 221 201 189
0.058594 0.777344 0.017449 190 159 161
0.062500 0.777344 -0.044312 104 73 80
0.066406 0.777344 -0.033168 47 31 31
0.070312 0.777344 -0.022918 37 24 23
0.074219 0.777344 -0.011569 52 33 29
0.078125 0.777344 -0.001083 67 46 40
0.082031 0.777344 0.008083 66 50 46
0.085938 0.777344 0.010475 97 79 68
0.089844 0.777344 -0.008884 95 77 72
-0.179688 0.773438 0.066646 79 54 50
-0.175781 0.773438 0.078344 86 62 52
-0.171875 0.773438 0.079480 47 30 28
-0.167969 0.773438 0.079758 23 14 15
-0.164062 0.773438 0.077672 15 10 11
-0.160156 0.773438 0.077046 16 11 13
-0.156250 0.773438 0.076655 22 16 17
-0.152344 0.773438 0.075756 22 16 17
-0.148438 0.773438 0.073976 16 10 12
-0.144531 0.773438 0.071623 13 9 11
-0.140625 0.773438 0.069122 20 13 15
-0.136719 0.773438 0.066308 34 19 21
-0.132812 0.773438 0.062630 45 26 26
-0.128906 0.773438 0.058133 49 30 28
-0.125000 0.773438 0.050871 42 24 24
-0.121094 0.773438 0.042303 32 17 18
-0.117188 0.773438 0.040859 52 28 27
-0.113281 0.773438 0.045351 128 85 72
-0.109375 0.773438 0.060741 177 138 118
-0.105469 0.773438 0.076829 194 162 144
-0.101562 0.773438 0.085087 199 172 161
-0.097656 0.773438 0.091198 198 173 165
-0.093750 0.773438 0.095276 196 170 162
-0.089844 0.773438 0.097910 190 164 154
-0.085938 0.773438 0.098811 189 161 149
-0.082031 0.773438 0.099075 183 151 137
-0.078125 0.773438 0.099371 178 142 125
-0.074219 0.773438 0.099859 174 134 116
-0.070312 0.773438 0.101023 172 129 108
-0.066406 0.773438 0.102283 172 128 105
-0.062500 0.773438 0.103704 169 124 101
-0.058594 0.773438 0.105481 168 123 100
-0.054688 0.773438 0.107643 170 125 101
-0.050781 0.773438 0.109882 175 131 107
-0.046875 0.773438 0.112064 181 140 115
-0.042969 0.773438 0.113652 183 142 118
-0.039062 0.773438 0.114180 184 145 122
-0.035156 0.773438 0.114308 187 148 125
-0.031250 0.773438 0.113589 188 150 126
-0.027344 0.773438 0.111765 182 142 118
-0.023438 0.773438 0.109412 170 128 105
-0.019531 0.773438 0.106862 167 127 105
-0.015625 0.773438 0.104302 165 130 107
-0.011719 0.773438 0.102014 159 123 101
-0.007812 0.773438 0.100375 150 110 89
-0.003906 0.773438 0.099165 157 114 93
0.000000 0.773438 0.098279 191 154 130
0.003906 0.773438 0.096601 212 182 160
0.007812 0.773438 0.093881 209 177 155
0.011719 0.773438 0.091674 207 172 148
0.015625 0.773438 0.089650 210 176 152
0.019531 0.773438 0.086149 206 170 147
0.023438 0.773438 0.080941 201 164 142
0.027344 0.773438 0.075085 199 162 141
0.031250 0.773438 0.069370 203 168 149
0.035156 0.773438 0.064535 209 179 164
0.039062 0.773438 0.060174 212 186 176
0.042969 0.773438 0.055394 217 195 190
0.046875 0.773438 0.052312 214 194 191
0.050781 0.773438 0.045177 221 204 192
0.054688 0.773438 0.042700 223 203 190
0.058594 0.773438 -0.013088 169 136 136
0.062500 0.773438 -0.042063 83 55 59
0.066406 0.773438 -0.033721 53 32 30
0.070312 0.773438 -0.023120 41 27 24
0.074219 0.773438 -0.012018 52 36 31
0.078125 0.773438 -0.002503 68 50 43
0.082031 0.773438 0.005971 64 49 45
0.085938 0.773438 0.009573 92 72 63
0.089844 0.773438 -0.002741 112 89 81
-0.179688 0.769531 0.074282 84 56 53
-0.175781 0.769531 0.080221 83 58 51
-0.171875 0.769531 0.079454 40 25 24
-0.167969 0.769531 0.079088 20 12 12
-0.164062 0.769531 0.077368 14 9 10
-0.160156 0.769531 0.077100 16 11 12
-0.156250 0.769531 0.076948 22 16 17
-0.152344 0.769531 0.075960 21 15 16
-0.148438 0.769531 0.073837 13 9 11
-0.144531 0.769531 0.071113 10 6 9
-0.140625 0.769531 0.067865 10 6 9
-0.136719 0.769531 0.063970 13 7 11
-0.132812 0.769531 0.059396 26 15 19
-0.128906 0.769531 0.054420 39 25 27
-0.125000 0.769531 0.046101 37 22 24
-0.121094 0.769531 0.037492 29 16 18
-0.117188 0.769531 0.037084 50 27 26
-0.113281 0.769531 0.041213 129 85 73
-0.109375 0.769531 0.056646 180 140 119
-0.105469 0.769531 0.073406 198 164 145
-0.101562 0.769531 0.082021 202 174 162
-0.097656 0.769531 0.088464 200 174 165
-0.093750 0.769531 0.092816 196 170 161
-0.089844 0.769531 0.095743 189 163 154
-0.085938 0.769531 0.096986 188 161 149
-0.082031 0.769531 0.097625 184 154 141
-0.078125 0.769531 0.098297 180 146 130
-0.074219 0.769531 0.099099 176 138 119
-0.070312 0.769531 0.100526 172 130 110
-0.066406 0.769531 0.102040 170 126 104
-0.062500 0.769531 0.103752 168 124 102
-0.058594 0.769531 0.105769 171 127 103
-0.054688 0.769531 0.108003 172 128 104
-0.050781 0.769531 0.110204 172 129 105
-0.046875 0.769531 0.112325 175 133 109
-0.042969 0.769531 0.113936 175 134 111
-0.039062 0.769531 0.114571 177 138 115
-0.035156 0.769531 0.114874 178 140 117
-0.031250 0.769531 0.114563 176 139 117
-0.027344 0.769531 0.113146 175 137 115
-0.023438 0.769531 0.110647 175 136 114
-0.019531 0.769531 0.107775 173 137 114
-0.015625 0.769531 0.105053 176 142 119
-0.011719 0.769531 0.102657 179 145 122
-0.007812 0.769531 0.100776 167 128 105
-0.003906 0.769531 0.099198 152 112 92
0.000000 0.769531 0.098448 171 133 112
0.003906 0.769531 0.097599 209 176 156
0.007812 0.769531 0.095529 222 193 174
0.011719 0.769531 0.092946 218 186 164
0.015625 0.769531 0.090198 215 181 159
0.019531 0.769531 0.086397 212 179 157
0.023438 0.769531 0.080819 207 174 152
0.027344 0.769531 0.074360 201 166 145
0.031250 0.769531 0.068135 202 167 148
0.035156 0.769531 0.063007 209 178 163
0.039062 0.769531 0.058226 214 188 177
0.042969 0.769531 0.052863 216 195 188
0.046875 0.769531 0.049939 212 196 189
0.050781 0.769531 0.043260 214 199 188
0.054688 0.769531 0.036229 195 164 157
0.058594 0.769531 -0.042683 103 67 76
0.062500 0.769531 -0.039629 58 35 40
0.066406 0.769531 -0.034030 49 32 30
0.070312 0.769531 -0.023466 34 24 22
0.074219 0.769531 -0.012472 44 32 29
0.078125 0.769531 -0.003774 66 49 42
0.082031 0.769531 0.004084 61 47 42
0.085938 0.769531 0.007905 79 61 53
0.089844 0.769531 -0.000111 94 72 64
-0.179688 0.765625 0.078427 86 58 54
-0.175781 0.765625 0.081085 75 52 47
-0.171875 0.765625 0.078621 34 21 21
-0.167969 0.765625 0.078453 17 10 11
-0.164062 0.765625 0.077125 14 9 10
-0.160156 0.765625 0.077154 17 12 13
-0.156250 0.765625 0.077085 24 16 18
-0.152344 0.765625 0.075855 20 14 15
-0.148438 0.765625 0.073377 12 8 10
-0.144531 0.765625 0.070392 9 6 8
-0.140625 0.765625 0.066546 6 4 7
-0.136719 0.765625 0.061605 6 4 6
-0.132812 0.765625 0.055849 9 6 9
-0.128906 0.765625 0.050015 13 10 12
-0.125000 0.765625 0.041214 15 10 13
-0.121094 0.765625 0.033778 19 10 13
-0.117188 0.765625 0.033441 46 26 25
-0.113281 0.765625 0.037596 129 86 74
-0.109375 0.765625 0.053074 183 142 121
-0.105469 0.765625 0.069956 201 165 146
-0.101562 0.765625 0.078666 204 174 161
-0.097656 0.765625 0.085323 200 174 163
-0.093750 0.765625 0.089926 198 172 162
-0.089844 0.765625 0.093147 193 167 157
-0.085938 0.765625 0.094753 191 164 152
-0.082031 0.765625 0.095769 187 157 144
-0.078125 0.765625 0.096821 180 147 132
-0.074219 0.765625 0.097997 176 138 121
-0.070312 0.765625 0.099790 171 130 109
-0.066406 0.765625 0.101690 167 125 103
-0.062500 0.765625 0.103797 167 125 103
-0.058594 0.765625 0.106061 173 131 107
-0.054688 0.765625 0.108334 174 132 107
-0.050781 0.765625 0.110483 174 132 107
-0.046875 0.765625 0.112542 178 137 111
-0.042969 0.765625 0.114182 179 139 115
-0.039062 0.765625 0.114990 180 142 118
-0.035156 0.765625 0.115490 184 146 124
-0.031250 0.765625 0.115458 186 147 126
-0.027344 0.765625 0.114325 187 149 127
-0.023438 0.765625 0.111762 189 151 129
-0.019531 0.765625 0.108553 188 151 129
-0.015625 0.765625 0.105498 194 158 137
-0.011719 0.765625 0.102956 198 164 143
-0.007812 0.765625 0.101091 188 151 129
-0.003906 0.765625 0.099517 177 136 117
0.000000 0.765625 0.098630 186 146 128
0.003906 0.765625 0.097666 209 176 157
0.007812 0.765625 0.095956 219 190 172
0.011719 0.765625 0.093629 217 186 168
0.015625 0.765625 0.090741 216 185 166
0.019531 0.765625 0.086845 215 186 167
0.023438 0.765625 0.081003 211 183 163
0.027344 0.765625 0.074022 203 173 152
0.031250 0.765625 0.067056 199 167 147
0.035156 0.765625 0.061254 205 174 159
0.039062 0.765625 0.056495 211 183 171
0.042969 0.765625 0.051003 214 189 180
0.046875 0.765625 0.044758 218 198 191
0.050781 0.765625 0.043155 216 198 189
0.054688 0.765625 0.012623 152 116 119
0.058594 0.765625 -0.049836 63 38 48
0.062500 0.765625 -0.039433 70 50 51
0.066406 0.765625 -0.034211 68 57 47
0.070312 0.765625 -0.023931 40 33 28
0.074219 0.765625 -0.013231 52 38 34
0.078125 0.765625 -0.004878 68 50 44
0.082031 0.765625 0.002680 59 45 41
0.085938 0.765625 0.006835 76 58 51
0.089844 0.765625 0.001525 95 73 62
-0.183594 0.761719 0.071462 74 51 50
-0.179688 0.761719 0.080392 83 56 53
-0.175781 0.761719 0.080467 70 48 44
-0.171875 0.761719 0.078440 34 21 21
-0.167969 0.761719 0.077893 17 11 11
-0.164062 0.761719 0.076982 16 10 11
-0.160156 0.761719 0.077141 22 15 15
-0.156250 0.761719 0.076928 25 17 18
-0.152344 0.761719 0.075232 18 12 14
-0.148438 0.761719 0.072299 12 9 10
-0.144531 0.761719 0.069197 11 9 11
-0.140625 0.761719 0.065171 9 7 10
-0.136719 0.761719 0.059645 7 5 7
-0.132812 0.761719 0.053072 7 5 8
-0.128906 0.761719 0.046480 7 7 9
-0.125000 0.761719 0.038069 10 8 10
-0.121094 0.761719 0.031529 16 10 12
-0.117188 0.761719 0.030663 43 25 24
-0.113281 0.761719 0.034456 124 82 72
-0.109375 0.761719 0.049955 185 143 123
-0.105469 0.761719 0.066532 204 168 148
-0.101562 0.761719 0.075125 206 176 162
-0.097656 0.761719 0.081950 202 175 164
-0.093750 0.761719 0.086784 201 175 164
-0.089844 0.761719 0.090286 195 170 159
-0.085938 0.761719 0.092276 191 165 152
-0.082031 0.761719 0.093689 187 158 145
-0.078125 0.761719 0.095107 181 149 135
-0.074219 0.761719 0.096645 177 141 124
-0.070312 0.761719 0.098764 173 132 113
-0.066406 0.761719 0.100989 170 129 107
-0.062500 0.761719 0.103391 171 131 108
-0.058594 0.761719 0.105773 174 135 111
-0.054688 0.761719 0.107968 172 132 107
-0.050781 0.761719 0.109995 169 129 103
-0.046875 0.761719 0.111987 173 133 107
-0.042969 0.761719 0.113654 173 134 110
-0.039062 0.761719 0.114660 172 136 113
-0.035156 0.761719 0.115393 176 140 118
-0.031250 0.761719 0.115514 181 143 121
-0.027344 0.761719 0.114558 186 146 124
-0.023438 0.761719 0.112142 187 148 126
-0.019531 0.761719 0.108766 183 144 124
-0.015625 0.761719 0.105498 188 151 132
-0.011719 0.761719 0.102939 197 162 143
-0.007812 0.761719 0.101226 196 161 141
-0.003906 0.761719 0.099800 196 160 140
0.000000 0.761719 0.098867 204 169 149
0.003906 0.761719 0.097822 216 188 167
0.007812 0.761719 0.096275 220 194 176
0.011719 0.761719 0.094191 216 188 173
0.015625 0.761719 0.091266 215 187 172
0.019531 0.761719 0.087123 215 187 171
0.023438 0.761719 0.081040 214 187 170
0.027344 0.761719 0.073674 208 180 161
0.031250 0.761719 0.066060 200 169 150
0.035156 0.761719 0.059485 204 172 155
0.039062 0.761719 0.054249 209 180 166
0.042969 0.761719 0.048148 216 188 176
0.046875 0.761719 0.042192 223 200 192
0.050781 0.761719 0.038814 209 186 181
0.054688 0.761719 -0.045588 99 74 82
0.058594 0.761719 -0.047597 34 21 28
0.062500 0.761719 -0.039204 55 39 40
0.066406 0.761719 -0.033934 58 49 44
0.070312 0.761719 -0.024566 38 32 28
0.074219 0.761719 -0.014016 53 40 35
0.078125 0.761719 -0.005828 62 47 41
0.082031 0.761719 0.001484 54 41 37
0.085938 0.761719 0.006100 73 56 48
0.089844 0.761719 0.002471 95 74 62
-0.183594 0.757812 0.073608 78 55 52
-0.179688 0.757812 0.079699 81 56 53
-0.175781 0.757812 0.080280 62 42 39
-0.171875 0.757812 0.078376 31 20 20
-0.167969 0.757812 0.077471 18 11 12
-0.164062 0.757812 0.077098 19 13 13
-0.160156 0.757812 0.077117 25 17 17
-0.156250 0.757812 0.076501 22 15 16
-0.152344 0.757812 0.074377 15 10 12
-0.148438 0.757812 0.071051 11 8 10
-0.144531 0.757812 0.067694 11 9 12
-0.140625 0.757812 0.063647 10 7 11
-0.136719 0.757812 0.058134 8 6 9
-0.132812 0.757812 0.051473 7 6 9
-0.128906 0.757812 0.044767 8 8 10
-0.125000 0.757812 0.036978 11 9 12
-0.121094 0.757812 0.030120 17 12 14
-0.117188 0.757812 0.028625 40 24 23
-0.113281 0.757812 0.031433 117 75 68
-0.109375 0.757812 0.046748 187 145 125
-0.105469 0.757812 0.062987 207 170 149
-0.101562 0.757812 0.071377 209 177 163
-0.097656 0.757812 0.078297 205 176 165
-0.093750 0.757812 0.083361 202 174 164
-0.089844 0.757812 0.087187 195 169 157
-0.085938 0.757812 0.089654 191 164 151
-0.082031 0.757812 0.091544 190 161 148
-0.078125 0.757812 0.093364 188 157 143
-0.074219 0.757812 0.095224 181 146 130
-0.070312 0.757812 0.097561 174 135 115
-0.066406 0.757812 0.099972 172 132 110
-0.062500 0.757812 0.102517 176 137 113
-0.058594 0.757812 0.104859 176 137 114
-0.054688 0.757812 0.106845 168 129 105
-0.050781 0.757812 0.108634 162 122 98
-0.046875 0.757812 0.110433 167 126 103
-0.042969 0.757812 0.112066 177 136 114
-0.039062 0.757812 0.113140 183 146 124
-0.035156 0.757812 0.113859 183 146 125
-0.031250 0.757812 0.113923 179 137 117
-0.027344 0.757812 0.112990 180 134 115
-0.023438 0.757812 0.110820 182 134 116
-0.019531 0.757812 0.107657 178 129 113
-0.015625 0.757812 0.104498 181 135 120
-0.011719 0.757812 0.102112 189 145 129
-0.007812 0.757812 0.100717 195 152 135
-0.003906 0.757812 0.099635 198 155 138
0.000000 0.757812 0.098836 199 157 140
0.003906 0.757812 0.097837 210 173 156
0.007812 0.757812 0.096328 218 188 173
0.011719 0.757812 0.094276 220 195 182
0.015625 0.757812 0.091253 222 198 186
0.019531 0.757812 0.086791 220 196 183
0.023438 0.757812 0.080577 220 196 181
0.027344 0.757812 0.073196 216 191 174
0.031250 0.757812 0.065141 204 174 155
0.035156 0.757812 0.057704 201 169 152
0.039062 0.757812 0.051984 206 175 160
0.042969 0.757812 0.044155 219 192 175
0.046875 0.757812 0.040003 225 203 189
0.050781 0.757812 0.007628 181 154 151
0.054688 0.757812 -0.063315 41 30 39
0.058594 0.757812 -0.045983 10 5 9
0.062500 0.757812 -0.039983 18 10 15
0.066406 0.757812 -0.033962 29 22 25
0.070312 0.757812 -0.025366 28 23 23
0.074219 0.757812 -0.015213 42 31 29
0.078125 0.757812 -0.007255 52 39 36
0.082031 0.757812 -0.000296 53 40 36
0.085938 0.757812 0.004653 75 57 48
0.089844 0.757812 0.003138 94 74 63
-0.183594 0.753906 0.074716 98 72 63
-0.179688 0.753906 0.080140 84 58 54
-0.175781 0.753906 0.079878 51 34 33
-0.171875 0.753906 0.078212 26 16 17
-0.167969 0.753906 0.077541 18 11 13
-0.164062 0.753906 0.077316 24 16 16
-0.160156 0.753906 0.076812 27 18 19
-0.156250 0.753906 0.075660 20 14 15
-0.152344 0.753906 0.073197 13 9 11
-0.148438 0.753906 0.069562 10 8 10
-0.144531 0.753906 0.065897 11 9 12
-0.140625 0.753906 0.061704 9 8 11
-0.136719 0.753906 0.056326 9 6 10
-0.132812 0.753906 0.050008 9 7 10
-0.128906 0.753906 0.043678 9 9 11
-0.125000 0.753906 0.036632 11 9 12
-0.121094 0.753906 0.029533 16 11 13
-0.117188 0.753906 0.026682 36 22 22
-0.113281 0.753906 0.028528 113 72 66
-0.109375 0.753906 0.043508 189 147 127
-0.105469 0.753906 0.059195 209 172 150
-0.101562 0.753906 0.067348 211 178 163
-0.097656 0.753906 0.074353 209 179 168
-0.093750 0.753906 0.079639 205 177 166
-0.089844 0.753906 0.083754 198 171 160
-0.085938 0.753906 0.086691 193 166 154
-0.082031 0.753906 0.089078 194 166 153
-0.078125 0.753906 0.091291 194 164 150
-0.074219 0.753906 0.093424 186 152 135
-0.070312 0.753906 0.095905 175 138 118
-0.066406 0.753906 0.098423 174 135 112
-0.062500 0.753906 0.101012 177 137 114
-0.058594 0.753906 0.103264 174 134 111
-0.054688 0.753906 0.105057 165 125 102
-0.050781 0.753906 0.106602 152 113 90
-0.046875 0.753906 0.108096 146 104 84
-0.042969 0.753906 0.109482 154 109 91
-0.039062 0.753906 0.110393 165 118 100
-0.035156 0.753906 0.110950 161 112 96
-0.031250 0.753906 0.110928 146 94 82
-0.027344 0.753906 0.110037 141 85 76
-0.023438 0.753906 0.108169 144 85 77
-0.019531 0.753906 0.105507 148 87 79
-0.015625 0.753906 0.102636 156 95 87
-0.011719 0.753906 0.100283 163 102 93
-0.007812 0.753906 0.099090 175 115 102
-0.003906 0.753906 0.098406 188 130 116
0.000000 0.753906 0.097696 191 134 121
0.003906 0.753906 0.096466 198 147 132
0.007812 0.753906 0.094946 211 173 156
0.011719 0.753906 0.093124 222 195 178
0.015625 0.753906 0.090227 224 203 188
0.019531 0.753906 0.085647 216 193 179
0.023438 0.753906 0.079428 215 192 176
0.027344 0.753906 0.072202 215 191 175
0.031250 0.753906 0.063860 205 177 159
0.035156 0.753906 0.055794 204 172 156
0.039062 0.753906 0.049962 209 179 164
0.042969 0.753906 0.040958 224 197 179
0.046875 0.753906 0.036132 225 196 183
0.050781 0.753906 -0.045202 146 109 110
0.054688 0.753906 -0.058171 20 12 17
0.058594 0.753906 -0.047079 4 2 3
0.062500 0.753906 -0.040135 8 4 8
0.066406 0.753906 -0.034160 23 17 22
0.070312 0.753906 -0.026346 28 23 24
0.074219 0.753906 -0.016860 35 25 25
0.078125 0.753906 -0.008987 45 32 31
0.082031 0.753906 -0.002120 53 38 35
0.085938 0.753906 0.002877 74 56 48
0.089844 0.753906 0.003212 96 76 65
-0.183594 0.750000 0.076989 97 73 62
-0.179688 0.750000 0.079602 82 58 53
-0.175781 0.750000 0.080216 45 29 29
-0.171875 0.750000 0.078464 24 16 16
-0.167969 0.750000 0.077886 22 14 15
-0.164062 0.750000 0.077615 31 21 20
-0.160156 0.750000 0.076543 29 20 20
-0.156250 0.750000 0.074738 19 12 14
-0.152344 0.750000 0.071897 12 8 10
-0.148438 0.750000 0.068056 10 8 11
-0.144531 0.750000 0.064155 11 9 13
-0.140625 0.750000 0.059715 9 7 11
-0.136719 0.750000 0.054304 9 6 9
-0.132812 0.750000 0.048241 9 7 10
-0.128906 0.750000 0.042172 9 8 11
-0.125000 0.750000 0.035521 9 7 11
-0.121094 0.750000 0.028987 13 9 11
-0.117188 0.750000 0.024961 30 18 19
-0.113281 0.750000 0.025505 106 68 63
-0.109375 0.750000 0.039255 191 149 129
-0.105469 0.750000 0.054958 211 175 153
-0.101562 0.750000 0.063031 213 180 165
-0.097656 0.750000 0.070076 210 179 168
-0.093750 0.750000 0.075586 206 176 165
-0.089844 0.750000 0.080071 200 173 161
-0.085938 0.750000 0.083466 194 165 153
-0.082031 0.750000 0.086278 193 163 151
-0.078125 0.750000 0.088860 194 164 150
-0.074219 0.750000 0.091314 186 152 136
-0.070312 0.750000 0.093986 177 140 121
-0.066406 0.750000 0.096588 175 137 114
-0.062500 0.750000 0.099157 173 134 110
-0.058594 0.750000 0.101369 169 128 105
-0.054688 0.750000 0.103162 163 122 99
-0.050781 0.750000 0.104685 147 109 87
-0.046875 0.750000 0.106007 122 86 70
-0.042969 0.750000 0.107053 105 70 59
-0.039062 0.750000 0.107775 104 67 58
-0.035156 0.750000 0.108364 114 70 61
-0.031250 0.750000 0.108561 123 72 63
-0.027344 0.750000 0.108033 126 71 64
-0.023438 0.750000 0.106622 127 70 64
-0.019531 0.750000 0.104475 128 69 65
-0.015625 0.750000 0.101861 130 69 67
-0.011719 0.750000 0.099342 122 63 62
-0.007812 0.750000 0.097864 123 63 62
-0.003906 0.750000 0.096932 142 78 75
0.000000 0.750000 0.095928 151 88 83
0.003906 0.750000 0.094275 151 94 88
0.007812 0.750000 0.092394 166 116 106
0.011719 0.750000 0.090520 200 161 145
0.015625 0.750000 0.087776 220 192 176
0.019531 0.750000 0.083373 212 185 169
0.023438 0.750000 0.077302 208 181 165
0.027344 0.750000 0.070396 211 186 170
0.031250 0.750000 0.062382 205 176 161
0.035156 0.750000 0.054278 209 178 164
0.039062 0.750000 0.046785 213 184 171
0.042969 0.750000 0.036423 225 199 181
0.046875 0.750000 0.025979 219 184 171
0.050781 0.750000 -0.065243 108 69 75
0.054688 0.750000 -0.055012 12 7 10
0.058594 0.750000 -0.048150 3 1 3
0.062500 0.750000 -0.039848 6 3 7
0.066406 0.750000 -0.034153 21 16 22
0.070312 0.750000 -0.027088 30 24 26
0.074219 0.750000 -0.018437 33 24 24
0.078125 0.750000 -0.010951 41 30 28
0.082031 0.750000 -0.004232 51 36 33
0.085938 0.750000 0.000812 74 55 46
0.089844 0.750000 0.002417 97 76 66
0.093750 0.750000 -0.014479 63 46 45
-0.187500 0.746094 0.058461 87 62 61
-0.183594 0.746094 0.076344 108 83 69
-0.179688 0.746094 0.079281 82 59 54
-0.175781 0.746094 0.080606 43 29 29
-0.171875 0.746094 0.078920 27 17 18
-0.167969 0.746094 0.078505 27 18 18
-0.164062 0.746094 0.078054 34 23 23
-0.160156 0.746094 0.076361 27 18 18
-0.156250 0.746094 0.073901 16 10 12
-0.152344 0.746094 0.070709 11 7 10
-0.148438 0.746094 0.066795 11 9 11
-0.144531 0.746094 0.062698 11 10 14
-0.140625 0.746094 0.058002 9 7 11
-0.136719 0.746094 0.052515 8 6 9
-0.132812 0.746094 0.046573 8 6 10
-0.128906 0.746094 0.040661 9 8 12
-0.125000 0.746094 0.034284 9 7 10
-0.121094 0.746094 0.028041 11 7 9
-0.117188 0.746094 0.023575 26 16 17
-0.113281 0.746094 0.022543 97 63 58
-0.109375 0.746094 0.033888 188 148 129
-0.105469 0.746094 0.050389 213 178 158
-0.101562 0.746094 0.058522 214 182 168
-0.097656 0.746094 0.065627 209 176 165
-0.093750 0.746094 0.071389 204 172 161
-0.089844 0.746094 0.076279 202 172 160
-0.085938 0.746094 0.079976 195 165 152
-0.082031 0.746094 0.083027 192 162 149
-0.078125 0.746094 0.085859 193 162 149
-0.074219 0.746094 0.088602 187 152 137
-0.070312 0.746094 0.091542 179 142 124
-0.066406 0.746094 0.094324 175 137 116
-0.062500 0.746094 0.096996 168 129 106
-0.058594 0.746094 0.099322 163 123 101
-0.054688 0.746094 0.101342 164 124 101
-0.050781 0.746094 0.103128 165 126 103
-0.046875 0.746094 0.104588 159 120 99
-0.042969 0.746094 0.105574 145 107 89
-0.039062 0.746094 0.106163 140 101 85
-0.035156 0.746094 0.106700 150 106 90
-0.031250 0.746094 0.107010 164 113 97
-0.027344 0.746094 0.106636 171 115 100
-0.023438 0.746094 0.105501 172 114 101
-0.019531 0.746094 0.103841 178 117 108
-0.015625 0.746094 0.101582 177 113 109
-0.011719 0.746094 0.099098 156 92 90
-0.007812 0.746094 0.097298 141 79 78
-0.003906 0.746094 0.095922 143 83 82
0.000000 0.746094 0.094578 143 87 86
0.003906 0.746094 0.092525 137 89 88
0.007812 0.746094 0.090042 133 91 89
0.011719 0.746094 0.087667 156 116 108
0.015625 0.746094 0.084650 195 159 144
0.019531 0.746094 0.080167 201 167 151
0.023438 0.746094 0.074373 205 174 158
0.027344 0.746094 0.067923 213 186 172
0.031250 0.746094 0.060022 210 182 168
0.035156 0.746094 0.051968 213 186 172
0.039062 0.746094 0.043043 213 188 173
0.042969 0.746094 0.035072 220 194 177
0.046875 0.746094 -0.002230 203 158 149
0.050781 0.746094 -0.067457 83 48 55
0.054688 0.746094 -0.053574 19 12 15
0.058594 0.746094 -0.047317 10 6 10
0.062500 0.746094 -0.039831 13 9 15
0.066406 0.746094 -0.034151 25 19 25
0.070312 0.746094 -0.027666 31 24 26
0.074219 0.746094 -0.020073 32 24 24
0.078125 0.746094 -0.013178 39 28 26
0.082031 0.746094 -0.006644 51 35 31
0.085938 0.746094 -0.001425 76 56 46
0.089844 0.746094 0.001225 100 77 66
0.093750 0.746094 -0.012696 63 45 43
-0.187500 0.742188 0.062596 104 75 69
-0.183594 0.742188 0.075486 116 89 73
-0.179688 0.742188 0.078678 77 54 51
-0.175781 0.742188 0.079963 39 26 27
-0.171875 0.742188 0.079057 27 18 19
-0.167969 0.742188 0.079117 32 21 21
-0.164062 0.742188 0.078404 38 25 25
-0.160156 0.742188 0.076169 26 18 18
-0.156250 0.742188 0.073119 16 10 12
-0.152344 0.742188 0.069583 11 8 10
-0.148438 0.742188 0.065639 12 10 12
-0.144531 0.742188 0.061429 11 10 14
-0.140625 0.742188 0.056557 8 7 10
-0.136719 0.742188 0.051055 8 5 9
-0.132812 0.742188 0.045225 7 6 9
-0.128906 0.742188 0.039422 8 7 10
-0.125000 0.742188 0.033297 7 6 9
-0.121094 0.742188 0.027009 8 6 8
-0.117188 0.742188 0.021954 20 12 14
-0.113281 0.742188 0.019421 79 50 49
-0.109375 0.742188 0.026975 175 136 119
-0.105469 0.742188 0.044890 212 178 157
-0.101562 0.742188 0.053856 216 185 169
-0.097656 0.742188 0.061261 209 176 163
-0.093750 0.742188 0.067234 203 169 157
-0.089844 0.742188 0.072359 202 170 157
-0.085938 0.742188 0.076137 196 163 150
-0.082031 0.742188 0.079240 192 160 146
-0.078125 0.742188 0.082196 191 159 145
-0.074219 0.742188 0.085143 183 148 132
-0.070312 0.742188 0.088381 175 139 121
-0.066406 0.742188 0.091473 170 133 112
-0.062500 0.742188 0.094423 165 126 104
-0.058594 0.742188 0.097035 165 125 103
-0.054688 0.742188 0.099337 167 127 104
-0.050781 0.742188 0.101370 170 132 109
-0.046875 0.742188 0.103052 174 137 113
-0.042969 0.742188 0.104228 174 137 113
-0.039062 0.742188 0.104813 175 137 113
-0.035156 0.742188 0.105183 171 131 109
-0.031250 0.742188 0.105310 165 122 102
-0.027344 0.742188 0.104799 163 115 98
-0.023438 0.742188 0.103711 168 117 104
-0.019531 0.742188 0.102304 189 137 125
-0.015625 0.742188 0.100447 199 148 138
-0.011719 0.742188 0.098443 195 142 132
-0.007812 0.742188 0.096864 194 141 130
-0.003906 0.742188 0.095467 194 141 132
0.000000 0.742188 0.094096 190 142 135
0.003906 0.742188 0.092010 197 157 148
0.007812 0.742188 0.089151 191 155 144
0.011719 0.742188 0.085956 166 133 121
0.015625 0.742188 0.082073 161 129 115
0.019531 0.742188 0.077173 169 133 119
0.023438 0.742188 0.071440 191 156 140
0.027344 0.742188 0.065263 210 182 167
0.031250 0.742188 0.057889 214 187 174
0.035156 0.742188 0.049891 217 191 178
0.039062 0.742188 0.039446 217 194 181
0.042969 0.742188 0.034444 225 203 191
0.046875 0.742188 -0.042319 196 153 149
0.050781 0.742188 -0.063337 68 41 50
0.054688 0.742188 -0.052715 28 20 26
0.058594 0.742188 -0.046338 23 19 25
0.062500 0.742188 -0.039417 23 18 26
0.066406 0.742188 -0.033602 32 25 31
0.070312 0.742188 -0.027935 37 28 30
0.074219 0.742188 -0.021594 33 24 25
0.078125 0.742188 -0.015484 36 25 24
0.082031 0.742188 -0.009229 48 33 28
0.085938 0.742188 -0.003901 72 51 41
0.089844 0.742188 -0.000382 96 72 60
0.093750 0.742188 -0.011446 79 57 51
-0.187500 0.738281 0.063843 95 66 60
-0.183594 0.738281 0.075046 106 79 67
-0.179688 0.738281 0.077812 67 46 44
-0.175781 0.738281 0.079005 35 23 25
-0.171875 0.738281 0.079230 30 21 21
-0.167969 0.738281 0.079736 39 28 26
-0.164062 0.738281 0.078668 38 26 26
-0.160156 0.738281 0.075837 24 15 17
-0.156250 0.738281 0.072235 15 9 11
-0.152344 0.738281 0.068447 12 8 10
-0.148438 0.738281 0.064463 12 9 12
-0.144531 0.738281 0.060137 10 9 12
-0.140625 0.738281 0.055194 8 7 10
-0.136719 0.738281 0.049780 9 6 10
-0.132812 0.738281 0.044065 8 6 10
-0.128906 0.738281 0.038386 7 5 9
-0.125000 0.738281 0.032395 5 4 6
-0.121094 0.738281 0.026134 6 4 6
-0.117188 0.738281 0.020414 14 8 11
-0.113281 0.738281 0.016340 54 33 36
-0.109375 0.738281 0.019309 143 104 94
-0.105469 0.738281 0.038315 199 163 143
-0.101562 0.738281 0.049227 212 178 161
-0.097656 0.738281 0.057034 207 170 156
-0.093750 0.738281 0.063131 201 165 152
-0.089844 0.738281 0.068362 198 164 149
-0.085938 0.738281 0.072054 190 155 140
-0.082031 0.738281 0.075060 185 151 137
-0.078125 0.738281 0.078092 183 149 135
-0.074219 0.738281 0.081211 173 137 122
-0.070312 0.738281 0.084824 165 129 112
-0.066406 0.738281 0.088348 162 125 106
-0.062500 0.738281 0.091658 162 125 103
-0.058594 0.738281 0.094610 169 130 107
-0.054688 0.738281 0.097131 168 129 106
-0.050781 0.738281 0.099304 161 122 101
-0.046875 0.738281 0.101097 157 120 98
-0.042969 0.738281 0.102385 156 120 98
-0.039062 0.738281 0.103011 163 125 102
-0.035156 0.738281 0.103270 164 125 100
-0.031250 0.738281 0.103183 161 120 96
-0.027344 0.738281 0.102473 157 112 92
-0.023438 0.738281 0.101226 155 107 90
-0.019531 0.738281 0.099675 167 115 102
-0.015625 0.738281 0.097957 176 123 112
-0.011719 0.738281 0.096410 179 126 113
-0.007812 0.738281 0.095383 186 132 120
-0.003906 0.738281 0.094325 186 134 124
0.000000 0.738281 0.093146 186 141 132
0.003906 0.738281 0.091326 205 170 159
0.007812 0.738281 0.088378 216 188 175
0.011719 0.738281 0.084548 203 177 161
0.015625 0.738281 0.080013 191 163 146
0.019531 0.738281 0.074846 185 155 138
0.023438 0.738281 0.068953 193 163 146
0.027344 0.738281 0.062557 209 182 167
0.031250 0.738281 0.055171 215 189 177
0.035156 0.738281 0.046764 217 191 180
0.039062 0.738281 0.036522 218 196 187
0.042969 0.738281 0.027354 221 202 196
0.046875 0.738281 -0.064488 160 123 128
0.050781 0.738281 -0.058828 36 22 31
0.054688 0.738281 -0.052331 18 12 19
0.058594 0.738281 -0.045452 15 12 19
0.062500 0.738281 -0.038614 16 12 19
0.066406 0.738281 -0.032754 30 23 29
0.070312 0.738281 -0.027976 39 29 32
0.074219 0.738281 -0.022976 33 23 24
0.078125 0.738281 -0.018096 33 23 22
0.082031 0.738281 -0.012270 46 30 25
0.085938 0.738281 -0.006778 68 47 36
0.089844 0.738281 -0.002518 95 71 58
0.093750 0.738281 -0.010887 99 74 62
-0.187500 0.734375 0.064935 100 71 61
-0.183594 0.734375 0.073645 94 66 58
-0.179688 0.734375 0.076017 55 37 37
-0.175781 0.734375 0.077902 31 20 22
-0.171875 0.734375 0.079320 35 24 25
-0.167969 0.734375 0.080228 47 33 32
-0.164062 0.734375 0.078647 34 22 23
-0.160156 0.734375 0.075189 19 12 14
-0.156250 0.734375 0.071136 13 8 10
-0.152344 0.734375 0.067134 12 8 10
-0.148438 0.734375 0.063093 12 9 12
-0.144531 0.734375 0.058730 9 8 11
-0.140625 0.734375 0.053869 9 7 10
-0.136719 0.734375 0.048630 11 8 12
-0.132812 0.734375 0.043046 10 8 12
-0.128906 0.734375 0.037462 9 8 12
-0.125000 0.734375 0.031444 7 5 8
-0.121094 0.734375 0.025049 6 4 6
-0.117188 0.734375 0.018565 13 8 10
-0.113281 0.734375 0.012910 42 25 29
-0.109375 0.734375 0.012278 111 75 70
-0.105469 0.734375 0.029703 183 143 123
-0.101562 0.734375 0.043779 205 169 148
-0.097656 0.734375 0.052517 202 160 144
-0.093750 0.734375 0.059057 198 158 143
-0.089844 0.734375 0.064359 196 157 141
-0.085938 0.734375 0.067819 186 147 131
-0.082031 0.734375 0.070779 182 146 129
-0.078125 0.734375 0.073960 181 145 128
-0.074219 0.734375 0.077294 174 137 119
-0.070312 0.734375 0.081301 169 131 113
-0.066406 0.734375 0.085262 166 128 109
-0.062500 0.734375 0.088934 167 130 109
-0.058594 0.734375 0.092168 173 135 113
-0.054688 0.734375 0.094876 170 131 111
-0.050781 0.734375 0.097204 165 125 105
-0.046875 0.734375 0.099072 164 124 104
-0.042969 0.734375 0.100370 164 125 103
-0.039062 0.734375 0.101013 166 128 105
-0.035156 0.734375 0.101210 165 126 101
-0.031250 0.734375 0.101018 164 124 98
-0.027344 0.734375 0.100187 160 117 95
-0.023438 0.734375 0.098656 149 104 86
-0.019531 0.734375 0.096732 145 96 84
-0.015625 0.734375 0.094829 145 93 84
-0.011719 0.734375 0.093326 150 97 87
-0.007812 0.734375 0.092603 158 105 94
-0.003906 0.734375 0.091871 163 111 100
0.000000 0.734375 0.090885 169 122 112
0.003906 0.734375 0.089191 185 146 133
0.007812 0.734375 0.086329 200 170 155
0.011719 0.734375 0.082636 207 181 165
0.015625 0.734375 0.078173 213 188 172
0.019531 0.734375 0.073079 211 185 169
0.023438 0.734375 0.066881 206 178 163
0.027344 0.734375 0.059866 212 185 172
0.031250 0.734375 0.052406 215 188 178
0.035156 0.734375 0.042905 218 192 179
0.039062 0.734375 0.034799 222 202 191
0.042969 0.734375 0.005656 209 189 185
0.046875 0.734375 -0.065411 98 71 84
0.050781 0.734375 -0.057513 21 13 20
0.054688 0.734375 -0.051179 16 11 16
0.058594 0.734375 -0.044162 12 10 16
0.062500 0.734375 -0.037400 13 10 17
0.066406 0.734375 -0.031632 30 24 29
0.070312 0.734375 -0.027877 43 33 35
0.074219 0.734375 -0.024290 33 23 24
0.078125 0.734375 -0.020838 31 21 20
0.082031 0.734375 -0.015541 42 26 22
0.085938 0.734375 -0.009941 64 43 33
0.089844 0.734375 -0.005077 98 74 60
0.093750 0.734375 -0.011179 104 78 65
-0.191406 0.730469 0.052178 72 56 49
-0.187500 0.730469 0.064654 101 71 61
-0.183594 0.730469 0.070878 81 55 50
-0.179688 0.730469 0.074145 49 32 32
-0.175781 0.730469 0.076537 32 20 23
-0.171875 0.730469 0.079180 43 30 30
-0.167969 0.730469 0.080345 52 36 35
-0.164062 0.730469 0.078191 29 19 20
-0.160156 0.730469 0.074182 16 10 12
-0.156250 0.730469 0.069783 12 8 10
-0.152344 0.730469 0.065571 12 9 10
-0.148438 0.730469 0.061440 12 9 12
-0.144531 0.730469 0.057044 9 7 10
-0.140625 0.730469 0.052302 10 7 10
-0.136719 0.730469 0.047175 13 9 13
-0.132812 0.730469 0.041664 12 10 14
-0.128906 0.730469 0.036061 12 10 15
-0.125000 0.730469 0.029851 9 7 10
-0.121094 0.730469 0.023261 8 6 8
-0.117188 0.730469 0.015990 14 9 11
-0.113281 0.730469 0.009388 34 19 21
-0.109375 0.730469 0.007719 80 47 43
-0.105469 0.730469 0.017956 157 112 93
-0.101562 0.730469 0.036549 193 151 132
-0.097656 0.730469 0.047554 191 148 133
-0.093750 0.730469 0.054444 192 150 134
-0.089844 0.730469 0.059970 194 153 135
-0.085938 0.730469 0.063565 187 146 129
-0.082031 0.730469 0.066808 183 144 126
-0.078125 0.730469 0.070295 181 142 123
-0.074219 0.730469 0.073950 175 136 116
-0.070312 0.730469 0.078342 173 134 114
-0.066406 0.730469 0.082613 172 134 113
-0.062500 0.730469 0.086522 171 134 113
-0.058594 0.730469 0.089962 172 134 114
-0.054688 0.730469 0.092819 167 129 111
-0.050781 0.730469 0.095281 164 126 107
-0.046875 0.730469 0.097266 166 126 107
-0.042969 0.730469 0.098662 166 127 107
-0.039062 0.730469 0.099438 166 128 106
-0.035156 0.730469 0.099730 162 125 102
-0.031250 0.730469 0.099623 161 123 100
-0.027344 0.730469 0.098850 160 121 100
-0.023438 0.730469 0.097187 153 111 94
-0.019531 0.730469 0.095023 144 102 88
-0.015625 0.730469 0.092915 136 93 82
-0.011719 0.730469 0.091241 138 94 83
-0.007812 0.730469 0.090377 146 101 89
-0.003906 0.730469 0.089517 156 109 96
0.000000 0.730469 0.088480 168 124 108
0.003906 0.730469 0.086740 181 142 124
0.007812 0.730469 0.083862 193 161 142
0.011719 0.730469 0.080440 200 172 154
0.015625 0.730469 0.076258 208 182 165
0.019531 0.730469 0.071110 209 184 168
0.023438 0.730469 0.064221 204 177 163
0.027344 0.730469 0.056447 210 181 168
0.031250 0.730469 0.049309 212 184 172
0.035156 0.730469 0.038931 216 191 177
0.039062 0.730469 0.031938 226 208 196
0.042969 0.730469 -0.028911 204 187 184
0.046875 0.730469 -0.062204 74 62 74
0.050781 0.730469 -0.056804 18 15 20
0.054688 0.730469 -0.049729 16 13 18
0.058594 0.730469 -0.043037 12 10 16
0.062500 0.730469 -0.035919 15 12 18
0.066406 0.730469 -0.030227 38 31 35
0.070312 0.730469 -0.027442 53 42 44
0.074219 0.730469 -0.025603 35 25 27
0.078125 0.730469 -0.023598 29 20 20
0.082031 0.730469 -0.019017 40 25 21
0.085938 0.730469 -0.013172 63 41 31
0.089844 0.730469 -0.007771 103 78 62
0.093750 0.730469 -0.012156 112 84 71
-0.191406 0.726562 0.053093 105 79 67
-0.187500 0.726562 0.063629 110 76 66
-0.183594 0.726562 0.068653 72 47 44
-0.179688 0.726562 0.071938 44 28 29
-0.175781 0.726562 0.074814 36 24 26
-0.171875 0.726562 0.078715 52 36 37
-0.167969 0.726562 0.079971 49 34 33
-0.164062 0.726562 0.077183 23 15 16
-0.160156 0.726562 0.072753 14 9 11
-0.156250 0.726562 0.068113 12 9 11
-0.152344 0.726562 0.063682 11 9 11
-0.148438 0.726562 0.059442 11 8 11
-0.144531 0.726562 0.054998 9 7 10
-0.140625 0.726562 0.050262 10 8 10
-0.136719 0.726562 0.045050 15 11 14
-0.132812 0.726562 0.039408 14 11 17
-0.128906 0.726562 0.033510 12 10 15
-0.125000 0.726562 0.027005 8 6 10
-0.121094 0.726562 0.020122 7 5 8
-0.117188 0.726562 0.012611 14 8 10
-0.113281 0.726562 0.006578 32 17 17
-0.109375 0.726562 0.005161 61 33 30
-0.105469 0.726562 0.009383 122 77 67
-0.101562 0.726562 0.027103 174 129 114
-0.097656 0.726562 0.041216 182 141 125
-0.093750 0.726562 0.049318 184 143 125
-0.089844 0.726562 0.055368 188 144 125
-0.085938 0.726562 0.059465 184 140 122
-0.082031 0.726562 0.063232 183 141 122
-0.078125 0.726562 0.067170 179 138 119
-0.074219 0.726562 0.071283 175 135 115
-0.070312 0.726562 0.076045 176 137 116
-0.066406 0.726562 0.080553 176 138 117
-0.062500 0.726562 0.084640 175 138 117
-0.058594 0.726562 0.088203 172 135 116
-0.054688 0.726562 0.091171 166 129 112
-0.050781 0.726562 0.093762 164 126 109
-0.046875 0.726562 0.095846 166 128 109
-0.042969 0.726562 0.097348 168 130 109
-0.039062 0.726562 0.098287 171 134 111
-0.035156 0.726562 0.098751 175 138 114
-0.031250 0.726562 0.098835 182 146 120
-0.027344 0.726562 0.098225 188 151 127
-0.023438 0.726562 0.096710 189 151 128
-0.019531 0.726562 0.094717 187 147 125
-0.015625 0.726562 0.092671 182 140 120
-0.011719 0.726562 0.090908 181 140 119
-0.007812 0.726562 0.089778 181 139 119
-0.003906 0.726562 0.088484 179 136 116
0.000000 0.726562 0.087074 182 141 120
0.003906 0.726562 0.085084 192 154 132
0.007812 0.726562 0.081866 204 171 150
0.011719 0.726562 0.078217 207 178 159
0.015625 0.726562 0.073820 209 181 165
0.019531 0.726562 0.068389 211 183 170
0.023438 0.726562 0.061639 207 178 167
0.027344 0.726562 0.053520 212 181 170
0.031250 0.726562 0.045305 214 185 174
0.035156 0.726562 0.033470 221 197 183
0.039062 0.726562 0.024149 230 212 202
0.042969 0.726562 -0.050349 189 170 172
0.046875 0.726562 -0.058930 47 41 55
0.050781 0.726562 -0.055510 12 10 14
0.054688 0.726562 -0.048405 10 8 11
0.058594 0.726562 -0.041849 9 7 11
0.062500 0.726562 -0.034387 14 11 17
0.066406 0.726562 -0.028838 40 34 37
0.070312 0.726562 -0.026812 57 45 47
0.074219 0.726562 -0.026995 35 25 28
0.078125 0.726562 -0.026278 28 20 20
0.082031 0.726562 -0.022371 39 24 21
0.085938 0.726562 -0.016275 62 41 31
0.089844 0.726562 -0.010560 102 76 62
0.093750 0.726562 -0.013565 114 83 71
-0.195312 0.722656 0.033257 90 62 63
-0.191406 0.722656 0.053882 123 91 76
-0.187500 0.722656 0.062701 108 73 65
-0.183594 0.722656 0.066397 61 39 38
-0.179688 0.722656 0.069320 41 26 27
-0.175781 0.722656 0.073325 43 28 29
-0.171875 0.722656 0.078009 57 39 40
-0.167969 0.722656 0.078997 43 28 30
-0.164062 0.722656 0.075627 20 13 15
-0.160156 0.722656 0.070933 14 9 11
-0.156250 0.722656 0.066153 12 9 11
-0.152344 0.722656 0.061485 11 9 11
-0.148438 0.722656 0.057126 10 8 11
-0.144531 0.722656 0.052639 8 6 9
-0.140625 0.722656 0.047796 9 7 10
-0.136719 0.722656 0.042429 14 10 14
-0.132812 0.722656 0.036491 14 11 16
-0.128906 0.722656 0.030181 11 10 15
-0.125000 0.722656 0.023422 8 7 10
-0.121094 0.722656 0.015922 8 6 9
-0.117188 0.722656 0.008510 16 10 13
-0.113281 0.722656 0.004207 33 17 19
-0.109375 0.722656 0.003650 48 22 25
-0.105469 0.722656 0.006486 87 47 48
-0.101562 0.722656 0.018382 140 94 86
-0.097656 0.722656 0.032813 165 122 107
-0.093750 0.722656 0.043277 175 132 118
-0.089844 0.722656 0.050722 174 129 119
-0.085938 0.722656 0.055659 172 128 114
-0.082031 0.722656 0.060097 181 137 118
-0.078125 0.722656 0.064643 181 136 118
-0.074219 0.722656 0.069177 177 134 115
-0.070312 0.722656 0.074126 178 137 117
-0.066406 0.722656 0.078761 178 139 119
-0.062500 0.722656 0.082993 178 141 121
-0.058594 0.722656 0.086629 176 139 120
-0.054688 0.722656 0.089655 170 133 116
-0.050781 0.722656 0.092295 168 130 113
-0.046875 0.722656 0.094386 170 132 113
-0.042969 0.722656 0.095915 171 133 112
-0.039062 0.722656 0.096941 173 136 113
-0.035156 0.722656 0.097517 177 140 116
-0.031250 0.722656 0.097788 185 149 125
-0.027344 0.722656 0.097375 192 155 132
-0.023438 0.722656 0.096078 195 157 135
-0.019531 0.722656 0.094345 199 159 138
-0.015625 0.722656 0.092487 202 162 142
-0.011719 0.722656 0.090758 207 169 148
-0.007812 0.722656 0.089458 208 171 149
-0.003906 0.722656 0.087851 206 167 146
0.000000 0.722656 0.086066 204 165 144
0.003906 0.722656 0.083823 205 169 148
0.007812 0.722656 0.080328 209 176 156
0.011719 0.722656 0.076279 206 174 156
0.015625 0.722656 0.071510 203 172 157
0.019531 0.722656 0.065764 207 177 167
0.023438 0.722656 0.059000 209 177 168
0.027344 0.722656 0.050798 214 179 168
0.031250 0.722656 0.040241 212 179 169
0.035156 0.722656 0.032733 218 189 178
0.039062 0.722656 0.002900 218 191 181
0.042969 0.722656 -0.057825 146 121 125
0.046875 0.722656 -0.056365 38 33 43
0.050781 0.722656 -0.052984 13 12 17
0.054688 0.722656 -0.046725 10 8 12
0.058594 0.722656 -0.040657 10 7 12
0.062500 0.722656 -0.033105 18 14 20
0.066406 0.722656 -0.026351 46 42 43
0.070312 0.722656 -0.026007 60 50 52
0.074219 0.722656 -0.028430 34 25 29
0.078125 0.722656 -0.028743 27 19 19
0.082031 0.722656 -0.025311 39 24 21
0.085938 0.722656 -0.019145 64 42 33
0.089844 0.722656 -0.013452 101 75 63
0.093750 0.722656 -0.015251 111 79 69
-0.195312 0.718750 0.041137 83 55 54
-0.191406 0.718750 0.054073 116 84 70
-0.187500 0.718750 0.060864 99 67 60
-0.183594 0.718750 0.064556 57 35 36
-0.179688 0.718750 0.067096 46 29 30
-0.175781 0.718750 0.071896 55 37 37
-0.171875 0.718750 0.076824 60 41 41
-0.167969 0.718750 0.077502 37 24 26
-0.164062 0.718750 0.073660 18 12 14
-0.160156 0.718750 0.068712 13 9 11
-0.156250 0.718750 0.063833 11 8 11
-0.152344 0.718750 0.059017 11 9 11
-0.148438 0.718750 0.054575 10 8 11
-0.144531 0.718750 0.049891 8 6 9
-0.140625 0.718750 0.044900 9 6 9
-0.136719 0.718750 0.039438 12 9 12
-0.132812 0.718750 0.033129 11 9 13
-0.128906 0.718750 0.026406 9 8 11
