ply
    format ascii 1.0
    element vertex 69826
    property float x
    property float y
    property float z
    property uchar red
    property uchar green
    property uchar blue
    end_header
-0.109375 -0.597656 -0.051746 51 51 53
-0.105469 -0.597656 -0.045666 73 75 72
-0.101562 -0.597656 -0.037014 51 51 54
0.050781 -0.597656 -0.079845 84 76 67
0.054688 -0.597656 -0.086685 46 41 42
0.058594 -0.597656 -0.091218 36 35 38
0.062500 -0.597656 -0.092842 22 24 28
0.066406 -0.597656 -0.094698 16 18 23
0.070312 -0.597656 -0.094421 14 15 19
0.074219 -0.597656 -0.094756 11 12 16
0.078125 -0.597656 -0.094612 13 13 17
0.082031 -0.597656 -0.093512 16 15 19
0.085938 -0.597656 -0.091924 17 14 20
0.089844 -0.597656 -0.090580 19 15 21
0.093750 -0.597656 -0.089056 19 15 22
0.097656 -0.597656 -0.087345 21 17 24
0.101562 -0.597656 -0.084918 27 24 30
0.105469 -0.597656 -0.083052 37 35 40
0.109375 -0.597656 -0.080915 54 52 54
0.113281 -0.597656 -0.077882 50 48 50
0.117188 -0.597656 -0.074307 46 45 46
0.121094 -0.597656 -0.070473 67 69 70
0.125000 -0.597656 -0.057699 44 48 56
-0.191406 -0.601562 -0.023196 69 60 56
-0.187500 -0.601562 -0.033787 41 35 35
-0.183594 -0.601562 -0.040867 23 22 23
-0.179688 -0.601562 -0.046559 19 18 18
-0.175781 -0.601562 -0.051266 17 17 15
-0.171875 -0.601562 -0.055353 16 16 15
-0.167969 -0.601562 -0.058481 15 16 15
-0.164062 -0.601562 -0.061236 14 15 14
-0.160156 -0.601562 -0.063800 16 16 16
-0.156250 -0.601562 -0.066017 15 16 16
-0.152344 -0.601562 -0.067255 15 16 16
-0.148438 -0.601562 -0.067638 16 17 17
-0.144531 -0.601562 -0.067957 20 22 22
-0.140625 -0.601562 -0.068055 27 28 28
-0.136719 -0.601562 -0.067539 27 29 29
-0.132812 -0.601562 -0.066381 29 30 31
-0.128906 -0.601562 -0.065191 31 31 33
-0.125000 -0.601562 -0.063618 30 29 33
-0.121094 -0.601562 -0.061825 30 28 33
-0.117188 -0.601562 -0.058863 34 32 37
-0.113281 -0.601562 -0.056059 42 40 45
-0.109375 -0.601562 -0.051125 47 47 49
-0.105469 -0.601562 -0.043376 68 69 70
-0.101562 -0.601562 -0.022308 49 45 55
0.050781 -0.601562 -0.071181 58 51 49
0.054688 -0.601562 -0.087585 41 35 37
0.058594 -0.601562 -0.092004 28 26 29
0.062500 -0.601562 -0.093616 26 27 32
0.066406 -0.601562 -0.095041 33 37 42
0.070312 -0.601562 -0.094641 33 37 43
0.074219 -0.601562 -0.094817 24 28 34
0.078125 -0.601562 -0.094539 24 26 31
0.082031 -0.601562 -0.093411 21 20 26
0.085938 -0.601562 -0.091783 15 14 19
0.089844 -0.601562 -0.090355 17 13 19
0.093750 -0.601562 -0.088819 19 15 21
0.097656 -0.601562 -0.087155 21 18 24
0.101562 -0.601562 -0.084794 29 25 31
0.105469 -0.601562 -0.082879 34 32 37
0.109375 -0.601562 -0.080838 41 40 43
0.113281 -0.601562 -0.077802 38 38 42
0.117188 -0.601562 -0.074246 39 41 44
0.121094 -0.601562 -0.068858 75 76 77
0.125000 -0.601562 -0.057051 106 105 102
-0.191406 -0.605469 -0.022694 78 70 64
-0.187500 -0.605469 -0.033642 44 38 38
-0.183594 -0.605469 -0.040873 25 23 25
-0.179688 -0.605469 -0.046570 20 19 19
-0.175781 -0.605469 -0.051322 18 18 16
-0.171875 -0.605469 -0.055424 17 17 16
-0.167969 -0.605469 -0.058565 16 17 16
-0.164062 -0.605469 -0.061359 14 15 15
-0.160156 -0.605469 -0.063952 15 16 16
-0.156250 -0.605469 -0.066198 14 15 16
-0.152344 -0.605469 -0.067430 14 15 16
-0.148438 -0.605469 -0.067785 15 16 17
-0.144531 -0.605469 -0.068101 18 20 20
-0.140625 -0.605469 -0.068186 25 26 26
-0.136719 -0.605469 -0.067631 25 26 27
-0.132812 -0.605469 -0.066388 28 29 30
-0.128906 -0.605469 -0.065139 29 30 32
-0.125000 -0.605469 -0.063475 27 27 31
-0.121094 -0.605469 -0.061761 26 25 30
-0.117188 -0.605469 -0.058534 31 29 34
-0.113281 -0.605469 -0.055426 41 39 44
-0.109375 -0.605469 -0.050325 56 56 56
-0.105469 -0.605469 -0.041319 84 85 84
0.050781 -0.605469 -0.028080 87 73 67
0.054688 -0.605469 -0.089229 69 54 52
0.058594 -0.605469 -0.092599 25 21 23
0.062500 -0.605469 -0.094474 17 16 20
0.066406 -0.605469 -0.095501 22 22 27
0.070312 -0.605469 -0.095025 33 34 39
0.074219 -0.605469 -0.095010 38 41 44
0.078125 -0.605469 -0.094440 43 46 48
0.082031 -0.605469 -0.093348 37 40 43
0.085938 -0.605469 -0.091705 21 22 27
0.089844 -0.605469 -0.090154 16 15 21
0.093750 -0.605469 -0.088558 14 13 20
0.097656 -0.605469 -0.086827 13 14 19
0.101562 -0.605469 -0.084507 18 19 25
0.105469 -0.605469 -0.082701 25 26 32
0.109375 -0.605469 -0.080201 38 40 44
0.113281 -0.605469 -0.078055 59 59 62
0.117188 -0.605469 -0.073368 92 88 88
0.121094 -0.605469 -0.067795 92 90 90
-0.191406 -0.609375 -0.022514 70 60 58
-0.187500 -0.609375 -0.033677 45 37 38
-0.183594 -0.609375 -0.040965 27 24 26
-0.179688 -0.609375 -0.046636 20 19 19
-0.175781 -0.609375 -0.051410 18 18 17
-0.171875 -0.609375 -0.055496 17 18 17
-0.167969 -0.609375 -0.058632 16 17 17
-0.164062 -0.609375 -0.061456 15 17 16
-0.160156 -0.609375 -0.064077 16 18 18
-0.156250 -0.609375 -0.066342 16 18 18
-0.152344 -0.609375 -0.067575 16 17 18
-0.148438 -0.609375 -0.067906 15 16 17
-0.144531 -0.609375 -0.068223 18 19 20
-0.140625 -0.609375 -0.068304 23 24 24
-0.136719 -0.609375 -0.067716 23 24 25
-0.132812 -0.609375 -0.066402 27 27 29
-0.128906 -0.609375 -0.065117 28 29 31
-0.125000 -0.609375 -0.063373 26 27 30
-0.121094 -0.609375 -0.061677 25 25 29
-0.117188 -0.609375 -0.058263 28 27 31
-0.113281 -0.609375 -0.055024 39 36 40
-0.109375 -0.609375 -0.049596 65 63 63
-0.105469 -0.609375 -0.034746 65 67 70
0.050781 -0.609375 -0.059215 163 139 116
0.054688 -0.609375 -0.091818 143 106 91
0.058594 -0.609375 -0.093306 51 36 35
0.062500 -0.609375 -0.095586 19 16 18
0.066406 -0.609375 -0.096017 10 9 13
0.070312 -0.609375 -0.095490 14 13 17
0.074219 -0.609375 -0.095339 22 22 25
0.078125 -0.609375 -0.094472 32 32 35
0.082031 -0.609375 -0.093226 47 49 52
0.085938 -0.609375 -0.091459 46 49 54
0.089844 -0.609375 -0.089768 36 37 45
0.093750 -0.609375 -0.088063 34 35 44
0.097656 -0.609375 -0.086218 39 42 51
0.101562 -0.609375 -0.084164 53 57 63
0.105469 -0.609375 -0.082474 67 70 73
0.109375 -0.609375 -0.079865 76 79 80
0.113281 -0.609375 -0.078148 91 88 86
0.117188 -0.609375 -0.072271 118 109 100
0.121094 -0.609375 -0.067022 109 103 96
-0.191406 -0.613281 -0.022602 57 50 51
-0.187500 -0.613281 -0.033879 41 35 37
-0.183594 -0.613281 -0.041159 27 25 26
-0.179688 -0.613281 -0.046757 20 19 19
-0.175781 -0.613281 -0.051552 18 18 17
-0.171875 -0.613281 -0.055623 17 17 16
-0.167969 -0.613281 -0.058735 16 17 16
-0.164062 -0.613281 -0.061576 16 18 17
-0.160156 -0.613281 -0.064198 17 19 19
-0.156250 -0.613281 -0.066447 16 18 19
-0.152344 -0.613281 -0.067688 16 18 19
-0.148438 -0.613281 -0.068008 16 18 19
-0.144531 -0.613281 -0.068321 20 21 22
-0.140625 -0.613281 -0.068388 25 27 27
-0.136719 -0.613281 -0.067762 27 28 29
-0.132812 -0.613281 -0.066366 31 31 32
-0.128906 -0.613281 -0.065037 31 32 34
-0.125000 -0.613281 -0.063228 29 30 33
-0.121094 -0.613281 -0.061522 26 26 30
-0.117188 -0.613281 -0.058156 25 25 28
-0.113281 -0.613281 -0.054719 32 31 34
-0.109375 -0.613281 -0.048968 71 67 66
-0.105469 -0.613281 -0.024486 65 63 68
0.050781 -0.613281 -0.087909 160 123 100
0.054688 -0.613281 -0.091288 168 119 94
0.058594 -0.613281 -0.095505 109 70 57
0.062500 -0.613281 -0.096551 58 39 36
0.066406 -0.613281 -0.096409 20 14 17
0.070312 -0.613281 -0.095877 14 10 14
0.074219 -0.613281 -0.095592 14 11 15
0.078125 -0.613281 -0.094634 15 13 17
0.082031 -0.613281 -0.093128 28 25 31
0.085938 -0.613281 -0.091105 38 36 41
0.089844 -0.613281 -0.089374 26 25 31
0.093750 -0.613281 -0.087548 27 26 33
0.097656 -0.613281 -0.085633 46 48 55
0.101562 -0.613281 -0.083784 68 70 72
0.105469 -0.613281 -0.081852 79 78 77
0.109375 -0.613281 -0.080029 83 80 79
0.113281 -0.613281 -0.076438 75 71 67
0.117188 -0.613281 -0.070866 55 54 50
0.121094 -0.613281 -0.071020 51 52 53
-0.191406 -0.617188 -0.022888 63 57 55
-0.187500 -0.617188 -0.034186 43 37 38
-0.183594 -0.617188 -0.041430 28 26 27
-0.179688 -0.617188 -0.046921 20 19 19
-0.175781 -0.617188 -0.051690 17 17 16
-0.171875 -0.617188 -0.055721 15 16 15
-0.167969 -0.617188 -0.058811 14 15 15
-0.164062 -0.617188 -0.061658 14 16 16
-0.160156 -0.617188 -0.064272 16 18 18
-0.156250 -0.617188 -0.066512 16 17 18
-0.152344 -0.617188 -0.067762 16 17 18
-0.148438 -0.617188 -0.068069 17 18 19
-0.144531 -0.617188 -0.068381 22 24 25
-0.140625 -0.617188 -0.068441 29 31 31
-0.136719 -0.617188 -0.067787 32 33 33
-0.132812 -0.617188 -0.066332 34 34 35
-0.128906 -0.617188 -0.064946 33 33 35
-0.125000 -0.617188 -0.063041 33 33 36
-0.121094 -0.617188 -0.061306 30 31 34
-0.117188 -0.617188 -0.058019 31 32 34
-0.113281 -0.617188 -0.054408 38 39 40
-0.109375 -0.617188 -0.048064 84 82 77
-0.105469 -0.617188 -0.014010 97 92 91
0.046875 -0.617188 -0.090296 137 67 49
0.050781 -0.617188 -0.087967 129 87 65
0.054688 -0.617188 -0.094563 157 97 72
0.058594 -0.617188 -0.096589 133 77 58
0.062500 -0.617188 -0.097354 106 62 51
0.066406 -0.617188 -0.097224 43 26 26
0.070312 -0.617188 -0.096433 20 13 15
0.074219 -0.617188 -0.095812 14 9 12
0.078125 -0.617188 -0.094752 12 9 12
0.082031 -0.617188 -0.093153 21 17 21
0.085938 -0.617188 -0.090859 27 21 24
0.089844 -0.617188 -0.088987 14 11 15
0.093750 -0.617188 -0.086868 13 11 15
0.097656 -0.617188 -0.084649 22 21 26
0.101562 -0.617188 -0.082350 31 31 36
0.105469 -0.617188 -0.080070 44 42 45
0.109375 -0.617188 -0.076603 60 55 54
0.113281 -0.617188 -0.072832 63 57 53
0.117188 -0.617188 -0.069266 52 50 49
-0.191406 -0.621094 -0.023325 64 58 56
-0.187500 -0.621094 -0.034514 46 40 40
-0.183594 -0.621094 -0.041709 31 27 28
-0.179688 -0.621094 -0.047093 21 20 20
-0.175781 -0.621094 -0.051769 18 18 17
-0.171875 -0.621094 -0.055719 15 16 15
-0.167969 -0.621094 -0.058800 14 15 15
-0.164062 -0.621094 -0.061667 14 16 15
-0.160156 -0.621094 -0.064273 16 18 18
-0.156250 -0.621094 -0.066516 16 18 18
-0.152344 -0.621094 -0.067779 16 17 17
-0.148438 -0.621094 -0.068070 18 19 20
-0.144531 -0.621094 -0.068379 24 25 26
-0.140625 -0.621094 -0.068427 29 31 31
-0.136719 -0.621094 -0.067752 32 33 33
-0.132812 -0.621094 -0.066255 30 31 32
-0.128906 -0.621094 -0.064845 28 29 30
-0.125000 -0.621094 -0.062876 32 32 34
-0.121094 -0.621094 -0.061063 31 32 34
-0.117188 -0.621094 -0.057868 37 39 40
-0.113281 -0.621094 -0.054359 46 50 49
-0.109375 -0.621094 -0.047345 76 80 75
0.042969 -0.621094 -0.087183 120 58 51
0.046875 -0.621094 -0.088177 43 26 21
0.050781 -0.621094 -0.093565 134 86 64
0.054688 -0.621094 -0.096078 159 91 65
0.058594 -0.621094 -0.097735 149 81 57
0.062500 -0.621094 -0.098507 139 80 59
0.066406 -0.621094 -0.098165 98 56 46
0.070312 -0.621094 -0.097166 60 35 32
0.074219 -0.621094 -0.096096 36 22 23
0.078125 -0.621094 -0.094784 26 16 19
0.082031 -0.621094 -0.093119 28 18 22
0.085938 -0.621094 -0.090689 25 16 20
0.089844 -0.621094 -0.088680 15 9 14
0.093750 -0.621094 -0.086393 19 13 18
0.097656 -0.621094 -0.084028 33 25 31
0.101562 -0.621094 -0.081336 56 44 50
0.105469 -0.621094 -0.079313 82 65 68
0.109375 -0.621094 -0.073384 56 43 44
0.113281 -0.621094 -0.050985 22 18 21
-0.191406 -0.625000 -0.023804 57 50 51
-0.187500 -0.625000 -0.034891 45 40 40
-0.183594 -0.625000 -0.042022 28 26 27
-0.179688 -0.625000 -0.047242 20 19 20
-0.175781 -0.625000 -0.051815 19 18 18
-0.171875 -0.625000 -0.055689 16 17 16
-0.167969 -0.625000 -0.058742 16 17 16
-0.164062 -0.625000 -0.061604 15 17 16
-0.160156 -0.625000 -0.064190 16 18 18
-0.156250 -0.625000 -0.066422 16 17 17
-0.152344 -0.625000 -0.067696 15 16 17
-0.148438 -0.625000 -0.067992 19 20 21
-0.144531 -0.625000 -0.068319 25 26 27
-0.140625 -0.625000 -0.068369 30 31 32
-0.136719 -0.625000 -0.067686 34 35 35
-0.132812 -0.625000 -0.066149 31 32 33
-0.128906 -0.625000 -0.064697 30 31 32
-0.125000 -0.625000 -0.062701 34 34 36
-0.121094 -0.625000 -0.060844 29 30 33
-0.117188 -0.625000 -0.057637 37 40 40
-0.113281 -0.625000 -0.054239 53 57 56
-0.109375 -0.625000 -0.047181 75 79 75
0.042969 -0.625000 -0.088630 97 54 45
0.046875 -0.625000 -0.093652 93 49 36
0.050781 -0.625000 -0.096990 160 102 74
0.054688 -0.625000 -0.097706 164 95 69
0.058594 -0.625000 -0.099788 157 87 63
0.062500 -0.625000 -0.100304 154 89 66
0.066406 -0.625000 -0.099336 141 83 63
0.070312 -0.625000 -0.097939 125 74 58
0.074219 -0.625000 -0.096549 99 57 47
0.078125 -0.625000 -0.094963 73 41 36
0.082031 -0.625000 -0.093079 59 32 32
0.085938 -0.625000 -0.090463 46 25 27
0.089844 -0.625000 -0.088359 34 18 21
0.093750 -0.625000 -0.085964 44 25 27
0.097656 -0.625000 -0.083379 75 45 47
0.101562 -0.625000 -0.080096 137 96 91
0.105469 -0.625000 -0.078269 149 111 103
0.109375 -0.625000 -0.069719 50 33 35
-0.191406 -0.628906 -0.024324 63 57 55
-0.187500 -0.628906 -0.035256 51 45 45
-0.183594 -0.628906 -0.042266 30 27 29
-0.179688 -0.628906 -0.047303 21 20 21
-0.175781 -0.628906 -0.051798 19 19 18
-0.171875 -0.628906 -0.055591 16 16 16
-0.167969 -0.628906 -0.058588 16 17 17
-0.164062 -0.628906 -0.061422 15 17 17
-0.160156 -0.628906 -0.063990 16 18 18
-0.156250 -0.628906 -0.066207 16 18 18
-0.152344 -0.628906 -0.067483 15 17 17
-0.148438 -0.628906 -0.067795 18 20 21
-0.144531 -0.628906 -0.068141 21 22 24
-0.140625 -0.628906 -0.068194 24 25 26
-0.136719 -0.628906 -0.067499 30 30 32
-0.132812 -0.628906 -0.065940 30 30 32
-0.128906 -0.628906 -0.064445 33 33 35
-0.125000 -0.628906 -0.062491 37 37 39
-0.121094 -0.628906 -0.060652 27 27 31
-0.117188 -0.628906 -0.057315 34 36 38
-0.113281 -0.628906 -0.054002 56 59 59
-0.109375 -0.628906 -0.046918 77 78 74
0.039062 -0.628906 -0.086976 195 134 99
0.042969 -0.628906 -0.092235 116 77 58
0.046875 -0.628906 -0.096327 137 67 49
0.050781 -0.628906 -0.098977 195 134 99
0.054688 -0.628906 -0.100582 167 97 74
0.058594 -0.628906 -0.101488 151 80 64
0.062500 -0.628906 -0.101709 148 81 63
0.066406 -0.628906 -0.100716 140 77 58
0.070312 -0.628906 -0.099046 137 77 57
0.074219 -0.628906 -0.097372 125 70 51
0.078125 -0.628906 -0.095568 114 62 46
0.082031 -0.628906 -0.093482 111 61 46
0.085938 -0.628906 -0.090613 115 62 48
0.089844 -0.628906 -0.088393 111 59 47
0.093750 -0.628906 -0.085810 115 64 51
0.097656 -0.628906 -0.082817 132 75 62
0.101562 -0.628906 -0.078852 186 131 111
0.105469 -0.628906 -0.075545 165 119 103
0.109375 -0.628906 -0.070856 47 29 31
-0.191406 -0.632812 -0.024746 64 58 56
-0.187500 -0.632812 -0.035516 52 45 45
-0.183594 -0.632812 -0.042425 29 26 28
-0.179688 -0.632812 -0.047320 22 21 21
-0.175781 -0.632812 -0.051682 19 19 18
-0.171875 -0.632812 -0.055383 16 16 16
-0.167969 -0.632812 -0.058328 16 17 17
-0.164062 -0.632812 -0.061135 15 16 16
-0.160156 -0.632812 -0.063682 15 17 17
-0.156250 -0.632812 -0.065884 15 17 18
-0.152344 -0.632812 -0.067181 14 16 17
-0.148438 -0.632812 -0.067514 17 18 20
-0.144531 -0.632812 -0.067880 17 19 20
-0.140625 -0.632812 -0.067947 20 21 23
-0.136719 -0.632812 -0.067266 27 28 29
-0.132812 -0.632812 -0.065700 28 28 30
-0.128906 -0.632812 -0.064222 31 31 33
-0.125000 -0.632812 -0.062349 33 32 35
-0.121094 -0.632812 -0.060446 22 23 26
-0.117188 -0.632812 -0.057077 33 35 38
-0.113281 -0.632812 -0.053873 57 60 60
-0.109375 -0.632812 -0.046946 65 65 63
0.039062 -0.632812 -0.086067 32 17 19
0.042969 -0.632812 -0.095862 120 58 51
0.046875 -0.632812 -0.098605 144 74 60
0.050781 -0.632812 -0.101358 195 128 100
0.054688 -0.632812 -0.102505 162 92 72
0.058594 -0.632812 -0.102880 147 78 63
0.062500 -0.632812 -0.102811 146 79 62
0.066406 -0.632812 -0.101982 142 76 59
0.070312 -0.632812 -0.100194 140 75 58
0.074219 -0.632812 -0.098329 128 67 52
0.078125 -0.632812 -0.096377 124 66 50
0.082031 -0.632812 -0.094155 122 66 51
0.085938 -0.632812 -0.091118 129 71 54
0.089844 -0.632812 -0.088906 148 84 63
0.093750 -0.632812 -0.086334 161 96 72
0.097656 -0.632812 -0.083098 159 94 72
0.101562 -0.632812 -0.079163 203 148 120
0.105469 -0.632812 -0.075543 169 118 100
0.109375 -0.632812 -0.071280 37 21 23
-0.191406 -0.636719 -0.025121 113 79 70
-0.187500 -0.636719 -0.035725 56 48 48
-0.183594 -0.636719 -0.042513 29 27 29
-0.179688 -0.636719 -0.047277 21 20 21
-0.175781 -0.636719 -0.051488 19 18 18
-0.171875 -0.636719 -0.055106 16 16 16
-0.167969 -0.636719 -0.058002 16 17 17
-0.164062 -0.636719 -0.060767 15 16 17
-0.160156 -0.636719 -0.063258 15 17 18
-0.156250 -0.636719 -0.065421 15 17 18
-0.152344 -0.636719 -0.066720 15 17 18
-0.148438 -0.636719 -0.067063 18 20 21
-0.144531 -0.636719 -0.067467 18 20 22
-0.140625 -0.636719 -0.067556 23 24 26
-0.136719 -0.636719 -0.066890 30 31 32
-0.132812 -0.636719 -0.065332 30 31 33
-0.128906 -0.636719 -0.063875 31 32 34
-0.125000 -0.636719 -0.062026 29 30 33
-0.121094 -0.636719 -0.060136 22 22 26
-0.117188 -0.636719 -0.056849 40 41 44
-0.113281 -0.636719 -0.053097 64 66 64
-0.109375 -0.636719 -0.046099 61 61 59
0.039062 -0.636719 -0.089941 34 17 19
0.042969 -0.636719 -0.097635 97 54 45
0.046875 -0.636719 -0.100719 155 93 72
0.050781 -0.636719 -0.103696 176 106 84
0.054688 -0.636719 -0.104626 150 82 65
0.058594 -0.636719 -0.104878 146 81 65
0.062500 -0.636719 -0.104632 144 79 64
0.066406 -0.636719 -0.103648 139 76 60
0.070312 -0.636719 -0.101611 136 75 60
0.074219 -0.636719 -0.099576 131 71 57
0.078125 -0.636719 -0.097487 137 75 59
0.082031 -0.636719 -0.095126 135 75 59
0.085938 -0.636719 -0.091918 132 72 56
0.089844 -0.636719 -0.089600 154 86 67
0.093750 -0.636719 -0.086930 175 103 79
0.097656 -0.636719 -0.083348 170 98 76
0.101562 -0.636719 -0.079264 212 160 131
0.105469 -0.636719 -0.074828 179 131 110
0.109375 -0.636719 -0.069953 33 20 20
-0.191406 -0.640625 -0.025589 94 52 45
-0.187500 -0.640625 -0.035861 66 56 56
-0.183594 -0.640625 -0.042445 33 31 33
-0.179688 -0.640625 -0.047122 22 21 22
-0.175781 -0.640625 -0.051237 19 18 18
-0.171875 -0.640625 -0.054786 16 16 17
-0.167969 -0.640625 -0.057591 16 16 17
-0.164062 -0.640625 -0.060308 15 17 18
-0.160156 -0.640625 -0.062754 17 20 21
-0.156250 -0.640625 -0.064880 17 19 21
-0.152344 -0.640625 -0.066173 18 20 21
-0.148438 -0.640625 -0.066507 20 23 25
-0.144531 -0.640625 -0.066941 20 22 25
-0.140625 -0.640625 -0.067049 23 25 27
-0.136719 -0.640625 -0.066375 28 29 31
-0.132812 -0.640625 -0.064801 28 29 31
-0.128906 -0.640625 -0.063397 30 32 33
-0.125000 -0.640625 -0.061591 29 30 32
-0.121094 -0.640625 -0.059706 24 25 29
-0.117188 -0.640625 -0.056389 46 47 49
-0.113281 -0.640625 -0.052573 62 63 63
-0.109375 -0.640625 -0.046361 68 71 68
0.035156 -0.640625 -0.030566 190 132 100
0.039062 -0.640625 -0.094064 34 19 20
0.042969 -0.640625 -0.099077 116 77 58
0.046875 -0.640625 -0.102880 190 132 100
0.050781 -0.640625 -0.106005 160 89 69
0.054688 -0.640625 -0.106509 138 73 59
0.058594 -0.640625 -0.106900 143 81 66
0.062500 -0.640625 -0.106566 139 78 63
0.066406 -0.640625 -0.105416 133 74 59
0.070312 -0.640625 -0.103322 133 75 59
0.074219 -0.640625 -0.101215 133 75 59
0.078125 -0.640625 -0.099064 143 81 63
0.082031 -0.640625 -0.096581 150 85 66
0.085938 -0.640625 -0.093198 149 82 64
0.089844 -0.640625 -0.090697 161 90 71
0.093750 -0.640625 -0.087875 177 102 80
0.097656 -0.640625 -0.084045 172 96 78
0.101562 -0.640625 -0.079757 211 157 134
0.105469 -0.640625 -0.074821 175 128 110
0.109375 -0.640625 -0.069434 29 18 20
-0.191406 -0.644531 -0.025935 32 14 14
-0.187500 -0.644531 -0.035739 66 54 55
-0.183594 -0.644531 -0.042253 32 31 33
-0.179688 -0.644531 -0.046919 21 20 22
-0.175781 -0.644531 -0.050955 19 18 18
-0.171875 -0.644531 -0.054446 16 16 17
-0.167969 -0.644531 -0.057143 14 15 16
-0.164062 -0.644531 -0.059801 15 17 18
-0.160156 -0.644531 -0.062170 17 20 21
-0.156250 -0.644531 -0.064220 15 17 19
-0.152344 -0.644531 -0.065515 16 18 20
-0.148438 -0.644531 -0.065862 22 24 26
-0.144531 -0.644531 -0.066320 24 27 28
-0.140625 -0.644531 -0.066474 29 31 31
-0.136719 -0.644531 -0.065837 32 33 34
-0.132812 -0.644531 -0.064242 32 33 35
-0.128906 -0.644531 -0.062906 34 36 37
-0.125000 -0.644531 -0.061091 33 35 36
-0.121094 -0.644531 -0.059209 34 36 38
-0.117188 -0.644531 -0.055868 54 57 56
-0.113281 -0.644531 -0.052530 58 61 59
-0.109375 -0.644531 -0.044501 70 74 71
0.035156 -0.644531 -0.054521 195 135 106
0.039062 -0.644531 -0.095249 32 17 19
0.042969 -0.644531 -0.100889 137 92 78
0.046875 -0.644531 -0.104681 195 135 106
0.050781 -0.644531 -0.108084 143 74 56
0.054688 -0.644531 -0.108554 137 75 59
0.058594 -0.644531 -0.109062 145 85 69
0.062500 -0.644531 -0.108618 141 81 65
0.066406 -0.644531 -0.107343 131 73 58
0.070312 -0.644531 -0.105217 128 71 57
0.074219 -0.644531 -0.103071 126 69 56
0.078125 -0.644531 -0.100859 137 75 60
0.082031 -0.644531 -0.098201 154 88 69
0.085938 -0.644531 -0.094606 158 90 71
0.089844 -0.644531 -0.091958 163 93 73
0.093750 -0.644531 -0.089071 177 104 82
0.097656 -0.644531 -0.085058 176 102 84
0.101562 -0.644531 -0.080507 210 154 133
0.105469 -0.644531 -0.074904 168 120 106
0.109375 -0.644531 -0.069077 29 19 22
-0.191406 -0.648438 -0.025891 113 79 70
-0.187500 -0.648438 -0.035622 74 56 56
-0.183594 -0.648438 -0.042178 36 35 37
-0.179688 -0.648438 -0.046737 21 20 22
-0.175781 -0.648438 -0.050657 18 17 18
-0.171875 -0.648438 -0.054080 16 16 17
-0.167969 -0.648438 -0.056687 14 15 16
-0.164062 -0.648438 -0.059303 15 17 19
-0.160156 -0.648438 -0.061582 19 22 24
-0.156250 -0.648438 -0.063557 17 20 22
-0.152344 -0.648438 -0.064846 19 21 24
-0.148438 -0.648438 -0.065200 27 29 31
-0.144531 -0.648438 -0.065681 32 35 35
-0.140625 -0.648438 -0.065850 33 35 36
-0.136719 -0.648438 -0.065199 33 34 35
-0.132812 -0.648438 -0.063579 34 35 36
-0.128906 -0.648438 -0.062240 36 37 38
-0.125000 -0.648438 -0.060372 40 43 43
-0.121094 -0.648438 -0.058728 51 55 53
-0.117188 -0.648438 -0.055254 63 66 62
-0.113281 -0.648438 -0.051181 46 51 50
-0.109375 -0.648438 -0.037193 34 36 38
0.035156 -0.648438 -0.059140 194 134 107
0.039062 -0.648438 -0.095774 34 17 19
0.042969 -0.648438 -0.102287 145 97 83
0.046875 -0.648438 -0.106325 194 134 107
0.050781 -0.648438 -0.110120 141 73 56
0.054688 -0.648438 -0.110581 141 78 61
0.058594 -0.648438 -0.111109 142 82 66
0.062500 -0.648438 -0.110695 139 78 63
0.066406 -0.648438 -0.109432 127 69 55
0.070312 -0.648438 -0.107352 122 66 53
0.074219 -0.648438 -0.105223 124 66 54
0.078125 -0.648438 -0.102959 140 77 61
0.082031 -0.648438 -0.100113 165 96 75
0.085938 -0.648438 -0.096270 169 100 78
0.089844 -0.648438 -0.093372 169 99 76
0.093750 -0.648438 -0.090216 180 108 83
0.097656 -0.648438 -0.085954 179 106 87
0.101562 -0.648438 -0.080907 210 152 133
0.105469 -0.648438 -0.074409 171 119 109
0.109375 -0.648438 -0.067908 32 22 26
-0.191406 -0.652344 -0.025365 94 52 45
-0.187500 -0.652344 -0.035611 78 55 52
-0.183594 -0.652344 -0.042193 45 42 42
-0.179688 -0.652344 -0.046612 23 22 23
-0.175781 -0.652344 -0.050429 17 15 16
-0.171875 -0.652344 -0.053780 15 15 16
-0.167969 -0.652344 -0.056287 14 15 16
-0.164062 -0.652344 -0.058861 16 17 19
-0.160156 -0.652344 -0.061050 20 23 25
-0.156250 -0.652344 -0.062978 21 24 25
-0.152344 -0.652344 -0.064251 24 27 28
-0.148438 -0.652344 -0.064575 31 34 35
-0.144531 -0.652344 -0.065090 35 39 38
-0.140625 -0.652344 -0.065272 32 35 36
-0.136719 -0.652344 -0.064586 28 30 31
-0.132812 -0.652344 -0.062985 29 30 32
-0.128906 -0.652344 -0.061591 30 31 33
-0.125000 -0.652344 -0.059501 39 41 42
-0.121094 -0.652344 -0.058017 56 59 58
-0.117188 -0.652344 -0.054591 58 62 58
-0.113281 -0.652344 -0.051291 47 56 51
-0.109375 -0.652344 -0.028574 28 30 31
0.035156 -0.652344 -0.045016 192 133 106
0.039062 -0.652344 -0.096885 34 19 20
0.042969 -0.652344 -0.103539 145 100 82
0.046875 -0.652344 -0.108098 192 133 106
0.050781 -0.652344 -0.111827 137 70 55
0.054688 -0.652344 -0.112590 139 76 60
0.058594 -0.652344 -0.113214 137 78 63
0.062500 -0.652344 -0.112801 136 76 60
0.066406 -0.652344 -0.111608 129 71 55
0.070312 -0.652344 -0.109596 130 71 56
0.074219 -0.652344 -0.107452 132 71 57
0.078125 -0.652344 -0.105101 146 79 62
0.082031 -0.652344 -0.102072 162 93 72
0.085938 -0.652344 -0.098071 161 92 71
0.089844 -0.652344 -0.094876 160 89 69
0.093750 -0.652344 -0.091254 173 100 76
0.097656 -0.652344 -0.086747 174 101 82
0.101562 -0.652344 -0.081263 208 150 132
0.105469 -0.652344 -0.075335 179 128 116
0.109375 -0.652344 -0.064977 33 23 26
-0.191406 -0.656250 -0.024952 32 14 14
-0.187500 -0.656250 -0.035495 50 33 33
-0.183594 -0.656250 -0.042045 47 41 41
-0.179688 -0.656250 -0.046474 26 24 26
-0.175781 -0.656250 -0.050249 18 16 18
-0.171875 -0.656250 -0.053546 15 15 17
-0.167969 -0.656250 -0.055946 16 16 18
-0.164062 -0.656250 -0.058408 17 18 19
-0.160156 -0.656250 -0.060501 19 20 22
-0.156250 -0.656250 -0.062363 19 21 23
-0.152344 -0.656250 -0.063610 19 21 23
-0.148438 -0.656250 -0.063947 21 24 25
-0.144531 -0.656250 -0.064464 26 29 30
-0.140625 -0.656250 -0.064651 28 31 32
-0.136719 -0.656250 -0.063967 27 31 32
-0.132812 -0.656250 -0.062366 30 32 34
-0.128906 -0.656250 -0.060909 28 30 32
-0.125000 -0.656250 -0.058743 36 38 40
-0.121094 -0.656250 -0.057172 50 54 54
-0.117188 -0.656250 -0.053981 51 56 54
-0.113281 -0.656250 -0.051527 71 79 69
-0.109375 -0.656250 -0.031625 57 57 53
0.035156 -0.656250 -0.031136 188 129 104
0.039062 -0.656250 -0.098034 41 25 26
0.042969 -0.656250 -0.104824 144 100 83
0.046875 -0.656250 -0.109826 188 129 104
0.050781 -0.656250 -0.113616 131 67 52
0.054688 -0.656250 -0.114769 138 76 59
0.058594 -0.656250 -0.115451 136 77 62
0.062500 -0.656250 -0.115101 138 77 60
0.066406 -0.656250 -0.113950 141 77 59
0.070312 -0.656250 -0.111935 144 79 61
0.074219 -0.656250 -0.109726 144 77 61
0.078125 -0.656250 -0.107293 154 84 66
0.082031 -0.656250 -0.104084 169 97 75
0.085938 -0.656250 -0.099871 173 99 77
0.089844 -0.656250 -0.096306 172 99 75
0.093750 -0.656250 -0.092355 178 104 78
0.097656 -0.656250 -0.087696 176 103 82
0.101562 -0.656250 -0.081755 206 149 128
0.105469 -0.656250 -0.075225 176 127 111
0.109375 -0.656250 -0.064268 33 23 24
-0.191406 -0.660156 -0.025206 12 7 8
-0.187500 -0.660156 -0.035545 34 24 25
-0.183594 -0.660156 -0.042073 46 40 41
-0.179688 -0.660156 -0.046501 29 26 28
-0.175781 -0.660156 -0.050151 18 16 19
-0.171875 -0.660156 -0.053405 12 12 15
-0.167969 -0.660156 -0.055734 13 12 15
-0.164062 -0.660156 -0.058036 13 13 16
-0.160156 -0.660156 -0.060044 13 14 17
-0.156250 -0.660156 -0.061825 13 14 17
-0.152344 -0.660156 -0.063042 13 14 17
-0.148438 -0.660156 -0.063422 14 15 18
-0.144531 -0.660156 -0.063883 21 22 24
-0.140625 -0.660156 -0.064047 28 30 32
-0.136719 -0.660156 -0.063321 38 41 42
-0.132812 -0.660156 -0.061659 47 50 49
-0.128906 -0.660156 -0.060170 39 42 43
-0.125000 -0.660156 -0.058124 47 50 51
-0.121094 -0.660156 -0.056443 56 60 60
-0.117188 -0.660156 -0.053277 48 52 52
-0.113281 -0.660156 -0.049964 74 79 72
-0.109375 -0.660156 -0.041634 67 68 64
0.039062 -0.660156 -0.099332 36 23 24
0.042969 -0.660156 -0.106327 138 95 79
0.046875 -0.660156 -0.111817 190 134 108
0.050781 -0.660156 -0.115595 135 70 56
0.054688 -0.660156 -0.116883 144 79 62
0.058594 -0.660156 -0.117524 137 77 61
0.062500 -0.660156 -0.117246 136 75 58
0.066406 -0.660156 -0.116175 143 78 60
0.070312 -0.660156 -0.114191 150 83 64
0.074219 -0.660156 -0.111964 152 83 65
0.078125 -0.660156 -0.109519 162 90 71
0.082031 -0.660156 -0.106202 181 106 82
0.085938 -0.660156 -0.101840 192 118 91
0.089844 -0.660156 -0.097955 193 121 92
0.093750 -0.660156 -0.093782 192 119 90
0.097656 -0.660156 -0.089180 187 116 92
0.101562 -0.660156 -0.082918 209 156 132
0.105469 -0.660156 -0.075277 184 137 116
0.109375 -0.660156 -0.065787 56 38 36
-0.191406 -0.664062 -0.026261 17 12 13
-0.187500 -0.664062 -0.035884 49 38 37
-0.183594 -0.664062 -0.042211 60 54 52
-0.179688 -0.664062 -0.046633 32 29 31
-0.175781 -0.664062 -0.050342 21 18 22
-0.171875 -0.664062 -0.053559 13 12 15
-0.167969 -0.664062 -0.055784 14 13 16
-0.164062 -0.664062 -0.057953 15 15 17
-0.160156 -0.664062 -0.059864 14 15 18
-0.156250 -0.664062 -0.061575 15 15 18
-0.152344 -0.664062 -0.062755 14 14 17
-0.148438 -0.664062 -0.063106 13 13 16
-0.144531 -0.664062 -0.063493 16 15 18
-0.140625 -0.664062 -0.063613 17 17 19
-0.136719 -0.664062 -0.062826 25 26 27
-0.132812 -0.664062 -0.061109 35 38 37
-0.128906 -0.664062 -0.059582 35 37 39
-0.125000 -0.664062 -0.057486 48 49 51
-0.121094 -0.664062 -0.055652 52 55 55
-0.117188 -0.664062 -0.052763 43 49 48
-0.113281 -0.664062 -0.049419 67 73 67
-0.109375 -0.664062 -0.044252 90 96 86
0.039062 -0.664062 -0.101138 34 23 25
0.042969 -0.664062 -0.107587 140 101 83
0.046875 -0.664062 -0.113302 201 149 121
0.050781 -0.664062 -0.117170 146 79 63
0.054688 -0.664062 -0.118698 149 84 66
0.058594 -0.664062 -0.119455 139 78 62
0.062500 -0.664062 -0.119251 132 72 56
0.066406 -0.664062 -0.118259 135 72 57
0.070312 -0.664062 -0.116346 138 74 58
0.074219 -0.664062 -0.114117 141 75 60
0.078125 -0.664062 -0.111647 151 81 65
0.082031 -0.664062 -0.108248 168 93 75
0.085938 -0.664062 -0.103846 185 109 85
0.089844 -0.664062 -0.099750 191 116 89
0.093750 -0.664062 -0.095216 190 116 88
0.097656 -0.664062 -0.090506 191 120 95
0.101562 -0.664062 -0.084084 215 166 139
0.105469 -0.664062 -0.076991 218 181 154
0.109375 -0.664062 -0.067770 166 124 104
-0.191406 -0.667969 -0.027070 17 14 16
-0.187500 -0.667969 -0.036061 59 49 48
-0.183594 -0.667969 -0.042718 67 65 61
-0.179688 -0.667969 -0.047052 31 31 33
-0.175781 -0.667969 -0.050770 21 21 24
-0.171875 -0.667969 -0.053948 12 13 15
-0.167969 -0.667969 -0.055997 12 12 14
-0.164062 -0.667969 -0.057938 14 14 16
-0.160156 -0.667969 -0.059627 14 14 17
-0.156250 -0.667969 -0.061137 14 14 17
-0.152344 -0.667969 -0.062188 11 12 15
-0.148438 -0.667969 -0.062488 10 11 14
-0.144531 -0.667969 -0.062783 11 11 15
-0.140625 -0.667969 -0.062821 10 10 13
-0.136719 -0.667969 -0.062003 14 15 18
-0.132812 -0.667969 -0.060266 26 29 30
-0.128906 -0.667969 -0.058812 33 36 38
-0.125000 -0.667969 -0.056826 43 46 47
-0.121094 -0.667969 -0.054914 43 48 49
-0.117188 -0.667969 -0.052395 45 51 52
-0.113281 -0.667969 -0.049014 61 64 65
-0.109375 -0.667969 -0.043076 103 105 99
0.039062 -0.667969 -0.101163 43 32 38
0.042969 -0.667969 -0.108152 152 114 99
0.046875 -0.667969 -0.114204 210 160 132
0.050781 -0.667969 -0.118596 150 83 66
0.054688 -0.667969 -0.120206 145 80 64
0.058594 -0.667969 -0.121200 139 77 61
0.062500 -0.667969 -0.121083 135 73 57
0.066406 -0.667969 -0.120175 135 73 57
0.070312 -0.667969 -0.118419 132 70 55
0.074219 -0.667969 -0.116272 137 72 58
0.078125 -0.667969 -0.113841 151 81 66
0.082031 -0.667969 -0.110438 166 91 74
0.085938 -0.667969 -0.105990 182 106 83
0.089844 -0.667969 -0.101709 188 113 87
0.093750 -0.667969 -0.096975 188 113 87
0.097656 -0.667969 -0.092022 193 123 97
0.101562 -0.667969 -0.085459 215 167 138
0.105469 -0.667969 -0.078852 227 193 163
0.109375 -0.667969 -0.070598 218 186 154
0.113281 -0.667969 -0.049899 125 86 80
-0.191406 -0.671875 -0.028418 22 20 24
-0.187500 -0.671875 -0.036776 63 55 56
-0.183594 -0.671875 -0.043401 66 66 64
-0.179688 -0.671875 -0.047526 30 34 37
-0.175781 -0.671875 -0.051226 19 23 27
-0.171875 -0.671875 -0.054400 10 12 15
-0.167969 -0.671875 -0.056308 9 11 13
-0.164062 -0.671875 -0.057977 11 13 16
-0.160156 -0.671875 -0.059384 12 15 18
-0.156250 -0.671875 -0.060649 14 16 19
-0.152344 -0.671875 -0.061546 16 20 23
-0.148438 -0.671875 -0.061738 24 28 31
-0.144531 -0.671875 -0.061926 35 40 42
-0.140625 -0.671875 -0.061854 40 45 47
-0.136719 -0.671875 -0.060950 57 61 60
-0.132812 -0.671875 -0.059158 76 80 77
-0.128906 -0.671875 -0.057700 75 80 76
-0.125000 -0.671875 -0.055753 61 64 64
-0.121094 -0.671875 -0.053866 50 54 55
-0.117188 -0.671875 -0.051316 63 66 68
-0.113281 -0.671875 -0.048172 60 65 68
-0.109375 -0.671875 -0.042339 94 99 93
0.035156 -0.671875 -0.069327 205 151 122
0.039062 -0.671875 -0.100923 29 20 30
0.042969 -0.671875 -0.108823 159 117 102
0.046875 -0.671875 -0.115874 205 151 122
0.050781 -0.671875 -0.119961 153 85 67
0.054688 -0.671875 -0.121484 144 79 62
0.058594 -0.671875 -0.122626 139 76 60
0.062500 -0.671875 -0.122627 136 73 57
0.066406 -0.671875 -0.121899 134 72 56
0.070312 -0.671875 -0.120310 130 68 54
0.074219 -0.671875 -0.118274 136 73 58
0.078125 -0.671875 -0.115939 149 81 66
0.082031 -0.671875 -0.112586 162 88 72
0.085938 -0.671875 -0.108149 179 103 82
0.089844 -0.671875 -0.103749 187 113 88
0.093750 -0.671875 -0.098990 189 114 89
0.097656 -0.671875 -0.093919 196 124 98
0.101562 -0.671875 -0.087390 209 151 124
0.105469 -0.671875 -0.080707 204 155 129
0.109375 -0.671875 -0.071869 193 158 127
0.113281 -0.671875 -0.060567 196 152 130
-0.191406 -0.675781 -0.024463 35 30 33
-0.187500 -0.675781 -0.037572 78 70 68
-0.183594 -0.675781 -0.044033 78 79 74
-0.179688 -0.675781 -0.047967 55 60 59
-0.175781 -0.675781 -0.051526 50 57 56
-0.171875 -0.675781 -0.054651 33 38 38
-0.167969 -0.675781 -0.056402 36 41 39
-0.164062 -0.675781 -0.057839 45 50 47
-0.160156 -0.675781 -0.058900 46 52 49
-0.156250 -0.675781 -0.059915 43 49 46
-0.152344 -0.675781 -0.060608 50 56 50
-0.148438 -0.675781 -0.060619 60 66 59
-0.144531 -0.675781 -0.060739 54 59 55
-0.140625 -0.675781 -0.060578 53 59 54
-0.136719 -0.675781 -0.059684 59 62 58
-0.132812 -0.675781 -0.057957 54 56 54
-0.128906 -0.675781 -0.056554 52 56 53
-0.125000 -0.675781 -0.054676 41 44 45
-0.121094 -0.675781 -0.052840 33 35 37
-0.117188 -0.675781 -0.050065 52 55 56
-0.113281 -0.675781 -0.047385 56 62 63
-0.109375 -0.675781 -0.042171 83 92 83
0.035156 -0.675781 -0.097060 191 122 97
0.039062 -0.675781 -0.100934 55 37 49
0.042969 -0.675781 -0.111542 191 139 120
0.046875 -0.675781 -0.116958 191 122 97
0.050781 -0.675781 -0.120728 150 81 65
0.054688 -0.675781 -0.122519 141 78 61
0.058594 -0.675781 -0.123712 134 74 58
0.062500 -0.675781 -0.123925 130 70 54
0.066406 -0.675781 -0.123431 128 68 52
0.070312 -0.675781 -0.122016 130 69 54
0.074219 -0.675781 -0.120134 141 76 61
0.078125 -0.675781 -0.117921 148 80 65
0.082031 -0.675781 -0.114634 157 85 69
0.085938 -0.675781 -0.110271 180 104 83
0.089844 -0.675781 -0.105871 193 119 94
0.093750 -0.675781 -0.101165 198 125 100
0.097656 -0.675781 -0.096003 202 129 103
0.101562 -0.675781 -0.089640 211 144 119
0.105469 -0.675781 -0.082725 202 144 124
0.109375 -0.675781 -0.074090 162 117 102
0.113281 -0.675781 -0.062667 138 111 95
0.117188 -0.675781 -0.053758 140 106 83
-0.187500 -0.679688 -0.036799 54 48 47
-0.183594 -0.679688 -0.044458 47 46 45
-0.179688 -0.679688 -0.048600 42 43 42
-0.175781 -0.679688 -0.051623 47 49 47
-0.171875 -0.679688 -0.054723 30 33 32
-0.167969 -0.679688 -0.056203 26 29 28
-0.164062 -0.679688 -0.057238 27 30 28
-0.160156 -0.679688 -0.057790 26 29 28
-0.156250 -0.679688 -0.058367 24 27 25
-0.152344 -0.679688 -0.058709 27 29 27
-0.148438 -0.679688 -0.058430 27 28 26
-0.144531 -0.679688 -0.058449 17 18 19
-0.140625 -0.679688 -0.058266 18 20 20
-0.136719 -0.679688 -0.057418 24 25 25
-0.132812 -0.679688 -0.055872 20 22 22
-0.128906 -0.679688 -0.054789 24 27 26
-0.125000 -0.679688 -0.053217 24 25 28
-0.121094 -0.679688 -0.051619 17 19 22
-0.117188 -0.679688 -0.048991 32 34 37
-0.113281 -0.679688 -0.046194 47 51 54
-0.109375 -0.679688 -0.040866 66 72 69
0.035156 -0.679688 -0.093655 172 96 81
0.039062 -0.679688 -0.104274 134 96 95
0.042969 -0.679688 -0.111406 209 158 138
0.046875 -0.679688 -0.117528 172 96 81
0.050781 -0.679688 -0.121276 152 82 66
0.054688 -0.679688 -0.123205 145 81 64
0.058594 -0.679688 -0.124643 136 75 59
0.062500 -0.679688 -0.124999 135 73 56
0.066406 -0.679688 -0.124656 132 71 53
0.070312 -0.679688 -0.123440 135 72 55
0.074219 -0.679688 -0.121743 147 80 63
0.078125 -0.679688 -0.119688 154 85 68
0.082031 -0.679688 -0.116516 162 89 72
0.085938 -0.679688 -0.112303 179 104 82
0.089844 -0.679688 -0.108012 191 116 92
0.093750 -0.679688 -0.103344 200 128 103
0.097656 -0.679688 -0.098074 202 130 104
0.101562 -0.679688 -0.091739 205 137 112
0.105469 -0.679688 -0.084830 217 160 140
0.109375 -0.679688 -0.077213 202 148 136
0.113281 -0.679688 -0.066952 125 86 80
0.117188 -0.679688 -0.056637 200 167 139
0.121094 -0.679688 -0.045458 132 106 94
-0.187500 -0.683594 -0.036443 37 32 32
-0.183594 -0.683594 -0.044158 24 23 25
-0.179688 -0.683594 -0.048626 17 17 19
-0.175781 -0.683594 -0.051237 18 19 20
-0.171875 -0.683594 -0.054494 11 13 13
-0.167969 -0.683594 -0.055673 10 11 11
-0.164062 -0.683594 -0.056236 10 11 12
-0.160156 -0.683594 -0.056140 11 13 14
-0.156250 -0.683594 -0.055660 14 15 16
-0.152344 -0.683594 -0.055110 18 19 19
-0.148438 -0.683594 -0.054142 19 20 20
-0.144531 -0.683594 -0.054069 15 15 16
-0.140625 -0.683594 -0.054301 22 22 22
-0.136719 -0.683594 -0.054012 33 34 31
-0.132812 -0.683594 -0.053180 26 27 26
-0.128906 -0.683594 -0.052403 25 26 26
-0.125000 -0.683594 -0.050792 22 22 24
-0.121094 -0.683594 -0.049721 15 15 18
-0.117188 -0.683594 -0.047465 29 30 33
-0.113281 -0.683594 -0.044200 51 52 53
-0.109375 -0.683594 -0.039116 71 72 68
0.035156 -0.683594 -0.090837 169 98 80
0.039062 -0.683594 -0.102717 86 52 50
0.042969 -0.683594 -0.111469 187 133 108
0.046875 -0.683594 -0.117299 169 98 80
0.050781 -0.683594 -0.121447 167 97 79
0.054688 -0.683594 -0.123501 157 90 72
0.058594 -0.683594 -0.125241 140 77 60
0.062500 -0.683594 -0.125826 137 73 57
0.066406 -0.683594 -0.125652 131 68 52
0.070312 -0.683594 -0.124627 128 68 52
0.074219 -0.683594 -0.123105 138 73 58
0.078125 -0.683594 -0.121230 150 80 64
0.082031 -0.683594 -0.118225 162 89 72
0.085938 -0.683594 -0.114171 171 97 77
0.089844 -0.683594 -0.109984 173 98 78
0.093750 -0.683594 -0.105314 186 112 90
0.097656 -0.683594 -0.100037 195 124 99
0.101562 -0.683594 -0.093759 196 128 106
0.105469 -0.683594 -0.086753 211 154 135
0.109375 -0.683594 -0.079313 223 178 162
0.113281 -0.683594 -0.071221 196 152 130
0.117188 -0.683594 -0.061381 125 98 70
0.121094 -0.683594 -0.052098 159 121 112
-0.187500 -0.687500 -0.035774 55 48 44
-0.183594 -0.687500 -0.043596 35 33 33
-0.179688 -0.687500 -0.048221 20 21 21
-0.175781 -0.687500 -0.050384 20 22 20
-0.171875 -0.687500 -0.053553 15 17 16
-0.167969 -0.687500 -0.054429 15 17 16
-0.164062 -0.687500 -0.054412 16 18 17
-0.160156 -0.687500 -0.053434 19 21 20
-0.156250 -0.687500 -0.052004 22 24 23
-0.152344 -0.687500 -0.050860 23 26 24
-0.148438 -0.687500 -0.049604 20 22 21
-0.144531 -0.687500 -0.049550 12 13 14
-0.140625 -0.687500 -0.049939 14 16 16
-0.136719 -0.687500 -0.050003 20 22 21
-0.132812 -0.687500 -0.049800 16 18 17
-0.128906 -0.687500 -0.049602 16 17 18
-0.125000 -0.687500 -0.048665 15 16 18
-0.121094 -0.687500 -0.047602 11 12 14
-0.117188 -0.687500 -0.045628 22 22 25
-0.113281 -0.687500 -0.043384 39 39 40
-0.109375 -0.687500 -0.038110 62 62 59
0.035156 -0.687500 -0.097714 177 111 89
0.039062 -0.687500 -0.101500 42 27 31
0.042969 -0.687500 -0.110612 142 95 76
0.046875 -0.687500 -0.116436 177 111 89
0.050781 -0.687500 -0.121225 173 102 82
0.054688 -0.687500 -0.123433 161 94 75
0.058594 -0.687500 -0.125445 143 80 64
0.062500 -0.687500 -0.126259 138 75 59
0.066406 -0.687500 -0.126270 132 70 54
0.070312 -0.687500 -0.125458 132 71 55
0.074219 -0.687500 -0.124135 143 78 62
0.078125 -0.687500 -0.122441 153 83 66
0.082031 -0.687500 -0.119622 167 93 74
0.085938 -0.687500 -0.115714 175 101 80
0.089844 -0.687500 -0.111577 171 98 77
0.093750 -0.687500 -0.107025 180 107 86
0.097656 -0.687500 -0.101822 191 122 98
0.101562 -0.687500 -0.095539 195 130 107
0.105469 -0.687500 -0.088796 202 142 121
0.109375 -0.687500 -0.081455 213 161 141
0.113281 -0.687500 -0.073297 209 165 140
0.117188 -0.687500 -0.063979 140 106 83
0.121094 -0.687500 -0.053325 194 154 144
0.125000 -0.687500 -0.042415 119 102 104
-0.187500 -0.691406 -0.034873 53 49 45
-0.183594 -0.691406 -0.042406 31 32 32
-0.179688 -0.691406 -0.047374 17 19 19
-0.175781 -0.691406 -0.049425 16 17 17
-0.171875 -0.691406 -0.052155 10 12 12
-0.167969 -0.691406 -0.052623 8 10 10
-0.164062 -0.691406 -0.052107 8 10 10
-0.160156 -0.691406 -0.050787 8 10 11
-0.156250 -0.691406 -0.049378 11 13 14
-0.152344 -0.691406 -0.048490 14 17 17
-0.148438 -0.691406 -0.047597 14 17 18
-0.144531 -0.691406 -0.047611 11 14 15
-0.140625 -0.691406 -0.047808 14 16 17
-0.136719 -0.691406 -0.047682 19 22 22
-0.132812 -0.691406 -0.047386 18 21 21
-0.128906 -0.691406 -0.047933 20 23 25
-0.125000 -0.691406 -0.047729 21 23 26
-0.121094 -0.691406 -0.045742 16 18 21
-0.117188 -0.691406 -0.042621 27 30 32
-0.113281 -0.691406 -0.040780 49 52 49
-0.109375 -0.691406 -0.035723 84 85 74
0.035156 -0.691406 -0.062521 185 126 103
0.039062 -0.691406 -0.101879 51 40 47
0.042969 -0.691406 -0.109062 131 96 83
0.046875 -0.691406 -0.115421 185 126 103
0.050781 -0.691406 -0.120325 165 96 77
0.054688 -0.691406 -0.122777 158 90 73
0.058594 -0.691406 -0.125129 149 85 69
0.062500 -0.691406 -0.126179 144 81 64
0.066406 -0.691406 -0.126382 138 75 58
0.070312 -0.691406 -0.125768 140 76 60
0.074219 -0.691406 -0.124693 150 83 66
0.078125 -0.691406 -0.123183 151 83 66
0.082031 -0.691406 -0.120552 158 86 69
0.085938 -0.691406 -0.116843 166 93 75
0.089844 -0.691406 -0.112796 168 96 76
0.093750 -0.691406 -0.108362 180 108 87
0.097656 -0.691406 -0.103198 190 121 98
0.101562 -0.691406 -0.096918 188 122 100
0.105469 -0.691406 -0.090425 192 129 110
0.109375 -0.691406 -0.083434 199 142 126
0.113281 -0.691406 -0.075566 209 165 143
0.117188 -0.691406 -0.066633 200 167 139
0.121094 -0.691406 -0.056779 132 106 94
0.125000 -0.691406 -0.045513 184 148 142
-0.187500 -0.695312 -0.033903 40 38 39
-0.183594 -0.695312 -0.041320 27 31 32
-0.179688 -0.695312 -0.045705 16 18 18
-0.175781 -0.695312 -0.047709 13 15 14
-0.171875 -0.695312 -0.050134 9 11 11
-0.167969 -0.695312 -0.050519 8 10 10
-0.164062 -0.695312 -0.050027 10 12 12
-0.160156 -0.695312 -0.049055 10 13 13
-0.156250 -0.695312 -0.048146 13 16 17
-0.152344 -0.695312 -0.047790 17 21 22
-0.148438 -0.695312 -0.047294 20 25 25
-0.144531 -0.695312 -0.047534 20 24 24
-0.140625 -0.695312 -0.047691 23 28 28
-0.136719 -0.695312 -0.047486 26 31 30
-0.132812 -0.695312 -0.047025 22 27 27
-0.128906 -0.695312 -0.046492 22 27 29
-0.125000 -0.695312 -0.045287 19 23 27
-0.121094 -0.695312 -0.043265 15 20 23
-0.117188 -0.695312 -0.041138 30 41 39
-0.113281 -0.695312 -0.035862 43 52 49
0.039062 -0.695312 -0.094280 86 52 50
0.042969 -0.695312 -0.107105 136 98 84
0.046875 -0.695312 -0.113917 194 137 110
0.050781 -0.695312 -0.119123 163 96 78
0.054688 -0.695312 -0.122051 155 88 73
0.058594 -0.695312 -0.124365 154 89 72
0.062500 -0.695312 -0.125740 151 87 69
0.066406 -0.695312 -0.126181 146 81 64
0.070312 -0.695312 -0.125688 142 78 62
0.074219 -0.695312 -0.124815 144 79 64
0.078125 -0.695312 -0.123472 146 79 63
0.082031 -0.695312 -0.121023 151 81 65
0.085938 -0.695312 -0.117500 160 88 71
0.089844 -0.695312 -0.113599 165 95 77
0.093750 -0.695312 -0.109304 177 108 88
0.097656 -0.695312 -0.104207 190 122 99
0.101562 -0.695312 -0.098062 192 127 104
0.105469 -0.695312 -0.091697 197 137 117
0.109375 -0.695312 -0.084838 199 141 127
0.113281 -0.695312 -0.077278 202 150 134
0.117188 -0.695312 -0.068757 212 172 150
0.121094 -0.695312 -0.059787 159 121 112
0.125000 -0.695312 -0.049438 222 179 163
0.128906 -0.695312 -0.039247 194 155 142
-0.183594 -0.699219 -0.038549 67 69 61
-0.179688 -0.699219 -0.043515 34 36 31
-0.175781 -0.699219 -0.045580 22 23 20
-0.171875 -0.699219 -0.047843 16 19 17
-0.167969 -0.699219 -0.048503 14 17 15
-0.164062 -0.699219 -0.048320 15 19 17
-0.160156 -0.699219 -0.048061 14 18 17
-0.156250 -0.699219 -0.047905 15 19 18
-0.152344 -0.699219 -0.048046 16 20 20
-0.148438 -0.699219 -0.047810 16 20 20
-0.144531 -0.699219 -0.048222 14 18 19
-0.140625 -0.699219 -0.048304 15 19 21
-0.136719 -0.699219 -0.048011 17 21 23
-0.132812 -0.699219 -0.047153 18 21 24
-0.128906 -0.699219 -0.045401 22 25 28
-0.125000 -0.699219 -0.042787 22 25 27
-0.121094 -0.699219 -0.039306 32 38 36
-0.117188 -0.699219 -0.022094 71 85 75
0.039062 -0.699219 -0.090753 42 27 31
0.042969 -0.699219 -0.103987 120 78 70
0.046875 -0.699219 -0.111941 176 115 94
0.050781 -0.699219 -0.117701 162 100 82
0.054688 -0.699219 -0.120927 151 88 73
0.058594 -0.699219 -0.123039 154 92 74
0.062500 -0.699219 -0.124673 156 92 74
0.066406 -0.699219 -0.125414 155 90 72
0.070312 -0.699219 -0.125102 146 83 66
0.074219 -0.699219 -0.124390 144 80 65
0.078125 -0.699219 -0.123200 153 85 68
0.082031 -0.699219 -0.120953 160 88 70
0.085938 -0.699219 -0.117624 172 98 79
0.089844 -0.699219 -0.113905 181 111 90
0.093750 -0.699219 -0.109776 176 109 89
0.097656 -0.699219 -0.104798 176 109 89
0.101562 -0.699219 -0.098816 187 121 99
0.105469 -0.699219 -0.092625 201 142 119
0.109375 -0.699219 -0.085912 204 148 127
0.113281 -0.699219 -0.078409 201 145 123
0.117188 -0.699219 -0.070368 214 167 146
0.121094 -0.699219 -0.062027 194 154 144
0.125000 -0.699219 -0.052473 119 102 104
0.128906 -0.699219 -0.042631 225 183 167
0.132812 -0.699219 -0.032811 208 170 158
-0.183594 -0.703125 -0.034669 66 64 52
-0.179688 -0.703125 -0.039850 43 44 35
-0.175781 -0.703125 -0.042981 27 28 24
-0.171875 -0.703125 -0.045562 20 22 20
-0.167969 -0.703125 -0.046582 16 18 16
-0.164062 -0.703125 -0.046836 14 18 16
-0.160156 -0.703125 -0.047196 13 17 15
-0.156250 -0.703125 -0.047585 15 19 18
-0.152344 -0.703125 -0.048105 18 23 22
-0.148438 -0.703125 -0.048141 20 25 24
-0.144531 -0.703125 -0.048834 20 25 26
-0.140625 -0.703125 -0.049103 23 27 29
-0.136719 -0.703125 -0.049123 25 29 31
-0.132812 -0.703125 -0.047726 30 32 34
-0.128906 -0.703125 -0.045914 44 44 43
-0.125000 -0.703125 -0.042128 70 68 56
-0.121094 -0.703125 -0.021118 137 127 104
0.039062 -0.703125 -0.089514 51 40 47
0.042969 -0.703125 -0.100753 106 71 71
0.046875 -0.703125 -0.109082 149 89 81
0.050781 -0.703125 -0.114754 187 130 112
0.054688 -0.703125 -0.118849 162 100 84
0.058594 -0.703125 -0.121435 157 93 75
0.062500 -0.703125 -0.123270 155 90 73
0.066406 -0.703125 -0.124155 152 88 71
0.070312 -0.703125 -0.123990 146 83 68
0.074219 -0.703125 -0.123455 144 81 67
0.078125 -0.703125 -0.122401 159 89 73
0.082031 -0.703125 -0.120324 159 86 70
0.085938 -0.703125 -0.117187 168 94 76
0.089844 -0.703125 -0.113651 187 117 95
0.093750 -0.703125 -0.109678 187 120 98
0.097656 -0.703125 -0.104834 176 111 90
0.101562 -0.703125 -0.099071 181 115 93
0.105469 -0.703125 -0.093107 195 133 109
0.109375 -0.703125 -0.086575 201 142 119
0.113281 -0.703125 -0.079318 194 134 112
0.117188 -0.703125 -0.071727 201 146 124
0.121094 -0.703125 -0.063617 214 171 155
0.125000 -0.703125 -0.054863 184 148 142
0.128906 -0.703125 -0.045266 101 87 89
0.132812 -0.703125 -0.035906 221 177 159
0.136719 -0.703125 -0.022015 198 158 139
-0.183594 -0.707031 -0.029691 46 38 32
-0.179688 -0.707031 -0.035971 45 38 31
-0.175781 -0.707031 -0.039994 33 29 25
-0.171875 -0.707031 -0.043070 20 19 17
-0.167969 -0.707031 -0.044666 17 17 15
-0.164062 -0.707031 -0.045534 16 19 15
-0.160156 -0.707031 -0.046431 15 20 14
-0.156250 -0.707031 -0.047331 19 24 19
-0.152344 -0.707031 -0.048222 23 28 25
-0.148438 -0.707031 -0.048544 25 29 28
-0.144531 -0.707031 -0.049637 27 30 30
-0.140625 -0.707031 -0.049983 31 31 32
-0.136719 -0.707031 -0.050304 34 31 31
-0.132812 -0.707031 -0.048394 43 37 36
-0.128906 -0.707031 -0.048187 71 54 48
-0.125000 -0.707031 -0.041374 114 87 67
0.039062 -0.707031 -0.078953 190 139 116
0.042969 -0.707031 -0.097442 136 98 84
0.046875 -0.707031 -0.106151 82 46 41
0.050781 -0.707031 -0.112371 190 139 116
0.054688 -0.707031 -0.116299 174 113 93
0.058594 -0.707031 -0.119535 165 101 81
0.062500 -0.707031 -0.121473 155 90 73
0.066406 -0.707031 -0.122382 149 86 70
0.070312 -0.707031 -0.122288 150 87 71
0.074219 -0.707031 -0.121877 151 86 71
0.078125 -0.707031 -0.120903 163 93 75
0.082031 -0.707031 -0.118985 158 86 69
0.085938 -0.707031 -0.116041 157 84 68
0.089844 -0.707031 -0.112685 178 106 86
0.093750 -0.707031 -0.108894 193 126 103
0.097656 -0.707031 -0.104252 189 124 101
0.101562 -0.707031 -0.098739 182 117 94
0.105469 -0.707031 -0.092969 187 123 100
0.109375 -0.707031 -0.086635 193 131 109
0.113281 -0.707031 -0.079716 188 126 106
0.117188 -0.707031 -0.072456 183 125 107
0.121094 -0.707031 -0.064679 207 156 138
0.125000 -0.707031 -0.056882 222 179 163
0.128906 -0.707031 -0.048589 194 155 142
0.132812 -0.707031 -0.038718 135 116 106
0.136719 -0.707031 -0.029263 221 182 163
0.140625 -0.707031 -0.016732 204 163 148
-0.183594 -0.710938 -0.025613 37 27 25
-0.179688 -0.710938 -0.032593 83 57 46
-0.175781 -0.710938 -0.037368 86 61 49
-0.171875 -0.710938 -0.040888 40 29 25
-0.167969 -0.710938 -0.043052 26 22 18
-0.164062 -0.710938 -0.044509 19 19 14
-0.160156 -0.710938 -0.045978 16 18 11
-0.156250 -0.710938 -0.047444 17 19 13
-0.152344 -0.710938 -0.048737 21 21 18
-0.148438 -0.710938 -0.049377 25 24 22
