ply
    format ascii 1.0
    element vertex 103476
    property float x
    property float y
    property float z
    property uchar red
    property uchar green
    property uchar blue
    end_header
0.023438 0.628906 -0.095997 67 41 25
0.027344 0.628906 -0.096614 67 42 26
0.031250 0.628906 -0.097366 65 41 26
0.035156 0.628906 -0.098465 63 39 24
0.039062 0.628906 -0.099620 61 37 23
0.042969 0.628906 -0.100795 62 37 24
0.046875 0.628906 -0.101787 60 36 22
0.050781 0.628906 -0.102354 57 34 21
0.054688 0.628906 -0.102692 60 37 25
0.058594 0.628906 -0.102803 54 33 22
0.062500 0.628906 -0.102714 50 30 19
0.066406 0.628906 -0.102395 46 27 17
0.070312 0.628906 -0.101801 45 27 17
0.074219 0.628906 -0.101182 44 26 17
0.078125 0.628906 -0.100497 38 23 15
0.082031 0.628906 -0.100038 38 23 15
0.085938 0.628906 -0.099618 42 26 17
0.089844 0.628906 -0.099395 42 26 18
0.093750 0.628906 -0.099183 43 27 19
0.097656 0.628906 -0.098751 44 27 19
0.101562 0.628906 -0.098144 45 29 21
0.105469 0.628906 -0.097085 52 34 25
0.109375 0.628906 -0.095601 61 40 30
0.113281 0.628906 -0.093372 62 42 31
0.117188 0.628906 -0.090517 68 46 34
0.121094 0.628906 -0.086803 78 54 39
0.125000 0.628906 -0.082484 82 58 42
0.128906 0.628906 -0.077464 91 65 48
0.132812 0.628906 -0.071650 100 72 55
0.136719 0.628906 -0.065646 102 74 56
0.140625 0.628906 -0.059593 90 64 48
0.144531 0.628906 -0.053946 79 55 40
0.148438 0.628906 -0.048763 83 59 42
0.152344 0.628906 -0.043862 77 54 38
0.156250 0.628906 -0.039249 72 51 34
0.160156 0.628906 -0.034808 76 53 34
0.164062 0.628906 -0.030629 61 41 26
0.167969 0.628906 -0.026737 45 30 19
0.171875 0.628906 -0.022893 54 38 26
0.175781 0.628906 -0.019829 52 41 31
0.179688 0.628906 -0.016760 44 36 32
0.183594 0.628906 -0.013192 43 39 39
0.187500 0.628906 -0.009986 29 29 32
0.191406 0.628906 -0.005256 27 26 28
0.195312 0.628906 0.001174 27 25 23
0.199219 0.628906 0.006763 25 22 21
0.203125 0.628906 0.012061 22 19 18
0.207031 0.628906 0.017968 22 19 20
0.210938 0.628906 0.030338 15 14 16
-0.210938 0.625000 0.003035 37 38 44
-0.207031 0.625000 0.001314 44 43 49
-0.203125 0.625000 0.000532 50 47 52
-0.199219 0.625000 0.000283 53 49 53
-0.195312 0.625000 -0.000961 58 52 54
-0.191406 0.625000 -0.002280 68 59 58
-0.187500 0.625000 -0.003908 77 65 61
-0.183594 0.625000 -0.004722 93 74 65
-0.179688 0.625000 -0.005496 99 78 64
-0.175781 0.625000 -0.006743 101 77 64
-0.171875 0.625000 -0.008078 104 78 61
-0.167969 0.625000 -0.009402 106 79 62
-0.164062 0.625000 -0.010742 108 79 61
-0.160156 0.625000 -0.013512 111 82 63
-0.156250 0.625000 -0.017329 112 82 62
-0.152344 0.625000 -0.023569 113 83 63
-0.148438 0.625000 -0.030285 114 84 64
-0.144531 0.625000 -0.034817 115 85 64
-0.140625 0.625000 -0.038924 116 86 65
-0.136719 0.625000 -0.043082 116 86 65
-0.132812 0.625000 -0.047535 116 87 65
-0.128906 0.625000 -0.051656 116 87 66
-0.125000 0.625000 -0.055460 118 87 66
-0.121094 0.625000 -0.058992 116 88 66
-0.117188 0.625000 -0.062246 118 88 67
-0.113281 0.625000 -0.065524 117 89 67
-0.109375 0.625000 -0.068662 118 89 68
-0.105469 0.625000 -0.071537 118 90 69
-0.101562 0.625000 -0.074213 119 91 70
-0.097656 0.625000 -0.076659 121 92 71
-0.093750 0.625000 -0.078906 123 94 73
-0.089844 0.625000 -0.081136 127 98 77
-0.085938 0.625000 -0.083367 133 102 82
-0.082031 0.625000 -0.085512 137 105 86
-0.078125 0.625000 -0.087549 136 102 82
-0.074219 0.625000 -0.089353 134 99 79
-0.070312 0.625000 -0.090837 132 97 77
-0.066406 0.625000 -0.092134 130 96 75
-0.062500 0.625000 -0.093160 129 95 73
-0.058594 0.625000 -0.093944 127 93 72
-0.054688 0.625000 -0.094654 126 92 70
-0.050781 0.625000 -0.095287 124 90 69
-0.046875 0.625000 -0.096059 122 89 67
-0.042969 0.625000 -0.096843 120 87 65
-0.039062 0.625000 -0.097704 118 85 63
-0.035156 0.625000 -0.098734 115 82 61
-0.031250 0.625000 -0.099576 111 79 58
-0.027344 0.625000 -0.100104 107 76 55
-0.023438 0.625000 -0.100289 103 72 52
-0.019531 0.625000 -0.100096 98 68 48
-0.015625 0.625000 -0.099556 94 64 44
-0.011719 0.625000 -0.098792 89 60 41
-0.007812 0.625000 -0.097942 87 58 39
-0.003906 0.625000 -0.096882 83 54 33
0.000000 0.625000 -0.095965 79 50 31
0.003906 0.625000 -0.095334 80 50 31
0.007812 0.625000 -0.095018 77 48 29
0.011719 0.625000 -0.095011 72 45 27
0.015625 0.625000 -0.095255 69 43 26
0.019531 0.625000 -0.095555 68 42 26
0.023438 0.625000 -0.096116 69 43 27
0.027344 0.625000 -0.096888 67 42 27
0.031250 0.625000 -0.097727 66 41 27
0.035156 0.625000 -0.098884 63 39 25
0.039062 0.625000 -0.100012 60 37 23
0.042969 0.625000 -0.101162 61 37 23
0.046875 0.625000 -0.102090 59 35 22
0.050781 0.625000 -0.102553 56 33 21
0.054688 0.625000 -0.102803 57 34 22
0.058594 0.625000 -0.102777 53 32 20
0.062500 0.625000 -0.102566 49 29 18
0.066406 0.625000 -0.102166 48 29 19
0.070312 0.625000 -0.101501 46 27 18
0.074219 0.625000 -0.100797 43 26 17
0.078125 0.625000 -0.100071 40 24 16
0.082031 0.625000 -0.099582 40 25 17
0.085938 0.625000 -0.099137 39 24 17
0.089844 0.625000 -0.098874 37 23 16
0.093750 0.625000 -0.098535 39 24 17
0.097656 0.625000 -0.097934 42 26 18
0.101562 0.625000 -0.097072 43 28 20
0.105469 0.625000 -0.095780 51 34 25
0.109375 0.625000 -0.094133 62 43 31
0.113281 0.625000 -0.091845 64 44 33
0.117188 0.625000 -0.089100 69 49 36
0.121094 0.625000 -0.085551 82 59 43
0.125000 0.625000 -0.081474 89 64 46
0.128906 0.625000 -0.076713 96 69 51
0.132812 0.625000 -0.071103 98 70 53
0.136719 0.625000 -0.065286 95 68 51
0.140625 0.625000 -0.059398 90 64 47
0.144531 0.625000 -0.053891 82 57 42
0.148438 0.625000 -0.048861 79 55 40
0.152344 0.625000 -0.044061 77 54 37
0.156250 0.625000 -0.039448 84 61 41
0.160156 0.625000 -0.035108 79 56 36
0.164062 0.625000 -0.030998 58 40 25
0.167969 0.625000 -0.027148 54 37 23
0.171875 0.625000 -0.023469 68 49 33
0.175781 0.625000 -0.020549 63 50 39
0.179688 0.625000 -0.017821 81 71 61
0.183594 0.625000 -0.014724 116 111 102
0.187500 0.625000 -0.011641 62 58 54
0.191406 0.625000 -0.007011 36 34 33
0.195312 0.625000 -0.001300 26 23 22
0.199219 0.625000 0.003831 27 24 23
0.203125 0.625000 0.009369 25 21 20
0.207031 0.625000 0.012251 23 21 22
0.210938 0.625000 0.017767 22 20 23
0.214844 0.625000 0.030306 16 15 18
-0.210938 0.621094 0.006404 42 42 47
-0.207031 0.621094 0.001816 52 49 54
-0.203125 0.621094 0.000869 57 53 56
-0.199219 0.621094 0.000671 59 52 55
-0.195312 0.621094 -0.001401 59 52 55
-0.191406 0.621094 -0.002882 69 59 58
-0.187500 0.621094 -0.004770 79 66 60
-0.183594 0.621094 -0.006108 84 68 60
-0.179688 0.621094 -0.006740 97 75 63
-0.175781 0.621094 -0.007956 103 78 62
-0.171875 0.621094 -0.009412 105 78 62
-0.167969 0.621094 -0.010577 107 79 62
-0.164062 0.621094 -0.011481 108 80 62
-0.160156 0.621094 -0.013756 110 80 62
-0.156250 0.621094 -0.017260 111 81 61
-0.152344 0.621094 -0.022351 113 83 64
-0.148438 0.621094 -0.028832 114 83 63
-0.144531 0.621094 -0.033561 114 84 64
-0.140625 0.621094 -0.037659 115 85 64
-0.136719 0.621094 -0.041851 116 86 65
-0.132812 0.621094 -0.046391 116 86 65
-0.128906 0.621094 -0.050685 116 87 65
-0.125000 0.621094 -0.054657 116 87 66
-0.121094 0.621094 -0.058365 116 88 66
-0.117188 0.621094 -0.061855 116 88 66
-0.113281 0.621094 -0.065319 117 88 67
-0.109375 0.621094 -0.068628 117 89 67
-0.105469 0.621094 -0.071612 118 89 68
-0.101562 0.621094 -0.074332 119 90 69
-0.097656 0.621094 -0.076832 120 91 70
-0.093750 0.621094 -0.079089 121 93 72
-0.089844 0.621094 -0.081315 124 95 74
-0.085938 0.621094 -0.083568 129 99 78
-0.082031 0.621094 -0.085679 134 102 82
-0.078125 0.621094 -0.087814 133 99 79
-0.074219 0.621094 -0.089688 132 97 77
-0.070312 0.621094 -0.091235 130 96 75
-0.066406 0.621094 -0.092653 128 94 73
-0.062500 0.621094 -0.093651 127 93 72
-0.058594 0.621094 -0.094455 125 92 70
-0.054688 0.621094 -0.095130 124 90 69
-0.050781 0.621094 -0.095666 122 89 67
-0.046875 0.621094 -0.096384 120 87 65
-0.042969 0.621094 -0.097096 118 85 63
-0.039062 0.621094 -0.097878 115 83 61
-0.035156 0.621094 -0.098787 112 80 59
-0.031250 0.621094 -0.099479 108 77 56
-0.027344 0.621094 -0.099947 105 74 53
-0.023438 0.621094 -0.100131 101 70 50
-0.019531 0.621094 -0.099890 96 66 47
-0.015625 0.621094 -0.099327 92 63 43
-0.011719 0.621094 -0.098480 88 59 40
-0.007812 0.621094 -0.097485 85 56 37
-0.003906 0.621094 -0.096418 81 52 35
0.000000 0.621094 -0.095570 79 50 31
0.003906 0.621094 -0.094994 80 52 33
0.007812 0.621094 -0.094797 76 48 28
0.011719 0.621094 -0.094878 72 44 28
0.015625 0.621094 -0.095235 70 43 27
0.019531 0.621094 -0.095731 68 42 26
0.023438 0.621094 -0.096457 68 42 26
0.027344 0.621094 -0.097389 67 42 26
0.031250 0.621094 -0.098384 64 40 25
0.035156 0.621094 -0.099640 62 38 24
0.039062 0.621094 -0.100776 61 37 23
0.042969 0.621094 -0.101882 62 38 25
0.046875 0.621094 -0.102739 59 36 23
0.050781 0.621094 -0.103159 56 34 22
0.054688 0.621094 -0.103365 56 34 21
0.058594 0.621094 -0.103276 52 31 20
0.062500 0.621094 -0.102980 48 28 18
0.066406 0.621094 -0.102474 49 30 19
0.070312 0.621094 -0.101708 45 27 17
0.074219 0.621094 -0.100885 44 27 18
0.078125 0.621094 -0.100103 50 33 23
0.082031 0.621094 -0.099583 48 31 23
0.085938 0.621094 -0.099104 45 29 21
0.089844 0.621094 -0.098777 42 26 19
0.093750 0.621094 -0.098298 40 25 18
0.097656 0.621094 -0.097513 40 25 18
0.101562 0.621094 -0.096386 44 28 21
0.105469 0.621094 -0.094865 53 36 26
0.109375 0.621094 -0.093026 66 45 33
0.113281 0.621094 -0.090594 68 47 34
0.117188 0.621094 -0.087827 70 49 35
0.121094 0.621094 -0.084341 79 54 38
0.125000 0.621094 -0.080338 82 57 40
0.128906 0.621094 -0.075659 87 61 44
0.132812 0.621094 -0.070247 93 66 49
0.136719 0.621094 -0.064569 93 66 49
0.140625 0.621094 -0.058841 90 64 47
0.144531 0.621094 -0.053481 85 60 44
0.148438 0.621094 -0.048553 81 57 41
0.152344 0.621094 -0.043879 76 54 36
0.156250 0.621094 -0.039357 75 53 35
0.160156 0.621094 -0.035218 74 53 35
0.164062 0.621094 -0.031266 59 42 27
0.167969 0.621094 -0.027521 68 48 30
0.171875 0.621094 -0.024076 78 56 37
0.175781 0.621094 -0.021183 69 52 39
0.179688 0.621094 -0.018551 95 81 66
0.183594 0.621094 -0.015882 85 75 65
0.187500 0.621094 -0.013033 73 66 59
0.191406 0.621094 -0.008528 52 48 44
0.195312 0.621094 -0.003216 32 29 28
0.199219 0.621094 0.001751 31 27 26
0.203125 0.621094 0.007489 27 23 23
0.207031 0.621094 0.010777 22 20 21
0.210938 0.621094 0.012933 19 18 20
0.214844 0.621094 0.019097 10 9 12
0.218750 0.621094 0.026453 4 4 5
-0.207031 0.617188 0.005096 62 57 59
-0.203125 0.617188 0.002126 63 56 58
-0.199219 0.617188 0.001364 62 54 56
-0.195312 0.617188 -0.001051 61 53 55
-0.191406 0.617188 -0.002877 62 54 54
-0.187500 0.617188 -0.005532 71 60 55
-0.183594 0.617188 -0.007441 83 67 60
-0.179688 0.617188 -0.008237 88 69 59
-0.175781 0.617188 -0.009376 101 76 62
-0.171875 0.617188 -0.010768 106 79 63
-0.167969 0.617188 -0.011920 107 80 62
-0.164062 0.617188 -0.012779 107 79 61
-0.160156 0.617188 -0.014694 110 81 63
-0.156250 0.617188 -0.018008 111 82 64
-0.152344 0.617188 -0.022719 112 82 62
-0.148438 0.617188 -0.028292 113 83 64
-0.144531 0.617188 -0.033080 114 84 64
-0.140625 0.617188 -0.037079 115 85 64
-0.136719 0.617188 -0.041184 115 85 64
-0.132812 0.617188 -0.045698 116 86 65
-0.128906 0.617188 -0.049966 115 86 65
-0.125000 0.617188 -0.053967 117 87 65
-0.121094 0.617188 -0.057839 116 87 66
-0.117188 0.617188 -0.061537 118 87 66
-0.113281 0.617188 -0.065185 117 88 67
-0.109375 0.617188 -0.068669 117 88 67
-0.105469 0.617188 -0.071732 118 89 68
-0.101562 0.617188 -0.074467 118 90 68
-0.097656 0.617188 -0.076929 119 90 69
-0.093750 0.617188 -0.079089 120 92 70
-0.089844 0.617188 -0.081254 122 93 72
-0.085938 0.617188 -0.083446 126 96 76
-0.082031 0.617188 -0.085514 131 99 79
-0.078125 0.617188 -0.087678 131 97 77
-0.074219 0.617188 -0.089572 130 96 75
-0.070312 0.617188 -0.091230 128 94 73
-0.066406 0.617188 -0.092777 127 93 72
-0.062500 0.617188 -0.093815 125 92 70
-0.058594 0.617188 -0.094651 124 90 69
-0.054688 0.617188 -0.095298 122 89 67
-0.050781 0.617188 -0.095787 120 87 65
-0.046875 0.617188 -0.096436 118 85 63
-0.042969 0.617188 -0.097034 116 83 61
-0.039062 0.617188 -0.097681 113 81 59
-0.035156 0.617188 -0.098457 110 78 57
-0.031250 0.617188 -0.098989 106 75 55
-0.027344 0.617188 -0.099401 103 72 52
-0.023438 0.617188 -0.099582 99 68 49
-0.019531 0.617188 -0.099210 95 65 46
-0.015625 0.617188 -0.098583 91 62 42
-0.011719 0.617188 -0.097724 88 59 40
-0.007812 0.617188 -0.096670 85 56 37
-0.003906 0.617188 -0.095557 82 54 34
0.000000 0.617188 -0.094714 80 51 31
0.003906 0.617188 -0.094251 79 50 32
0.007812 0.617188 -0.094238 75 47 30
0.011719 0.617188 -0.094486 73 46 28
0.015625 0.617188 -0.095080 70 44 27
0.019531 0.617188 -0.095860 68 44 26
0.023438 0.617188 -0.096806 67 42 28
0.027344 0.617188 -0.097954 66 41 26
0.031250 0.617188 -0.099127 64 40 25
0.035156 0.617188 -0.100515 63 39 24
0.039062 0.617188 -0.101714 61 37 24
0.042969 0.617188 -0.102826 60 36 22
0.046875 0.617188 -0.103713 58 34 21
0.050781 0.617188 -0.104163 56 34 21
0.054688 0.617188 -0.104381 55 33 22
0.058594 0.617188 -0.104325 51 32 21
0.062500 0.617188 -0.104025 48 29 18
0.066406 0.617188 -0.103478 49 30 20
0.070312 0.617188 -0.102671 47 29 19
0.074219 0.617188 -0.101792 45 29 20
0.078125 0.617188 -0.100981 45 28 19
0.082031 0.617188 -0.100412 46 29 21
0.085938 0.617188 -0.099929 54 37 28
0.089844 0.617188 -0.099567 52 34 26
0.093750 0.617188 -0.098997 50 32 24
0.097656 0.617188 -0.098065 48 30 23
0.101562 0.617188 -0.096690 51 32 24
0.105469 0.617188 -0.094953 57 38 28
0.109375 0.617188 -0.092904 65 44 32
0.113281 0.617188 -0.090303 68 47 34
0.117188 0.617188 -0.087410 69 48 34
0.121094 0.617188 -0.083856 73 50 36
0.125000 0.617188 -0.079807 82 58 42
0.128906 0.617188 -0.075025 85 60 43
0.132812 0.617188 -0.069566 90 64 47
0.136719 0.617188 -0.063809 92 65 48
0.140625 0.617188 -0.058065 90 64 47
0.144531 0.617188 -0.052769 84 60 43
0.148438 0.617188 -0.047923 78 55 38
0.152344 0.617188 -0.043389 76 54 36
0.156250 0.617188 -0.039010 73 52 34
0.160156 0.617188 -0.035113 72 51 33
0.164062 0.617188 -0.031420 75 54 35
0.167969 0.617188 -0.027924 82 58 36
0.171875 0.617188 -0.024710 77 53 34
0.175781 0.617188 -0.021878 73 53 37
0.179688 0.617188 -0.019310 81 67 54
0.183594 0.617188 -0.016778 81 70 58
0.187500 0.617188 -0.013981 75 66 57
0.191406 0.617188 -0.009569 62 56 50
0.195312 0.617188 -0.004327 42 38 35
0.199219 0.617188 0.000687 36 32 30
0.203125 0.617188 0.006046 30 26 26
0.207031 0.617188 0.009189 22 19 21
0.210938 0.617188 0.012423 15 14 16
0.214844 0.617188 0.013717 7 7 8
0.218750 0.617188 0.019282 3 3 3
0.222656 0.617188 0.018813 1 1 1
-0.207031 0.613281 0.011247 44 43 49
-0.203125 0.613281 0.004721 64 56 57
-0.199219 0.613281 0.002142 61 53 54
-0.195312 0.613281 -0.000868 62 53 53
-0.191406 0.613281 -0.003477 63 54 55
-0.187500 0.613281 -0.006161 64 55 53
-0.183594 0.613281 -0.008046 74 61 56
-0.179688 0.613281 -0.009313 86 68 59
-0.175781 0.613281 -0.010716 89 69 58
-0.171875 0.613281 -0.012109 98 74 60
-0.167969 0.613281 -0.013315 108 80 63
-0.164062 0.613281 -0.014653 109 81 63
-0.160156 0.613281 -0.016865 111 81 62
-0.156250 0.613281 -0.019539 110 81 62
-0.152344 0.613281 -0.023980 112 82 64
-0.148438 0.613281 -0.028888 113 83 63
-0.144531 0.613281 -0.033202 114 84 63
-0.140625 0.613281 -0.036958 114 84 65
-0.136719 0.613281 -0.040876 115 85 64
-0.132812 0.613281 -0.045300 115 86 65
-0.128906 0.613281 -0.049470 116 86 65
-0.125000 0.613281 -0.053424 116 86 66
-0.121094 0.613281 -0.057334 116 87 65
-0.117188 0.613281 -0.061134 116 87 66
-0.113281 0.613281 -0.064860 116 88 66
-0.109375 0.613281 -0.068394 117 88 67
-0.105469 0.613281 -0.071454 117 88 67
-0.101562 0.613281 -0.074147 118 89 68
-0.097656 0.613281 -0.076547 118 90 69
-0.093750 0.613281 -0.078655 119 90 69
-0.089844 0.613281 -0.080772 120 92 71
-0.085938 0.613281 -0.082902 124 94 74
-0.082031 0.613281 -0.084945 129 97 77
-0.078125 0.613281 -0.087097 129 96 75
-0.074219 0.613281 -0.089032 128 94 73
-0.070312 0.613281 -0.090784 127 93 72
-0.066406 0.613281 -0.092416 125 92 70
-0.062500 0.613281 -0.093529 124 90 69
-0.058594 0.613281 -0.094350 122 89 67
-0.054688 0.613281 -0.094921 120 87 65
-0.050781 0.613281 -0.095359 118 85 64
-0.046875 0.613281 -0.095964 116 83 62
-0.042969 0.613281 -0.096476 114 81 60
-0.039062 0.613281 -0.096963 111 79 58
-0.035156 0.613281 -0.097601 108 76 56
-0.031250 0.613281 -0.098059 104 73 53
-0.027344 0.613281 -0.098391 101 70 50
-0.023438 0.613281 -0.098517 97 67 48
-0.019531 0.613281 -0.098103 94 64 45
-0.015625 0.613281 -0.097441 90 61 42
-0.011719 0.613281 -0.096590 87 58 39
-0.007812 0.613281 -0.095593 85 56 37
-0.003906 0.613281 -0.094542 81 52 33
0.000000 0.613281 -0.093773 79 50 34
0.003906 0.613281 -0.093494 79 51 32
0.007812 0.613281 -0.093744 75 47 29
0.011719 0.613281 -0.094299 72 45 27
0.015625 0.613281 -0.095235 69 43 28
0.019531 0.613281 -0.096326 68 42 26
0.023438 0.613281 -0.097598 69 42 26
0.027344 0.613281 -0.099083 66 42 26
0.031250 0.613281 -0.100541 64 39 25
0.035156 0.613281 -0.102229 62 38 25
0.039062 0.613281 -0.103696 61 37 23
0.042969 0.613281 -0.104982 60 37 24
0.046875 0.613281 -0.106003 57 35 23
0.050781 0.613281 -0.106498 55 33 21
0.054688 0.613281 -0.106669 54 33 21
0.058594 0.613281 -0.106575 51 30 20
0.062500 0.613281 -0.106210 50 30 20
0.066406 0.613281 -0.105596 49 30 20
0.070312 0.613281 -0.104732 47 29 20
0.074219 0.613281 -0.103753 47 30 21
0.078125 0.613281 -0.102836 47 30 21
0.082031 0.613281 -0.102107 47 30 22
0.085938 0.613281 -0.101477 49 32 23
0.089844 0.613281 -0.100920 49 31 23
0.093750 0.613281 -0.100128 48 31 23
0.097656 0.613281 -0.098961 48 31 23
0.101562 0.613281 -0.097271 51 33 25
0.105469 0.613281 -0.095183 56 37 27
0.109375 0.613281 -0.092785 62 42 30
0.113281 0.613281 -0.089958 67 46 34
0.117188 0.613281 -0.086831 73 51 37
0.121094 0.613281 -0.083076 73 51 37
0.125000 0.613281 -0.078876 80 56 41
0.128906 0.613281 -0.073845 83 59 43
0.132812 0.613281 -0.068144 88 62 46
0.136719 0.613281 -0.062212 90 64 47
0.140625 0.613281 -0.056291 89 63 46
0.144531 0.613281 -0.051000 83 59 43
0.148438 0.613281 -0.046274 78 56 38
0.152344 0.613281 -0.042014 77 55 37
0.156250 0.613281 -0.037965 75 54 36
0.160156 0.613281 -0.034413 74 53 34
0.164062 0.613281 -0.031073 73 52 34
0.167969 0.613281 -0.027868 75 54 35
0.171875 0.613281 -0.024892 76 56 39
0.175781 0.613281 -0.022193 75 55 39
0.179688 0.613281 -0.019712 78 63 49
0.183594 0.613281 -0.017218 80 67 55
0.187500 0.613281 -0.014482 75 65 55
0.191406 0.613281 -0.010218 67 59 50
0.195312 0.613281 -0.004993 51 46 41
0.199219 0.613281 -0.000003 42 37 34
0.203125 0.613281 0.004815 34 30 29
0.207031 0.613281 0.008184 20 17 19
0.210938 0.613281 0.011841 13 12 13
0.214844 0.613281 0.013814 7 6 7
0.218750 0.613281 0.016826 2 2 3
0.222656 0.613281 0.021854 2 2 2
-0.203125 0.609375 0.011731 57 53 56
-0.199219 0.609375 0.003740 59 50 51
-0.195312 0.609375 0.000664 61 52 52
-0.191406 0.609375 -0.001853 64 54 52
-0.187500 0.609375 -0.005244 66 55 53
-0.183594 0.609375 -0.007424 65 54 52
-0.179688 0.609375 -0.009506 71 58 53
-0.175781 0.609375 -0.011457 84 66 57
-0.171875 0.609375 -0.013057 83 65 54
-0.167969 0.609375 -0.014363 96 72 58
-0.164062 0.609375 -0.015936 105 78 61
-0.160156 0.609375 -0.018509 110 81 64
-0.156250 0.609375 -0.021307 110 81 62
-0.152344 0.609375 -0.025313 111 82 62
-0.148438 0.609375 -0.029632 112 82 64
-0.144531 0.609375 -0.033653 113 83 64
-0.140625 0.609375 -0.037271 114 84 63
-0.136719 0.609375 -0.041050 114 84 65
-0.132812 0.609375 -0.045364 115 85 64
-0.128906 0.609375 -0.049347 115 86 65
-0.125000 0.609375 -0.053149 116 86 65
-0.121094 0.609375 -0.056892 115 86 65
-0.117188 0.609375 -0.060604 116 87 66
-0.113281 0.609375 -0.064285 117 86 66
-0.109375 0.609375 -0.067806 116 88 66
-0.105469 0.609375 -0.070869 116 87 67
-0.101562 0.609375 -0.073524 117 88 67
-0.097656 0.609375 -0.075934 117 89 68
-0.093750 0.609375 -0.078018 118 89 69
-0.089844 0.609375 -0.080105 119 91 70
-0.085938 0.609375 -0.082241 122 92 72
-0.082031 0.609375 -0.084263 126 95 75
-0.078125 0.609375 -0.086407 127 94 73
-0.074219 0.609375 -0.088307 127 93 72
-0.070312 0.609375 -0.090000 125 92 70
-0.066406 0.609375 -0.091577 124 90 69
-0.062500 0.609375 -0.092680 122 89 67
-0.058594 0.609375 -0.093435 120 87 66
-0.054688 0.609375 -0.093914 118 86 64
-0.050781 0.609375 -0.094319 116 84 62
-0.046875 0.609375 -0.094821 114 82 60
-0.042969 0.609375 -0.095230 112 80 58
-0.039062 0.609375 -0.095553 109 77 56
-0.035156 0.609375 -0.096041 106 75 54
-0.031250 0.609375 -0.096495 103 72 52
-0.027344 0.609375 -0.096706 99 69 49
-0.023438 0.609375 -0.096800 96 66 47
-0.019531 0.609375 -0.096457 93 63 44
-0.015625 0.609375 -0.095794 90 61 41
-0.011719 0.609375 -0.094924 87 58 39
-0.007812 0.609375 -0.093951 84 55 36
-0.003906 0.609375 -0.093030 82 53 35
0.000000 0.609375 -0.092426 79 51 32
0.003906 0.609375 -0.092398 78 50 31
0.007812 0.609375 -0.093002 75 47 29
0.011719 0.609375 -0.093957 72 44 29
0.015625 0.609375 -0.095294 71 45 28
0.019531 0.609375 -0.096733 68 43 26
0.023438 0.609375 -0.098352 67 43 28
0.027344 0.609375 -0.100163 65 41 26
0.031250 0.609375 -0.101865 63 39 25
0.035156 0.609375 -0.103875 62 38 23
0.039062 0.609375 -0.105690 60 37 23
0.042969 0.609375 -0.107225 59 36 22
0.046875 0.609375 -0.108477 57 34 21
0.050781 0.609375 -0.109086 55 34 21
0.054688 0.609375 -0.109230 53 32 22
0.058594 0.609375 -0.109117 51 32 20
0.062500 0.609375 -0.108722 49 31 20
0.066406 0.609375 -0.108088 48 30 20
0.070312 0.609375 -0.107246 47 30 20
0.074219 0.609375 -0.106229 47 30 21
0.078125 0.609375 -0.105226 48 31 22
0.082031 0.609375 -0.104421 49 33 24
0.085938 0.609375 -0.103730 48 31 22
0.089844 0.609375 -0.103061 48 31 22
0.093750 0.609375 -0.102120 49 31 23
0.097656 0.609375 -0.100693 50 32 24
0.101562 0.609375 -0.098675 52 34 26
0.105469 0.609375 -0.096166 57 38 28
0.109375 0.609375 -0.093299 62 42 31
0.113281 0.609375 -0.090045 67 46 33
0.117188 0.609375 -0.086400 74 52 36
0.121094 0.609375 -0.082172 73 51 36
0.125000 0.609375 -0.077512 78 55 39
0.128906 0.609375 -0.071974 82 58 42
0.132812 0.609375 -0.065880 86 61 44
0.136719 0.609375 -0.059604 88 62 46
0.140625 0.609375 -0.053582 88 62 45
0.144531 0.609375 -0.048420 83 59 42
0.148438 0.609375 -0.043964 78 56 38
0.152344 0.609375 -0.040044 75 53 35
0.156250 0.609375 -0.036334 75 54 36
0.160156 0.609375 -0.033123 75 54 36
0.164062 0.609375 -0.030119 73 52 34
0.167969 0.609375 -0.027171 74 54 36
0.171875 0.609375 -0.024499 78 57 40
0.175781 0.609375 -0.022047 75 58 41
0.179688 0.609375 -0.019673 78 62 47
0.183594 0.609375 -0.017198 79 65 51
0.187500 0.609375 -0.014492 75 64 53
0.191406 0.609375 -0.010273 69 59 50
0.195312 0.609375 -0.004903 58 51 44
0.199219 0.609375 0.000169 48 42 38
0.203125 0.609375 0.004411 30 27 25
0.207031 0.609375 0.008689 17 15 15
0.210938 0.609375 0.012746 11 10 10
0.214844 0.609375 0.014395 4 3 4
0.218750 0.609375 0.016754 1 1 2
0.222656 0.609375 0.017594 11 10 10
-0.199219 0.605469 0.009524 54 46 46
-0.195312 0.605469 0.002162 63 53 52
-0.191406 0.605469 -0.000271 67 56 53
-0.187500 0.605469 -0.004275 67 55 52
-0.183594 0.605469 -0.006905 66 55 51
-0.179688 0.605469 -0.009003 63 53 49
-0.175781 0.605469 -0.011083 64 53 48
-0.171875 0.605469 -0.013067 75 60 51
-0.167969 0.605469 -0.014723 83 65 54
-0.164062 0.605469 -0.016662 85 65 52
-0.160156 0.605469 -0.019462 96 71 56
-0.156250 0.605469 -0.022594 106 79 61
-0.152344 0.605469 -0.026266 108 79 61
-0.148438 0.605469 -0.029969 111 81 63
-0.144531 0.605469 -0.033840 112 82 63
-0.140625 0.605469 -0.037350 113 83 63
-0.136719 0.605469 -0.040965 113 84 64
-0.132812 0.605469 -0.045106 114 84 64
-0.128906 0.605469 -0.048884 114 85 64
-0.125000 0.605469 -0.052459 115 85 65
-0.121094 0.605469 -0.056013 115 86 65
-0.117188 0.605469 -0.059628 114 85 64
-0.113281 0.605469 -0.063251 114 85 64
-0.109375 0.605469 -0.066826 114 85 65
-0.105469 0.605469 -0.069897 114 85 65
-0.101562 0.605469 -0.072517 114 86 66
-0.097656 0.605469 -0.074956 114 86 66
-0.093750 0.605469 -0.076965 114 87 67
-0.089844 0.605469 -0.079074 115 88 68
-0.085938 0.605469 -0.081252 119 90 70
-0.082031 0.605469 -0.083266 121 91 71
-0.078125 0.605469 -0.085395 126 93 72
-0.074219 0.605469 -0.087183 125 92 70
-0.070312 0.605469 -0.088796 124 90 69
-0.066406 0.605469 -0.090254 122 89 67
-0.062500 0.605469 -0.091286 120 87 66
-0.058594 0.605469 -0.092021 119 86 64
-0.054688 0.605469 -0.092446 117 84 63
-0.050781 0.605469 -0.092882 115 82 61
-0.046875 0.605469 -0.093220 112 80 59
-0.042969 0.605469 -0.093427 110 78 57
-0.039062 0.605469 -0.093442 107 76 55
-0.035156 0.605469 -0.093619 104 73 53
-0.031250 0.605469 -0.093971 101 70 51
-0.027344 0.605469 -0.094040 98 68 48
-0.023438 0.605469 -0.094112 95 65 46
-0.019531 0.605469 -0.093755 92 62 43
-0.015625 0.605469 -0.093078 89 60 41
-0.011719 0.605469 -0.092266 86 57 38
-0.007812 0.605469 -0.091356 83 55 36
-0.003906 0.605469 -0.090658 81 53 34
0.000000 0.605469 -0.090340 79 50 32
0.003906 0.605469 -0.090677 78 50 33
0.007812 0.605469 -0.091730 74 47 31
0.011719 0.605469 -0.093157 71 46 27
0.015625 0.605469 -0.095015 69 43 27
0.019531 0.605469 -0.096945 68 42 26
0.023438 0.605469 -0.098953 68 42 26
0.027344 0.605469 -0.101155 65 40 25
0.031250 0.605469 -0.103223 63 39 24
0.035156 0.605469 -0.105668 62 38 25
0.039062 0.605469 -0.107940 60 37 24
0.042969 0.605469 -0.109821 58 36 23
0.046875 0.605469 -0.111375 56 34 22
0.050781 0.605469 -0.112161 55 33 23
0.054688 0.605469 -0.112408 53 33 20
0.058594 0.605469 -0.112489 52 31 21
0.062500 0.605469 -0.112297 48 30 21
0.066406 0.605469 -0.111855 50 31 21
0.070312 0.605469 -0.111119 48 30 21
0.074219 0.605469 -0.110113 48 31 22
0.078125 0.605469 -0.108957 48 31 22
0.082031 0.605469 -0.107923 48 31 22
0.085938 0.605469 -0.107038 50 32 24
0.089844 0.605469 -0.106018 50 33 24
0.093750 0.605469 -0.104754 50 33 25
0.097656 0.605469 -0.102860 51 33 25
0.101562 0.605469 -0.100340 54 35 26
0.105469 0.605469 -0.097285 58 39 29
0.109375 0.605469 -0.093816 64 43 30
0.113281 0.605469 -0.089976 66 45 33
0.117188 0.605469 -0.085642 71 50 36
0.121094 0.605469 -0.080735 73 51 36
0.125000 0.605469 -0.075310 77 54 39
0.128906 0.605469 -0.069129 80 57 41
0.132812 0.605469 -0.062462 84 59 43
0.136719 0.605469 -0.055783 86 61 45
0.140625 0.605469 -0.049831 86 61 45
0.144531 0.605469 -0.044878 83 59 42
0.148438 0.605469 -0.040867 78 56 39
0.152344 0.605469 -0.037369 77 55 37
0.156250 0.605469 -0.034037 75 53 36
0.160156 0.605469 -0.031288 76 55 36
0.164062 0.605469 -0.028693 75 54 36
0.167969 0.605469 -0.026037 77 55 37
0.171875 0.605469 -0.023657 76 57 40
0.175781 0.605469 -0.021441 75 57 40
0.179688 0.605469 -0.019159 78 61 45
0.183594 0.605469 -0.016721 77 63 49
0.187500 0.605469 -0.014054 75 63 51
0.191406 0.605469 -0.009972 70 59 50
0.195312 0.605469 -0.004615 59 51 43
0.199219 0.605469 0.000674 36 31 27
0.203125 0.605469 0.005296 23 20 18
0.207031 0.605469 0.009879 17 15 15
0.210938 0.605469 0.013785 7 6 7
0.214844 0.605469 0.015035 2 2 2
0.218750 0.605469 0.020766 1 1 1
-0.195312 0.601562 0.006640 70 58 54
-0.191406 0.601562 0.001336 71 60 55
-0.187500 0.601562 -0.002438 68 56 52
-0.183594 0.601562 -0.005065 65 54 50
-0.179688 0.601562 -0.007375 60 51 47
-0.175781 0.601562 -0.009685 55 47 44
-0.171875 0.601562 -0.012251 52 44 41
-0.167969 0.601562 -0.014370 59 48 42
-0.164062 0.601562 -0.016616 73 57 48
-0.160156 0.601562 -0.019586 75 58 47
-0.156250 0.601562 -0.022772 74 56 45
-0.152344 0.601562 -0.026424 86 64 50
-0.148438 0.601562 -0.029931 89 66 51
-0.144531 0.601562 -0.033713 91 67 52
-0.140625 0.601562 -0.037186 96 71 55
-0.136719 0.601562 -0.040786 103 77 59
-0.132812 0.601562 -0.044851 105 78 60
-0.128906 0.601562 -0.048486 106 79 61
-0.125000 0.601562 -0.051873 108 81 62
-0.121094 0.601562 -0.055254 108 81 62
-0.117188 0.601562 -0.058631 108 81 62
-0.113281 0.601562 -0.062068 108 81 64
-0.109375 0.601562 -0.065533 108 81 63
-0.105469 0.601562 -0.068467 108 82 63
-0.101562 0.601562 -0.071086 108 82 64
-0.097656 0.601562 -0.073528 108 83 64
-0.093750 0.601562 -0.075529 108 83 65
-0.089844 0.601562 -0.077732 109 84 66
-0.085938 0.601562 -0.079894 113 86 67
-0.082031 0.601562 -0.081879 113 85 66
-0.078125 0.601562 -0.083925 124 91 70
-0.074219 0.601562 -0.085608 124 90 69
-0.070312 0.601562 -0.087141 122 89 68
-0.066406 0.601562 -0.088494 121 88 66
-0.062500 0.601562 -0.089452 119 86 65
-0.058594 0.601562 -0.090059 117 85 63
-0.054688 0.601562 -0.090367 115 83 62
-0.050781 0.601562 -0.090700 113 81 60
-0.046875 0.601562 -0.090838 111 79 58
-0.042969 0.601562 -0.090808 108 77 56
-0.039062 0.601562 -0.090463 106 74 54
-0.035156 0.601562 -0.090175 103 72 52
-0.031250 0.601562 -0.090310 100 69 50
-0.027344 0.601562 -0.090216 97 67 47
-0.023438 0.601562 -0.090276 94 64 45
-0.019531 0.601562 -0.089944 91 61 42
-0.015625 0.601562 -0.089354 88 59 40
-0.011719 0.601562 -0.088713 86 57 38
-0.007812 0.601562 -0.087926 83 54 36
-0.003906 0.601562 -0.087541 81 52 33
0.000000 0.601562 -0.087630 79 51 34
0.003906 0.601562 -0.088495 77 50 31
0.007812 0.601562 -0.090200 74 46 29
0.011719 0.601562 -0.092263 72 44 29
0.015625 0.601562 -0.094746 71 45 29
0.019531 0.601562 -0.097251 68 43 27
0.023438 0.601562 -0.099792 67 43 27
0.027344 0.601562 -0.102528 65 40 26
0.031250 0.601562 -0.105077 63 39 25
0.035156 0.601562 -0.108053 61 38 23
0.039062 0.601562 -0.110727 59 36 22
0.042969 0.601562 -0.112874 58 35 23
0.046875 0.601562 -0.114677 56 35 21
0.050781 0.601562 -0.115613 54 33 21
0.054688 0.601562 -0.115997 52 32 22
0.058594 0.601562 -0.116271 50 32 21
0.062500 0.601562 -0.116230 50 31 21
0.066406 0.601562 -0.115959 49 31 21
0.070312 0.601562 -0.115290 48 31 22
0.074219 0.601562 -0.114330 48 31 22
0.078125 0.601562 -0.113062 49 31 22
0.082031 0.601562 -0.111715 49 32 24
0.085938 0.601562 -0.110472 48 31 22
0.089844 0.601562 -0.108823 49 32 23
0.093750 0.601562 -0.107008 51 33 24
0.097656 0.601562 -0.104280 52 34 25
0.101562 0.601562 -0.100826 55 36 27
0.105469 0.601562 -0.096738 58 39 29
0.109375 0.601562 -0.092084 62 42 32
0.113281 0.601562 -0.087404 67 46 33
0.117188 0.601562 -0.082409 72 50 36
0.121094 0.601562 -0.077078 72 50 36
0.125000 0.601562 -0.071213 76 53 39
0.128906 0.601562 -0.064379 79 56 40
0.132812 0.601562 -0.056875 82 58 42
0.136719 0.601562 -0.050087 84 60 44
0.140625 0.601562 -0.044493 85 60 44
0.144531 0.601562 -0.040032 82 58 41
0.148438 0.601562 -0.036594 77 55 38
0.152344 0.601562 -0.033577 77 55 37
0.156250 0.601562 -0.030751 75 55 36
0.160156 0.601562 -0.028442 75 55 37
0.164062 0.601562 -0.026228 75 55 37
0.167969 0.601562 -0.023992 75 56 38
0.171875 0.601562 -0.022039 77 57 40
0.175781 0.601562 -0.020122 76 57 42
0.179688 0.601562 -0.017969 77 60 44
0.183594 0.601562 -0.015608 77 62 47
0.187500 0.601562 -0.012967 75 62 49
0.191406 0.601562 -0.008979 57 48 39
0.195312 0.601562 -0.004033 41 35 29
0.199219 0.601562 0.001256 32 28 24
0.203125 0.601562 0.006715 15 13 12
0.207031 0.601562 0.010811 6 5 5
0.210938 0.601562 0.014423 1 1 1
0.214844 0.601562 0.017016 2 2 2
0.218750 0.601562 0.018545 2 2 3
-0.195312 0.597656 0.015794 61 52 52
-0.191406 0.597656 0.004231 73 59 54
-0.187500 0.597656 -0.000795 68 56 52
-0.183594 0.597656 -0.002878 61 52 48
-0.179688 0.597656 -0.005639 55 47 44
-0.175781 0.597656 -0.007826 49 42 40
-0.171875 0.597656 -0.010583 43 37 36
-0.167969 0.597656 -0.013153 37 32 31
-0.164062 0.597656 -0.015780 34 29 28
-0.160156 0.597656 -0.019068 44 36 31
-0.156250 0.597656 -0.022357 47 37 31
-0.152344 0.597656 -0.026031 57 44 37
-0.148438 0.597656 -0.029552 59 45 37
-0.144531 0.597656 -0.033319 67 51 41
-0.140625 0.597656 -0.036772 72 55 44
-0.136719 0.597656 -0.040358 75 57 46
-0.132812 0.597656 -0.044355 83 63 50
-0.128906 0.597656 -0.047852 87 66 52
-0.125000 0.597656 -0.051070 85 65 52
-0.121094 0.597656 -0.054207 87 67 53
-0.117188 0.597656 -0.057269 89 68 54
-0.113281 0.597656 -0.060504 90 70 55
-0.109375 0.597656 -0.063839 91 71 56
-0.105469 0.597656 -0.066765 92 71 57
-0.101562 0.597656 -0.069557 93 72 58
-0.097656 0.597656 -0.072113 93 73 59
-0.093750 0.597656 -0.074276 94 73 59
-0.089844 0.597656 -0.076591 95 74 60
-0.085938 0.597656 -0.078729 103 79 62
-0.082031 0.597656 -0.080680 103 78 62
-0.078125 0.597656 -0.082581 116 86 67
-0.074219 0.597656 -0.084115 122 89 68
-0.070312 0.597656 -0.085400 121 88 66
-0.066406 0.597656 -0.086540 119 87 65
-0.062500 0.597656 -0.087346 118 85 64
-0.058594 0.597656 -0.087812 116 83 62
-0.054688 0.597656 -0.088011 114 82 60
-0.050781 0.597656 -0.088115 112 80 59
-0.046875 0.597656 -0.087995 109 78 57
-0.042969 0.597656 -0.087607 107 75 55
-0.039062 0.597656 -0.086825 104 73 53
-0.035156 0.597656 -0.085954 102 71 51
-0.031250 0.597656 -0.085616 99 68 49
-0.027344 0.597656 -0.085190 96 66 46
-0.023438 0.597656 -0.085024 93 63 44
-0.019531 0.597656 -0.084609 91 61 42
-0.015625 0.597656 -0.084058 88 59 40
-0.011719 0.597656 -0.083556 85 56 38
-0.007812 0.597656 -0.082932 83 54 35
-0.003906 0.597656 -0.082890 81 53 35
0.000000 0.597656 -0.083394 78 50 32
0.003906 0.597656 -0.084789 77 49 31
0.007812 0.597656 -0.087118 74 47 31
0.011719 0.597656 -0.089795 71 46 28
0.015625 0.597656 -0.092847 69 43 27
0.019531 0.597656 -0.095899 68 42 26
0.023438 0.597656 -0.099117 67 41 26
0.027344 0.597656 -0.102509 64 40 25
0.031250 0.597656 -0.105643 62 39 24
0.035156 0.597656 -0.109193 61 37 25
0.039062 0.597656 -0.112366 59 37 24
0.042969 0.597656 -0.114905 57 35 22
0.046875 0.597656 -0.117032 55 34 23
0.050781 0.597656 -0.118195 54 32 23
0.054688 0.597656 -0.118653 52 34 21
0.058594 0.597656 -0.119017 52 31 21
0.062500 0.597656 -0.118964 49 31 22
0.066406 0.597656 -0.118732 49 31 22
0.070312 0.597656 -0.118069 49 31 22
0.074219 0.597656 -0.117191 49 31 23
0.078125 0.597656 -0.115990 49 32 23
0.082031 0.597656 -0.114426 49 32 23
0.085938 0.597656 -0.112882 50 33 25
0.089844 0.597656 -0.110544 50 33 24
0.093750 0.597656 -0.107941 51 33 25
0.097656 0.597656 -0.103847 53 35 26
0.101562 0.597656 -0.098817 56 37 27
0.105469 0.597656 -0.093351 59 40 29
0.109375 0.597656 -0.087549 63 43 31
0.113281 0.597656 -0.081838 66 45 32
0.117188 0.597656 -0.075631 71 49 36
0.121094 0.597656 -0.069103 72 50 36
0.125000 0.597656 -0.062142 75 53 38
0.128906 0.597656 -0.055061 78 55 40
0.132812 0.597656 -0.048319 81 57 42
0.136719 0.597656 -0.042676 83 59 43
0.140625 0.597656 -0.038249 84 59 43
0.144531 0.597656 -0.034682 81 58 41
0.148438 0.597656 -0.031891 79 57 38
0.152344 0.597656 -0.029343 76 55 38
0.156250 0.597656 -0.027019 76 55 37
0.160156 0.597656 -0.025119 76 55 38
0.164062 0.597656 -0.023268 76 55 37
0.167969 0.597656 -0.021537 76 56 39
0.171875 0.597656 -0.020074 76 58 41
0.175781 0.597656 -0.018469 76 58 41
0.179688 0.597656 -0.016425 77 60 44
0.183594 0.597656 -0.014085 70 55 42
0.187500 0.597656 -0.011207 51 41 32
0.191406 0.597656 -0.007055 38 31 25
0.195312 0.597656 -0.002168 30 26 22
0.199219 0.597656 0.003140 13 11 10
0.203125 0.597656 0.008600 2 2 2
0.207031 0.597656 0.012465 1 15 15
0.210938 0.597656 0.016442 2 2 2
0.214844 0.597656 0.023662 4 3 4
-0.191406 0.593750 0.011632 67 56 53
-0.187500 0.593750 0.002218 62 52 48
-0.183594 0.593750 -0.000816 55 48 45
-0.179688 0.593750 -0.002687 48 42 40
-0.175781 0.593750 -0.004967 41 36 35
-0.171875 0.593750 -0.008031 35 31 30
-0.167969 0.593750 -0.010634 29 25 25
-0.164062 0.593750 -0.013871 23 21 20
-0.160156 0.593750 -0.017706 20 18 17
-0.156250 0.593750 -0.021191 25 21 19
-0.152344 0.593750 -0.024995 27 23 20
-0.148438 0.593750 -0.028639 33 27 23
-0.144531 0.593750 -0.032416 37 30 26
-0.140625 0.593750 -0.035920 42 34 29
-0.136719 0.593750 -0.039561 53 42 35
-0.132812 0.593750 -0.043538 58 47 39
-0.128906 0.593750 -0.046992 63 51 42
-0.125000 0.593750 -0.050135 67 54 45
-0.121094 0.593750 -0.053090 71 57 48
-0.117188 0.593750 -0.055914 73 59 50
-0.113281 0.593750 -0.058942 75 61 51
-0.109375 0.593750 -0.062056 77 62 53
-0.105469 0.593750 -0.064895 78 63 53
-0.101562 0.593750 -0.067692 80 64 54
-0.097656 0.593750 -0.070290 80 65 55
-0.093750 0.593750 -0.072645 81 66 55
-0.089844 0.593750 -0.075152 82 66 56
-0.085938 0.593750 -0.077464 85 68 57
-0.082031 0.593750 -0.079536 96 74 60
-0.078125 0.593750 -0.081453 102 77 61
-0.074219 0.593750 -0.082894 116 85 65
-0.070312 0.593750 -0.083886 120 87 65
-0.066406 0.593750 -0.084751 118 85 64
-0.062500 0.593750 -0.085309 116 84 63
-0.058594 0.593750 -0.085565 114 82 61
-0.054688 0.593750 -0.085530 112 80 59
-0.050781 0.593750 -0.085487 110 78 58
-0.046875 0.593750 -0.085128 108 76 56
-0.042969 0.593750 -0.084105 106 74 54
-0.039062 0.593750 -0.082598 103 72 52
-0.035156 0.593750 -0.080938 100 70 50
-0.031250 0.593750 -0.080011 98 67 48
-0.027344 0.593750 -0.079158 95 65 46
-0.023438 0.593750 -0.078517 92 62 43
-0.019531 0.593750 -0.077810 90 60 41
-0.015625 0.593750 -0.077144 87 58 39
-0.011719 0.593750 -0.076703 85 56 37
-0.007812 0.593750 -0.076341 82 54 36
-0.003906 0.593750 -0.076709 80 52 34
0.000000 0.593750 -0.077667 78 50 32
0.003906 0.593750 -0.079693 77 50 33
0.007812 0.593750 -0.082778 73 46 29
0.011719 0.593750 -0.086201 71 44 28
0.015625 0.593750 -0.090020 70 44 29
0.019531 0.593750 -0.093874 68 43 27
0.023438 0.593750 -0.097945 67 42 27
0.027344 0.593750 -0.102176 64 40 25
0.031250 0.593750 -0.106403 62 38 25
0.035156 0.593750 -0.110742 60 37 23
0.039062 0.593750 -0.114655 59 36 22
0.042969 0.593750 -0.117886 57 35 23
0.046875 0.593750 -0.120032 55 34 22
0.050781 0.593750 -0.121410 54 34 21
0.054688 0.593750 -0.121911 52 32 22
0.058594 0.593750 -0.122318 50 32 22
0.062500 0.593750 -0.122355 50 32 22
0.066406 0.593750 -0.121871 50 31 22
0.070312 0.593750 -0.120865 49 32 22
0.074219 0.593750 -0.119216 49 32 23
0.078125 0.593750 -0.117129 49 32 23
0.082031 0.593750 -0.114346 50 32 24
0.085938 0.593750 -0.111547 50 32 23
0.089844 0.593750 -0.107982 51 33 24
0.093750 0.593750 -0.103863 52 34 25
0.097656 0.593750 -0.098367 54 36 26
0.101562 0.593750 -0.091437 56 37 28
0.105469 0.593750 -0.083838 60 40 29
0.109375 0.593750 -0.076692 63 42 33
0.113281 0.593750 -0.069612 66 46 33
0.117188 0.593750 -0.062437 71 49 35
0.121094 0.593750 -0.055755 72 50 36
0.125000 0.593750 -0.049405 75 52 38
0.128906 0.593750 -0.044083 77 54 39
0.132812 0.593750 -0.039606 80 56 41
0.136719 0.593750 -0.035399 82 58 42
0.140625 0.593750 -0.031809 83 59 42
0.144531 0.593750 -0.028918 79 57 40
0.148438 0.593750 -0.026777 77 56 39
0.152344 0.593750 -0.024483 77 56 38
0.156250 0.593750 -0.022470 76 55 38
0.160156 0.593750 -0.021065 76 56 38
0.164062 0.593750 -0.019642 76 56 38
0.167969 0.593750 -0.018376 76 56 39
0.171875 0.593750 -0.017233 78 57 41
0.175781 0.593750 -0.015776 69 52 37
0.179688 0.593750 -0.014020 57 44 32
0.183594 0.593750 -0.011739 43 34 25
0.187500 0.593750 -0.008585 36 29 22
0.191406 0.593750 -0.004420 23 18 14
0.195312 0.593750 0.000526 9 7 6
0.199219 0.593750 0.005915 1 2 2
0.203125 0.593750 0.010773 23 20 18
0.207031 0.593750 0.015275 1 15 15
0.210938 0.593750 0.023362 7 6 7
-0.191406 0.589844 0.022933 71 60 55
-0.187500 0.589844 0.010727 68 56 52
-0.183594 0.589844 0.004778 46 41 40
-0.179688 0.589844 0.001756 39 35 35
-0.175781 0.589844 -0.001200 32 29 29
-0.171875 0.589844 -0.005403 26 23 23
-0.167969 0.589844 -0.008201 20 18 18
-0.164062 0.589844 -0.011691 16 15 14
-0.160156 0.589844 -0.015652 16 14 13
-0.156250 0.589844 -0.019617 18 16 15
-0.152344 0.589844 -0.023665 21 18 16
-0.148438 0.589844 -0.027382 26 22 19
-0.144531 0.589844 -0.031217 32 27 23
-0.140625 0.589844 -0.034885 37 32 27
-0.136719 0.589844 -0.038683 44 37 32
-0.132812 0.589844 -0.042703 49 42 36
-0.128906 0.589844 -0.046132 55 46 40
-0.125000 0.589844 -0.049164 60 50 43
-0.121094 0.589844 -0.051943 63 53 46
-0.117188 0.589844 -0.054517 66 55 48
-0.113281 0.589844 -0.057245 68 57 49
-0.109375 0.589844 -0.060032 70 58 50
-0.105469 0.589844 -0.062619 71 59 51
-0.101562 0.589844 -0.065327 72 60 52
-0.097656 0.589844 -0.067964 73 60 52
-0.093750 0.589844 -0.070440 74 61 52
-0.089844 0.589844 -0.073165 75 61 53
-0.085938 0.589844 -0.075662 75 62 53
-0.082031 0.589844 -0.077854 86 68 57
-0.078125 0.589844 -0.079767 98 75 60
-0.074219 0.589844 -0.081048 102 76 60
-0.070312 0.589844 -0.081777 118 86 64
-0.066406 0.589844 -0.082342 117 84 63
-0.062500 0.589844 -0.082614 115 83 62
-0.058594 0.589844 -0.082579 113 81 60
-0.054688 0.589844 -0.082413 111 79 58
-0.050781 0.589844 -0.082335 109 77 57
-0.046875 0.589844 -0.081692 107 75 55
-0.042969 0.589844 -0.080196 104 73 53
-0.039062 0.589844 -0.078188 102 71 51
-0.035156 0.589844 -0.075823 99 69 49
-0.031250 0.589844 -0.074293 97 66 47
-0.027344 0.589844 -0.072814 94 64 45
-0.023438 0.589844 -0.071238 92 62 43
-0.019531 0.589844 -0.070042 89 60 41
-0.015625 0.589844 -0.069207 87 58 39
-0.011719 0.589844 -0.068772 84 55 37
-0.007812 0.589844 -0.068614 82 54 35
-0.003906 0.589844 -0.069162 80 52 35
0.000000 0.589844 -0.070268 78 50 32
0.003906 0.589844 -0.072953 76 48 31
0.007812 0.589844 -0.077042 73 46 29
0.011719 0.589844 -0.081306 72 46 30
0.015625 0.589844 -0.085925 69 43 27
0.019531 0.589844 -0.090501 68 42 26
0.023438 0.589844 -0.095279 66 41 25
0.027344 0.589844 -0.100307 63 39 25
0.031250 0.589844 -0.105833 62 38 24
0.035156 0.589844 -0.111277 60 37 24
0.039062 0.589844 -0.115866 58 36 24
0.042969 0.589844 -0.119766 56 34 24
0.046875 0.589844 -0.121600 55 35 21
0.050781 0.589844 -0.123202 53 32 23
0.054688 0.589844 -0.123726 51 33 22
0.058594 0.589844 -0.123879 52 32 22
0.062500 0.589844 -0.123992 50 32 22
0.066406 0.589844 -0.122856 50 32 23
0.070312 0.589844 -0.121257 49 32 23
0.074219 0.589844 -0.118223 50 32 24
0.078125 0.589844 -0.114729 50 32 23
0.082031 0.589844 -0.110485 50 33 24
0.085938 0.589844 -0.105717 50 33 25
0.089844 0.589844 -0.098882 51 34 25
0.093750 0.589844 -0.088853 53 34 26
0.097656 0.589844 -0.077870 54 36 27
0.101562 0.589844 -0.067759 57 38 28
0.105469 0.589844 -0.061571 60 41 29
0.109375 0.589844 -0.058103 63 43 31
0.113281 0.589844 -0.053986 66 45 33
0.117188 0.589844 -0.050168 70 48 36
0.121094 0.589844 -0.046634 71 50 36
0.125000 0.589844 -0.043348 74 52 37
0.128906 0.589844 -0.039269 76 54 39
0.132812 0.589844 -0.034919 79 56 40
0.136719 0.589844 -0.030787 81 57 41
0.140625 0.589844 -0.027178 82 58 42
0.144531 0.589844 -0.024278 79 56 39
0.148438 0.589844 -0.021773 78 57 38
0.152344 0.589844 -0.019196 76 54 38
0.156250 0.589844 -0.017480 75 54 37
0.160156 0.589844 -0.016803 75 55 37
0.164062 0.589844 -0.015964 72 53 37
0.167969 0.589844 -0.015119 63 47 32
0.171875 0.589844 -0.014291 58 43 31
0.175781 0.589844 -0.012782 45 34 24
0.179688 0.589844 -0.010807 41 31 23
0.183594 0.589844 -0.008065 31 24 18
0.187500 0.589844 -0.004531 16 13 10
0.191406 0.589844 -0.000996 1 2 2
0.195312 0.589844 0.004214 1 1 1
0.199219 0.589844 0.010460 2 1 1
0.203125 0.589844 0.015145 2 13 12
0.207031 0.589844 0.025180 6 2 2
-0.183594 0.585938 0.021258 61 52 48
-0.179688 0.585938 0.012574 29 27 28
-0.175781 0.585938 0.003703 22 20 21
-0.171875 0.585938 -0.000255 16 14 15
-0.167969 0.585938 -0.004288 12 11 11
-0.164062 0.585938 -0.008916 12 11 10
-0.160156 0.585938 -0.013167 14 12 11
-0.156250 0.585938 -0.017588 18 15 13
-0.152344 0.585938 -0.021874 23 19 16
-0.148438 0.585938 -0.025750 29 24 21
-0.144531 0.585938 -0.029698 35 30 25
-0.140625 0.585938 -0.033479 42 35 30
-0.136719 0.585938 -0.037376 49 41 35
-0.132812 0.585938 -0.041455 54 46 39
-0.128906 0.585938 -0.044918 59 49 43
-0.125000 0.585938 -0.047892 63 52 45
-0.121094 0.585938 -0.050561 65 55 48
-0.117188 0.585938 -0.052955 67 56 49
-0.113281 0.585938 -0.055464 69 57 50
-0.109375 0.585938 -0.058112 70 58 51
-0.105469 0.585938 -0.060611 70 59 51
-0.101562 0.585938 -0.063289 71 59 52
-0.097656 0.585938 -0.065992 72 60 52
-0.093750 0.585938 -0.068527 72 59 53
-0.089844 0.585938 -0.071330 73 60 52
-0.085938 0.585938 -0.073918 74 59 53
-0.082031 0.585938 -0.076173 75 61 52
-0.078125 0.585938 -0.078025 85 66 55
-0.074219 0.585938 -0.079155 97 73 59
-0.070312 0.585938 -0.079685 106 78 60
-0.066406 0.585938 -0.080051 116 83 62
-0.062500 0.585938 -0.080094 114 82 61
-0.058594 0.585938 -0.079878 112 80 59
-0.054688 0.585938 -0.079548 110 78 57
-0.050781 0.585938 -0.079063 108 76 56
-0.046875 0.585938 -0.077844 105 74 54
-0.042969 0.585938 -0.075811 103 72 52
-0.039062 0.585938 -0.073502 101 70 50
-0.035156 0.585938 -0.070797 98 68 48
-0.031250 0.585938 -0.068683 96 65 46
-0.027344 0.585938 -0.066592 93 63 44
-0.023438 0.585938 -0.064290 91 61 42
-0.019531 0.585938 -0.062607 89 59 40
-0.015625 0.585938 -0.061563 86 57 39
-0.011719 0.585938 -0.060985 84 55 37
-0.007812 0.585938 -0.060776 82 54 36
-0.003906 0.585938 -0.061043 80 51 33
0.000000 0.585938 -0.061623 78 50 32
0.003906 0.585938 -0.063995 76 49 33
0.007812 0.585938 -0.068045 73 46 30
0.011719 0.585938 -0.072556 71 44 28
0.015625 0.585938 -0.077668 69 44 27
0.019531 0.585938 -0.082605 67 42 28
0.023438 0.585938 -0.087660 66 41 27
0.027344 0.585938 -0.093773 63 39 25
0.031250 0.585938 -0.101131 61 38 25
0.035156 0.585938 -0.109117 60 37 24
0.039062 0.585938 -0.115117 58 35 22
0.042969 0.585938 -0.118992 56 36 22
0.046875 0.585938 -0.120692 55 33 23
0.050781 0.585938 -0.122328 53 34 22
0.054688 0.585938 -0.122817 53 33 22
0.058594 0.585938 -0.122486 50 32 22
0.062500 0.585938 -0.122381 50 32 23
0.066406 0.585938 -0.121208 50 32 23
0.070312 0.585938 -0.119928 50 32 23
0.074219 0.585938 -0.115437 50 32 23
0.078125 0.585938 -0.105453 50 33 24
0.082031 0.585938 -0.091447 51 33 25
0.085938 0.585938 -0.076634 51 33 24
0.089844 0.585938 -0.065530 52 34 25
0.093750 0.585938 -0.059255 53 35 26
0.097656 0.585938 -0.055892 55 37 27
0.101562 0.585938 -0.053809 57 38 28
0.105469 0.585938 -0.052272 60 40 31
0.109375 0.585938 -0.050912 63 43 32
0.113281 0.585938 -0.048625 66 46 32
0.117188 0.585938 -0.046114 70 49 35
0.121094 0.585938 -0.042995 71 49 36
0.125000 0.585938 -0.039527 74 51 37
0.128906 0.585938 -0.035403 76 53 39
0.132812 0.585938 -0.031174 78 55 40
0.136719 0.585938 -0.027230 80 56 41
0.140625 0.585938 -0.023578 68 48 35
0.144531 0.585938 -0.020503 70 50 35
0.148438 0.585938 -0.017621 68 49 34
0.152344 0.585938 -0.014484 66 48 33
0.156250 0.585938 -0.011750 58 42 29
0.160156 0.585938 -0.011062 54 39 27
0.164062 0.585938 -0.011388 50 37 25
0.167969 0.585938 -0.011263 42 32 22
0.171875 0.585938 -0.010659 35 27 19
0.175781 0.585938 -0.009172 30 23 17
0.179688 0.585938 -0.006489 16 12 10
0.183594 0.585938 -0.003012 1 1 42
0.187500 0.585938 0.000778 1 41 1
0.191406 0.585938 0.003932 2 2 2
0.195312 0.585938 0.009190 30 26 22
0.199219 0.585938 0.015875 2 2 2
0.203125 0.585938 0.025796 2 2 2
-0.175781 0.582031 0.019776 11 10 11
-0.171875 0.582031 0.008663 8 7 8
-0.167969 0.582031 0.000558 8 7 7
-0.164062 0.582031 -0.006013 10 9 8
-0.160156 0.582031 -0.011104 14 12 10
-0.156250 0.582031 -0.015766 19 16 14
-0.152344 0.582031 -0.020007 26 22 18
-0.148438 0.582031 -0.024017 33 28 23
-0.144531 0.582031 -0.027938 41 34 29
-0.140625 0.582031 -0.031755 48 40 35
-0.136719 0.582031 -0.035780 55 46 40
-0.132812 0.582031 -0.039967 60 50 43
-0.128906 0.582031 -0.043491 64 53 46
-0.125000 0.582031 -0.046460 66 55 48
-0.121094 0.582031 -0.049070 68 57 50
-0.117188 0.582031 -0.051329 69 58 51
-0.113281 0.582031 -0.053669 70 59 51
-0.109375 0.582031 -0.056207 70 59 52
-0.105469 0.582031 -0.058606 71 59 52
-0.101562 0.582031 -0.061131 71 59 51
-0.097656 0.582031 -0.063724 72 58 52
-0.093750 0.582031 -0.066231 72 61 51
-0.089844 0.582031 -0.069069 73 59 53
-0.085938 0.582031 -0.071811 73 61 51
-0.082031 0.582031 -0.074182 74 59 53
-0.078125 0.582031 -0.076065 78 62 52
-0.074219 0.582031 -0.077152 91 70 57
-0.070312 0.582031 -0.077532 98 72 57
-0.066406 0.582031 -0.077796 109 79 60
-0.062500 0.582031 -0.077773 113 81 60
-0.058594 0.582031 -0.077444 111 79 58
-0.054688 0.582031 -0.076775 109 77 56
-0.050781 0.582031 -0.075777 106 75 55
-0.046875 0.582031 -0.074098 104 73 53
-0.042969 0.582031 -0.071662 102 71 51
-0.039062 0.582031 -0.069144 100 69 49
-0.035156 0.582031 -0.066233 97 67 48
-0.031250 0.582031 -0.063765 95 65 46
-0.027344 0.582031 -0.061543 93 63 44
-0.023438 0.582031 -0.059331 90 61 42
-0.019531 0.582031 -0.057793 88 59 40
-0.015625 0.582031 -0.056969 86 57 38
