ply
    format ascii 1.0
    element vertex 72538
    property float x
    property float y
    property float z
    property uchar red
    property uchar green
    property uchar blue
    end_header
-0.074219 0.039062 0.109856 112 130 116
-0.070312 0.039062 0.109822 113 130 117
-0.066406 0.039062 0.109691 116 132 120
-0.062500 0.039062 0.109466 121 135 124
-0.058594 0.039062 0.109158 127 139 129
-0.054688 0.039062 0.108748 132 142 134
-0.050781 0.039062 0.108231 137 145 138
-0.046875 0.039062 0.107610 142 148 142
-0.042969 0.039062 0.106944 146 152 146
-0.039062 0.039062 0.106255 150 154 149
-0.035156 0.039062 0.105487 153 157 152
-0.031250 0.039062 0.104607 156 159 155
-0.027344 0.039062 0.103475 158 161 157
-0.023438 0.039062 0.102100 160 162 159
-0.019531 0.039062 0.100560 163 164 162
-0.015625 0.039062 0.098881 166 167 165
-0.011719 0.039062 0.097173 170 170 168
-0.007812 0.039062 0.095470 173 173 171
-0.003906 0.039062 0.093636 175 175 174
0.000000 0.039062 0.091657 177 176 175
0.003906 0.039062 0.089338 177 177 176
0.007812 0.039062 0.086593 177 176 175
0.011719 0.039062 0.083637 176 175 174
0.015625 0.039062 0.080614 174 172 171
0.019531 0.039062 0.077549 173 170 169
0.023438 0.039062 0.074489 173 169 168
0.027344 0.039062 0.071513 173 170 169
0.031250 0.039062 0.068663 175 171 170
0.035156 0.039062 0.065717 178 174 173
0.039062 0.039062 0.062412 181 178 177
0.042969 0.039062 0.058915 178 176 175
0.046875 0.039062 0.055195 169 168 167
0.050781 0.039062 0.051233 156 156 155
0.054688 0.039062 0.046934 142 141 140
0.058594 0.039062 0.042179 133 129 128
0.062500 0.039062 0.036474 132 118 118
0.066406 0.039062 0.029574 140 118 121
0.070312 0.039062 0.019177 155 161 143
0.074219 0.039062 -0.000881 53 124 49
-0.253906 0.035156 0.013480 69 68 70
-0.250000 0.035156 0.026808 83 82 83
-0.246094 0.035156 0.035276 117 116 116
-0.242188 0.035156 0.043936 140 139 140
-0.238281 0.035156 0.051419 155 154 155
-0.234375 0.035156 0.057628 158 157 159
-0.230469 0.035156 0.063128 150 149 150
-0.226562 0.035156 0.067768 140 140 139
-0.222656 0.035156 0.072097 136 138 136
-0.218750 0.035156 0.076232 135 138 134
-0.214844 0.035156 0.079610 135 138 134
-0.210938 0.035156 0.082279 136 140 135
-0.207031 0.035156 0.084670 137 141 136
-0.203125 0.035156 0.086926 137 141 136
-0.199219 0.035156 0.088759 137 142 136
-0.195312 0.035156 0.090070 137 141 136
-0.191406 0.035156 0.091274 136 142 138
-0.187500 0.035156 0.092365 136 142 139
-0.183594 0.035156 0.093529 138 145 140
-0.179688 0.035156 0.094898 139 147 141
-0.175781 0.035156 0.096146 139 149 142
-0.171875 0.035156 0.097299 137 149 140
-0.167969 0.035156 0.098373 134 148 137
-0.164062 0.035156 0.099344 132 147 134
-0.160156 0.035156 0.100275 130 147 132
-0.156250 0.035156 0.101154 131 148 132
-0.152344 0.035156 0.101995 133 151 134
-0.148438 0.035156 0.102778 135 154 136
-0.144531 0.035156 0.103528 139 157 139
-0.140625 0.035156 0.104256 142 160 142
-0.136719 0.035156 0.104864 146 164 147
-0.132812 0.035156 0.105329 151 168 152
-0.128906 0.035156 0.105748 156 171 157
-0.125000 0.035156 0.106130 161 175 162
-0.121094 0.035156 0.106479 166 179 167
-0.117188 0.035156 0.106793 169 181 170
-0.113281 0.035156 0.107098 169 181 170
-0.109375 0.035156 0.107380 167 179 168
-0.105469 0.035156 0.107711 163 175 164
-0.101562 0.035156 0.108134 158 170 159
-0.097656 0.035156 0.108539 152 165 153
-0.093750 0.035156 0.108912 146 160 147
-0.089844 0.035156 0.109263 139 154 141
-0.085938 0.035156 0.109579 134 150 136
-0.082031 0.035156 0.109850 129 146 132
-0.078125 0.035156 0.110047 126 143 129
-0.074219 0.035156 0.110139 124 141 127
-0.070312 0.035156 0.110110 124 141 127
-0.066406 0.035156 0.109983 126 142 128
-0.062500 0.035156 0.109770 130 144 131
-0.058594 0.035156 0.109473 134 147 135
-0.054688 0.035156 0.109069 138 150 139
-0.050781 0.035156 0.108552 142 152 143
-0.046875 0.035156 0.107927 146 155 146
-0.042969 0.035156 0.107252 150 157 150
-0.039062 0.035156 0.106546 153 159 153
-0.035156 0.035156 0.105756 156 161 155
-0.031250 0.035156 0.104854 159 163 157
-0.027344 0.035156 0.103711 161 164 159
-0.023438 0.035156 0.102338 162 164 160
-0.019531 0.035156 0.100803 164 165 162
-0.015625 0.035156 0.099140 167 168 165
-0.011719 0.035156 0.097460 171 172 169
-0.007812 0.035156 0.095804 175 175 173
-0.003906 0.035156 0.094042 178 178 177
0.000000 0.035156 0.092139 181 180 179
0.003906 0.035156 0.089880 182 181 180
0.007812 0.035156 0.087167 183 181 180
0.011719 0.035156 0.084233 182 181 180
0.015625 0.035156 0.081228 181 179 178
0.019531 0.035156 0.078176 180 177 176
0.023438 0.035156 0.075144 180 177 176
0.027344 0.035156 0.072189 181 177 176
0.031250 0.035156 0.069365 182 178 177
0.035156 0.035156 0.066414 185 182 181
0.039062 0.035156 0.063067 188 185 184
0.042969 0.035156 0.059521 185 184 183
0.046875 0.035156 0.055752 178 177 176
0.050781 0.035156 0.051792 166 165 164
0.054688 0.035156 0.047547 150 149 149
0.058594 0.035156 0.042936 141 137 136
0.062500 0.035156 0.037487 142 130 128
0.066406 0.035156 0.030966 155 132 134
0.070312 0.035156 0.021217 174 175 158
0.074219 0.035156 0.004552 91 162 79
-0.253906 0.031250 0.016034 65 64 65
-0.250000 0.031250 0.028641 83 82 83
-0.246094 0.031250 0.036921 120 119 120
-0.242188 0.031250 0.045344 146 145 146
-0.238281 0.031250 0.052621 161 160 161
-0.234375 0.031250 0.058616 165 163 165
-0.230469 0.031250 0.063875 157 155 157
-0.226562 0.031250 0.068249 148 147 146
-0.222656 0.031250 0.072307 143 142 141
-0.218750 0.031250 0.076198 144 143 141
-0.214844 0.031250 0.079423 145 146 144
-0.210938 0.031250 0.082036 147 149 146
-0.207031 0.031250 0.084384 149 151 147
-0.203125 0.031250 0.086618 149 150 145
-0.199219 0.031250 0.088450 147 149 144
-0.195312 0.031250 0.089776 145 147 141
-0.191406 0.031250 0.091014 143 147 145
-0.187500 0.031250 0.092149 141 145 142
-0.183594 0.031250 0.093354 139 145 141
-0.179688 0.031250 0.094758 142 148 144
-0.175781 0.031250 0.096041 142 149 143
-0.171875 0.031250 0.097232 141 150 142
-0.167969 0.031250 0.098344 139 150 141
-0.164062 0.031250 0.099353 139 151 140
-0.160156 0.031250 0.100323 139 154 140
-0.156250 0.031250 0.101238 141 157 142
-0.152344 0.031250 0.102114 143 160 144
-0.148438 0.031250 0.102934 145 163 146
-0.144531 0.031250 0.103720 148 166 149
-0.140625 0.031250 0.104483 152 169 152
-0.136719 0.031250 0.105127 156 172 156
-0.132812 0.031250 0.105625 160 176 160
-0.128906 0.031250 0.106074 164 178 164
-0.125000 0.031250 0.106480 168 181 168
-0.121094 0.031250 0.106851 171 184 172
-0.117188 0.031250 0.107179 174 186 174
-0.113281 0.031250 0.107494 174 185 175
-0.109375 0.031250 0.107781 172 183 172
-0.105469 0.031250 0.108103 167 178 168
-0.101562 0.031250 0.108501 162 174 163
-0.097656 0.031250 0.108880 157 169 158
-0.093750 0.031250 0.109223 152 165 153
-0.089844 0.031250 0.109551 147 161 148
-0.085938 0.031250 0.109855 143 158 144
-0.082031 0.031250 0.110115 140 155 140
-0.078125 0.031250 0.110297 137 153 138
-0.074219 0.031250 0.110381 135 151 136
-0.070312 0.031250 0.110350 135 151 136
-0.066406 0.031250 0.110223 136 152 137
-0.062500 0.031250 0.110012 139 154 139
-0.058594 0.031250 0.109715 142 156 142
-0.054688 0.031250 0.109307 146 158 145
-0.050781 0.031250 0.108789 149 160 148
-0.046875 0.031250 0.108159 152 162 151
-0.042969 0.031250 0.107473 155 163 153
-0.039062 0.031250 0.106751 157 165 156
-0.035156 0.031250 0.105940 159 165 158
-0.031250 0.031250 0.105020 161 166 159
-0.027344 0.031250 0.103875 162 166 160
-0.023438 0.031250 0.102519 163 166 160
-0.019531 0.031250 0.101011 164 166 162
-0.015625 0.031250 0.099383 167 168 165
-0.011719 0.031250 0.097745 172 173 170
-0.007812 0.031250 0.096146 177 177 175
-0.003906 0.031250 0.094465 181 181 179
0.000000 0.031250 0.092643 185 184 182
0.003906 0.031250 0.090452 186 186 184
0.007812 0.031250 0.087796 188 186 185
0.011719 0.031250 0.084913 188 187 185
0.015625 0.031250 0.081950 188 186 185
0.019531 0.031250 0.078929 188 185 184
0.023438 0.031250 0.075929 188 185 184
0.027344 0.031250 0.072983 189 186 184
0.031250 0.031250 0.070170 190 187 186
0.035156 0.031250 0.067187 193 190 189
0.039062 0.031250 0.063762 196 193 192
0.042969 0.031250 0.060129 193 192 191
0.046875 0.031250 0.056280 187 186 185
0.050781 0.031250 0.052290 177 176 175
0.054688 0.031250 0.048078 163 162 161
0.058594 0.031250 0.043602 154 152 150
0.062500 0.031250 0.038390 157 147 145
0.066406 0.031250 0.032288 172 151 152
0.070312 0.031250 0.023029 196 188 178
0.074219 0.031250 0.008421 142 190 121
-0.253906 0.027344 0.018952 75 73 75
-0.250000 0.027344 0.030449 91 89 90
-0.246094 0.027344 0.038664 128 127 128
-0.242188 0.027344 0.046817 155 153 155
-0.238281 0.027344 0.053884 169 167 169
-0.234375 0.027344 0.059716 173 171 173
-0.230469 0.027344 0.064730 166 164 166
-0.226562 0.027344 0.068827 157 156 156
-0.222656 0.027344 0.072607 153 153 153
-0.218750 0.027344 0.076246 154 154 153
-0.214844 0.027344 0.079309 156 156 155
-0.210938 0.027344 0.081851 158 159 156
-0.207031 0.027344 0.084149 159 160 157
-0.203125 0.027344 0.086353 158 160 156
-0.199219 0.027344 0.088170 156 158 154
-0.195312 0.027344 0.089497 153 155 151
-0.191406 0.027344 0.090753 150 153 151
-0.187500 0.027344 0.091921 148 151 149
-0.183594 0.027344 0.093161 147 151 148
-0.179688 0.027344 0.094604 147 151 148
-0.175781 0.027344 0.095932 147 152 148
-0.171875 0.027344 0.097167 147 154 148
-0.167969 0.027344 0.098320 148 156 149
-0.164062 0.027344 0.099368 149 158 149
-0.160156 0.027344 0.100374 150 162 151
-0.156250 0.027344 0.101324 152 165 152
-0.152344 0.027344 0.102234 154 168 154
-0.148438 0.027344 0.103092 156 170 156
-0.144531 0.027344 0.103918 158 173 158
-0.140625 0.027344 0.104720 161 176 161
-0.136719 0.027344 0.105407 165 180 165
-0.132812 0.027344 0.105946 169 183 168
-0.128906 0.027344 0.106431 172 185 171
-0.125000 0.027344 0.106864 175 187 174
-0.121094 0.027344 0.107257 178 189 177
-0.117188 0.027344 0.107599 180 191 179
-0.113281 0.027344 0.107920 180 190 179
-0.109375 0.027344 0.108212 178 188 177
-0.105469 0.027344 0.108525 173 183 173
-0.101562 0.027344 0.108900 168 179 167
-0.097656 0.027344 0.109251 163 174 162
-0.093750 0.027344 0.109563 159 171 158
-0.089844 0.027344 0.109863 154 167 154
-0.085938 0.027344 0.110149 150 164 150
-0.082031 0.027344 0.110390 147 161 146
-0.078125 0.027344 0.110552 144 159 144
-0.074219 0.027344 0.110618 143 158 142
-0.070312 0.027344 0.110578 142 158 142
-0.066406 0.027344 0.110443 144 159 143
-0.062500 0.027344 0.110230 146 160 145
-0.058594 0.027344 0.109931 148 162 147
-0.054688 0.027344 0.109517 151 164 150
-0.050781 0.027344 0.108992 154 165 152
-0.046875 0.027344 0.108355 156 166 154
-0.042969 0.027344 0.107658 158 167 156
-0.039062 0.027344 0.106917 160 168 158
-0.035156 0.027344 0.106090 161 168 159
-0.031250 0.027344 0.105155 162 167 159
-0.027344 0.027344 0.104017 163 167 160
-0.023438 0.027344 0.102685 163 166 160
-0.019531 0.027344 0.101212 164 166 161
-0.015625 0.027344 0.099630 167 169 164
-0.011719 0.027344 0.098045 173 174 170
-0.007812 0.027344 0.096514 179 179 176
-0.003906 0.027344 0.094906 184 183 181
0.000000 0.027344 0.093153 188 187 185
0.003906 0.027344 0.091038 191 190 188
0.007812 0.027344 0.088445 193 191 190
0.011719 0.027344 0.085617 194 193 191
0.015625 0.027344 0.082701 195 193 192
0.019531 0.027344 0.079711 195 193 192
0.023438 0.027344 0.076730 196 193 192
0.027344 0.027344 0.073786 197 194 193
0.031250 0.027344 0.070969 199 196 195
0.035156 0.027344 0.067938 202 199 198
0.039062 0.027344 0.064419 204 201 201
0.042969 0.027344 0.060690 202 200 200
0.046875 0.027344 0.056761 197 196 196
0.050781 0.027344 0.052742 189 188 188
0.054688 0.027344 0.048575 177 176 176
0.058594 0.027344 0.044244 169 167 166
0.062500 0.027344 0.039260 167 160 159
0.066406 0.027344 0.033564 177 160 161
0.070312 0.027344 0.024728 203 188 188
0.074219 0.027344 0.010938 172 194 158
-0.257812 0.023438 0.005105 93 92 95
-0.253906 0.023438 0.022542 110 109 110
-0.250000 0.023438 0.032373 111 110 111
-0.246094 0.023438 0.040500 142 140 142
-0.242188 0.023438 0.048308 165 163 165
-0.238281 0.023438 0.055129 178 176 178
-0.234375 0.023438 0.060811 183 181 183
-0.230469 0.023438 0.065589 176 174 176
-0.226562 0.023438 0.069420 168 167 167
-0.222656 0.023438 0.072925 165 165 165
-0.218750 0.023438 0.076315 165 165 164
-0.214844 0.023438 0.079213 166 166 165
-0.210938 0.023438 0.081682 167 167 165
-0.207031 0.023438 0.083935 166 166 164
-0.203125 0.023438 0.086113 165 165 162
-0.199219 0.023438 0.087917 162 163 159
-0.195312 0.023438 0.089241 159 160 156
-0.191406 0.023438 0.090511 155 157 156
-0.187500 0.023438 0.091706 153 155 154
-0.183594 0.023438 0.092980 152 155 153
-0.179688 0.023438 0.094463 152 155 153
-0.175781 0.023438 0.095834 152 156 153
-0.171875 0.023438 0.097111 154 159 155
-0.167969 0.023438 0.098305 156 162 157
-0.164062 0.023438 0.099393 157 164 158
-0.160156 0.023438 0.100436 158 166 159
-0.156250 0.023438 0.101421 160 168 160
-0.152344 0.023438 0.102366 160 170 160
-0.148438 0.023438 0.103266 161 172 161
-0.144531 0.023438 0.104132 163 175 163
-0.140625 0.023438 0.104976 166 178 165
-0.136719 0.023438 0.105707 169 181 169
-0.132812 0.023438 0.106284 172 184 171
-0.128906 0.023438 0.106804 175 186 174
-0.125000 0.023438 0.107260 177 188 176
-0.121094 0.023438 0.107670 180 190 179
-0.117188 0.023438 0.108016 181 191 180
-0.113281 0.023438 0.108334 182 190 180
-0.109375 0.023438 0.108618 180 188 178
-0.105469 0.023438 0.108912 175 184 173
-0.101562 0.023438 0.109255 169 178 168
-0.097656 0.023438 0.109572 164 174 162
-0.093750 0.023438 0.109850 160 170 158
-0.089844 0.023438 0.110120 156 167 154
-0.085938 0.023438 0.110389 152 164 150
-0.082031 0.023438 0.110612 149 162 147
-0.078125 0.023438 0.110755 147 160 145
-0.074219 0.023438 0.110811 146 160 145
-0.070312 0.023438 0.110769 147 160 145
-0.066406 0.023438 0.110635 148 162 146
-0.062500 0.023438 0.110427 149 163 147
-0.058594 0.023438 0.110133 152 165 149
-0.054688 0.023438 0.109721 154 167 152
-0.050781 0.023438 0.109200 156 168 154
-0.046875 0.023438 0.108567 158 169 155
-0.042969 0.023438 0.107868 160 169 157
-0.039062 0.023438 0.107122 161 169 158
-0.035156 0.023438 0.106287 162 169 158
-0.031250 0.023438 0.105349 163 167 159
-0.027344 0.023438 0.104222 163 166 159
-0.023438 0.023438 0.102917 163 166 159
-0.019531 0.023438 0.101480 164 166 160
-0.015625 0.023438 0.099945 168 168 164
-0.011719 0.023438 0.098413 174 174 170
-0.007812 0.023438 0.096927 180 180 177
-0.003906 0.023438 0.095377 186 185 183
0.000000 0.023438 0.093687 191 190 188
0.003906 0.023438 0.091641 194 193 191
0.007812 0.023438 0.089112 197 196 194
0.011719 0.023438 0.086342 200 198 197
0.015625 0.023438 0.083469 201 199 198
0.019531 0.023438 0.080502 202 200 199
0.023438 0.023438 0.077528 203 201 200
0.027344 0.023438 0.074573 205 203 202
0.031250 0.023438 0.071738 207 205 204
0.035156 0.023438 0.068647 210 208 207
0.039062 0.023438 0.065019 211 210 209
0.042969 0.023438 0.061186 210 209 208
0.046875 0.023438 0.057176 207 206 206
0.050781 0.023438 0.053133 202 201 201
0.054688 0.023438 0.048989 195 194 193
0.058594 0.023438 0.044765 190 189 188
0.062500 0.023438 0.040011 190 184 183
0.066406 0.023438 0.034618 200 186 187
0.070312 0.023438 0.026469 227 214 215
0.074219 0.023438 0.014426 225 229 216
-0.257812 0.019531 0.009287 134 133 135
-0.253906 0.019531 0.024507 137 135 137
-0.250000 0.019531 0.034176 132 131 132
-0.246094 0.019531 0.042212 157 156 157
-0.242188 0.019531 0.049736 177 174 176
-0.238281 0.019531 0.056360 187 185 187
-0.234375 0.019531 0.061909 191 189 191
-0.230469 0.019531 0.066465 186 184 186
-0.226562 0.019531 0.070045 180 178 179
-0.222656 0.019531 0.073290 177 177 177
-0.218750 0.019531 0.076438 177 176 175
-0.214844 0.019531 0.079162 177 176 175
-0.210938 0.019531 0.081541 177 176 175
-0.207031 0.019531 0.083736 175 175 174
-0.203125 0.019531 0.085881 173 173 170
-0.199219 0.019531 0.087665 170 170 168
-0.195312 0.019531 0.088979 167 167 165
-0.191406 0.019531 0.090262 164 164 164
-0.187500 0.019531 0.091488 161 162 161
-0.183594 0.019531 0.092799 160 162 161
-0.179688 0.019531 0.094325 160 162 160
-0.175781 0.019531 0.095742 161 163 161
-0.171875 0.019531 0.097067 163 166 163
-0.167969 0.019531 0.098300 165 169 166
-0.164062 0.019531 0.099428 166 170 167
-0.160156 0.019531 0.100507 167 172 167
-0.156250 0.019531 0.101521 167 172 167
-0.152344 0.019531 0.102495 167 173 166
-0.148438 0.019531 0.103430 167 174 166
-0.144531 0.019531 0.104332 168 176 167
-0.140625 0.019531 0.105208 170 179 169
-0.136719 0.019531 0.105974 173 182 171
-0.132812 0.019531 0.106583 175 184 173
-0.128906 0.019531 0.107130 177 185 175
-0.125000 0.019531 0.107604 178 187 177
-0.121094 0.019531 0.108021 180 188 179
-0.117188 0.019531 0.108362 182 189 180
-0.113281 0.019531 0.108663 182 189 180
-0.109375 0.019531 0.108928 180 187 177
-0.105469 0.019531 0.109192 174 182 172
-0.101562 0.019531 0.109492 168 176 166
-0.097656 0.019531 0.109766 163 171 160
-0.093750 0.019531 0.110003 158 167 155
-0.089844 0.019531 0.110237 154 163 151
-0.085938 0.019531 0.110484 151 161 148
-0.082031 0.019531 0.110691 149 160 146
-0.078125 0.019531 0.110822 148 159 145
-0.074219 0.019531 0.110878 148 160 145
-0.070312 0.019531 0.110848 149 161 146
-0.066406 0.019531 0.110730 151 163 148
-0.062500 0.019531 0.110544 153 165 149
-0.058594 0.019531 0.110269 155 167 151
-0.054688 0.019531 0.109872 157 169 153
-0.050781 0.019531 0.109367 160 170 155
-0.046875 0.019531 0.108748 161 171 157
-0.042969 0.019531 0.108058 163 171 158
-0.039062 0.019531 0.107318 164 171 159
-0.035156 0.019531 0.106482 164 170 160
-0.031250 0.019531 0.105551 165 169 160
-0.027344 0.019531 0.104444 165 168 160
-0.023438 0.019531 0.103170 165 167 160
-0.019531 0.019531 0.101772 166 167 161
-0.015625 0.019531 0.100275 169 170 165
-0.011719 0.019531 0.098780 175 175 171
-0.007812 0.019531 0.097330 182 182 178
-0.003906 0.019531 0.095825 188 187 185
0.000000 0.019531 0.094176 193 192 190
0.003906 0.019531 0.092176 198 196 194
0.007812 0.019531 0.089702 201 200 198
0.011719 0.019531 0.086989 204 203 201
0.015625 0.019531 0.084162 206 205 204
0.019531 0.019531 0.081212 208 207 206
0.023438 0.019531 0.078243 210 208 207
0.027344 0.019531 0.075271 212 210 209
0.031250 0.019531 0.072409 214 212 212
0.035156 0.019531 0.069250 216 215 214
0.039062 0.019531 0.065511 218 216 216
0.042969 0.019531 0.061566 217 216 215
0.046875 0.019531 0.057479 215 215 214
0.050781 0.019531 0.053421 213 212 212
0.054688 0.019531 0.049345 209 208 208
0.058594 0.019531 0.045221 206 205 204
0.062500 0.019531 0.040785 205 201 200
0.066406 0.019531 0.035705 211 201 201
0.070312 0.019531 0.028274 230 218 220
0.074219 0.019531 0.018458 236 234 231
0.078125 0.019531 -0.002225 155 193 146
-0.257812 0.015625 0.012694 142 141 143
-0.253906 0.015625 0.026164 148 147 148
-0.250000 0.015625 0.035848 146 145 146
-0.246094 0.015625 0.043785 168 167 168
-0.242188 0.015625 0.051144 184 183 183
-0.238281 0.015625 0.057596 193 191 192
-0.234375 0.015625 0.063000 196 195 195
-0.230469 0.015625 0.067348 193 191 192
-0.226562 0.015625 0.070696 189 187 188
-0.222656 0.015625 0.073703 187 186 187
-0.218750 0.015625 0.076626 186 185 186
-0.214844 0.015625 0.079179 186 185 186
-0.210938 0.015625 0.081462 185 185 185
-0.207031 0.015625 0.083595 184 183 184
-0.203125 0.015625 0.085697 182 182 181
-0.199219 0.015625 0.087453 180 180 178
-0.195312 0.015625 0.088747 177 178 176
-0.191406 0.015625 0.090029 175 175 175
-0.187500 0.015625 0.091275 173 173 173
-0.183594 0.015625 0.092614 172 173 172
-0.179688 0.015625 0.094174 172 173 172
-0.175781 0.015625 0.095630 173 174 173
-0.171875 0.015625 0.096998 175 176 175
-0.167969 0.015625 0.098273 176 178 176
-0.164062 0.015625 0.099442 177 179 177
-0.160156 0.015625 0.100560 176 179 176
-0.156250 0.015625 0.101608 176 179 175
-0.152344 0.015625 0.102616 174 178 174
-0.148438 0.015625 0.103589 173 178 173
-0.144531 0.015625 0.104528 174 179 173
-0.140625 0.015625 0.105436 175 180 174
-0.136719 0.015625 0.106232 176 182 175
-0.132812 0.015625 0.106866 177 184 176
-0.128906 0.015625 0.107433 178 185 177
-0.125000 0.015625 0.107915 179 186 178
-0.121094 0.015625 0.108330 181 187 179
-0.117188 0.015625 0.108655 181 187 179
-0.113281 0.015625 0.108929 181 186 178
-0.109375 0.015625 0.109162 178 184 176
-0.105469 0.015625 0.109386 173 178 170
-0.101562 0.015625 0.109638 166 172 163
-0.097656 0.015625 0.109865 160 166 157
-0.093750 0.015625 0.110058 155 162 152
-0.089844 0.015625 0.110258 151 159 148
-0.085938 0.015625 0.110487 149 156 145
-0.082031 0.015625 0.110683 147 156 144
-0.078125 0.015625 0.110813 147 156 144
-0.074219 0.015625 0.110879 148 158 144
-0.070312 0.015625 0.110874 150 160 146
-0.066406 0.015625 0.110789 152 162 147
-0.062500 0.015625 0.110640 154 164 149
-0.058594 0.015625 0.110399 156 166 151
-0.054688 0.015625 0.110034 158 168 153
-0.050781 0.015625 0.109561 160 169 155
-0.046875 0.015625 0.108974 162 170 157
-0.042969 0.015625 0.108309 164 171 158
-0.039062 0.015625 0.107590 166 171 160
-0.035156 0.015625 0.106770 166 171 160
-0.031250 0.015625 0.105854 167 170 161
-0.027344 0.015625 0.104768 167 169 161
-0.023438 0.015625 0.103515 167 169 162
-0.019531 0.015625 0.102139 169 169 163
-0.015625 0.015625 0.100664 172 172 167
-0.011719 0.015625 0.099193 177 177 173
-0.007812 0.015625 0.097768 184 183 179
-0.003906 0.015625 0.096290 190 189 186
0.000000 0.015625 0.094663 195 194 192
0.003906 0.015625 0.092697 200 199 197
0.007812 0.015625 0.090268 204 203 201
0.011719 0.015625 0.087602 208 206 205
0.015625 0.015625 0.084818 210 209 208
0.019531 0.015625 0.081878 213 211 210
0.023438 0.015625 0.078905 215 214 213
0.027344 0.015625 0.075908 217 216 215
0.031250 0.015625 0.073010 219 218 217
0.035156 0.015625 0.069776 221 220 219
0.039062 0.015625 0.065921 223 221 221
0.042969 0.015625 0.061853 222 221 221
0.046875 0.015625 0.057690 221 221 220
0.050781 0.015625 0.053611 220 220 219
0.054688 0.015625 0.049628 219 218 218
0.058594 0.015625 0.045601 217 216 216
0.062500 0.015625 0.041485 214 212 212
0.066406 0.015625 0.036708 216 209 209
0.070312 0.015625 0.029927 229 217 220
0.074219 0.015625 0.021223 242 238 237
0.078125 0.015625 0.005442 237 245 235
-0.257812 0.011719 0.014792 154 153 155
-0.253906 0.011719 0.027769 159 159 157
-0.250000 0.011719 0.037400 159 158 157
-0.246094 0.011719 0.045276 179 178 177
-0.242188 0.011719 0.052467 193 191 192
-0.238281 0.011719 0.058740 199 197 198
-0.234375 0.011719 0.064004 201 199 200
-0.230469 0.011719 0.068168 198 197 198
-0.226562 0.011719 0.071310 196 194 195
-0.222656 0.011719 0.074098 195 194 195
-0.218750 0.011719 0.076818 195 194 195
-0.214844 0.011719 0.079207 195 194 195
-0.210938 0.011719 0.081384 195 194 195
-0.207031 0.011719 0.083446 193 192 193
-0.203125 0.011719 0.085499 191 190 191
-0.199219 0.011719 0.087222 189 189 189
-0.195312 0.011719 0.088491 188 187 188
-0.191406 0.011719 0.089764 186 186 186
-0.187500 0.011719 0.091027 184 185 184
-0.183594 0.011719 0.092388 184 184 184
-0.179688 0.011719 0.093982 184 185 184
-0.175781 0.011719 0.095480 184 185 184
-0.171875 0.011719 0.096892 185 186 185
-0.167969 0.011719 0.098209 186 187 186
-0.164062 0.011719 0.099421 186 188 186
-0.160156 0.011719 0.100583 186 187 185
-0.156250 0.011719 0.101670 184 186 184
-0.152344 0.011719 0.102717 182 184 182
-0.148438 0.011719 0.103734 181 183 180
-0.144531 0.011719 0.104711 180 183 180
-0.140625 0.011719 0.105651 180 183 179
-0.136719 0.011719 0.106471 181 184 180
-0.132812 0.011719 0.107123 181 185 180
-0.128906 0.011719 0.107701 182 186 180
-0.125000 0.011719 0.108185 182 186 180
-0.121094 0.011719 0.108592 183 186 180
-0.117188 0.011719 0.108898 182 186 180
-0.113281 0.011719 0.109144 181 185 179
-0.109375 0.011719 0.109343 178 182 175
-0.105469 0.011719 0.109529 173 176 170
-0.101562 0.011719 0.109734 166 170 163
-0.097656 0.011719 0.109917 160 164 156
-0.093750 0.011719 0.110070 155 159 151
-0.089844 0.011719 0.110241 150 155 146
-0.085938 0.011719 0.110453 148 153 144
-0.082031 0.011719 0.110642 147 153 143
-0.078125 0.011719 0.110774 147 154 143
-0.074219 0.011719 0.110853 148 155 144
-0.070312 0.011719 0.110874 150 157 145
-0.066406 0.011719 0.110822 152 160 147
-0.062500 0.011719 0.110713 154 162 149
-0.058594 0.011719 0.110512 157 165 151
-0.054688 0.011719 0.110184 159 166 153
-0.050781 0.011719 0.109748 161 168 155
-0.046875 0.011719 0.109197 163 169 157
-0.042969 0.011719 0.108560 165 170 159
-0.039062 0.011719 0.107865 167 171 161
-0.035156 0.011719 0.107061 169 171 162
-0.031250 0.011719 0.106158 169 171 163
-0.027344 0.011719 0.105088 170 171 163
-0.023438 0.011719 0.103846 171 171 164
-0.019531 0.011719 0.102483 172 172 166
-0.015625 0.011719 0.101022 175 174 170
-0.011719 0.011719 0.099568 180 179 175
-0.007812 0.011719 0.098157 186 184 181
-0.003906 0.011719 0.096695 192 190 187
0.000000 0.011719 0.095082 197 196 194
0.003906 0.011719 0.093145 202 201 199
0.007812 0.011719 0.090759 207 205 204
0.011719 0.011719 0.088145 210 209 208
0.015625 0.011719 0.085408 213 212 211
0.019531 0.011719 0.082486 216 215 214
0.023438 0.011719 0.079512 219 217 216
0.027344 0.011719 0.076488 221 220 219
0.031250 0.011719 0.073548 223 222 221
0.035156 0.011719 0.070232 225 223 223
0.039062 0.011719 0.066259 226 225 224
0.042969 0.011719 0.062066 226 225 224
0.046875 0.011719 0.057834 225 225 225
0.050781 0.011719 0.053750 225 225 224
0.054688 0.011719 0.049864 225 224 224
0.058594 0.011719 0.045958 224 223 223
0.062500 0.011719 0.042096 221 219 219
0.066406 0.011719 0.037655 220 215 215
0.070312 0.011719 0.031402 229 218 219
0.074219 0.011719 0.023521 243 238 239
0.078125 0.011719 0.011315 249 251 248
-0.257812 0.007812 0.016615 145 145 146
-0.253906 0.007812 0.029160 156 157 154
-0.250000 0.007812 0.038726 164 164 161
-0.246094 0.007812 0.046627 187 188 184
-0.242188 0.007812 0.053683 201 201 199
-0.238281 0.007812 0.059817 205 205 203
-0.234375 0.007812 0.064948 206 206 204
-0.230469 0.007812 0.068930 204 204 202
-0.226562 0.007812 0.071855 202 202 202
-0.222656 0.007812 0.074436 203 203 203
-0.218750 0.007812 0.076953 203 203 203
-0.214844 0.007812 0.079181 203 203 203
-0.210938 0.007812 0.081255 203 203 203
-0.207031 0.007812 0.083250 201 201 201
-0.203125 0.007812 0.085256 200 199 200
-0.199219 0.007812 0.086950 198 197 198
-0.195312 0.007812 0.088193 196 196 196
-0.191406 0.007812 0.089457 195 195 195
-0.187500 0.007812 0.090728 193 194 194
-0.183594 0.007812 0.092111 193 193 193
-0.179688 0.007812 0.093744 193 193 193
-0.175781 0.007812 0.095280 193 193 193
-0.171875 0.007812 0.096736 193 193 193
-0.167969 0.007812 0.098095 194 194 194
-0.164062 0.007812 0.099352 194 194 194
-0.160156 0.007812 0.100560 193 194 193
-0.156250 0.007812 0.101690 191 192 191
-0.152344 0.007812 0.102784 189 191 189
-0.148438 0.007812 0.103849 188 189 187
-0.144531 0.007812 0.104870 187 189 187
-0.140625 0.007812 0.105849 187 189 186
-0.136719 0.007812 0.106699 187 189 186
-0.132812 0.007812 0.107369 187 189 186
-0.128906 0.007812 0.107956 187 189 186
-0.125000 0.007812 0.108438 187 189 185
-0.121094 0.007812 0.108835 186 188 184
-0.117188 0.007812 0.109118 185 187 183
-0.113281 0.007812 0.109334 184 186 181
-0.109375 0.007812 0.109499 181 182 178
-0.105469 0.007812 0.109647 176 177 173
-0.101562 0.007812 0.109809 169 171 166
-0.097656 0.007812 0.109950 163 165 159
-0.093750 0.007812 0.110067 158 160 154
-0.089844 0.007812 0.110210 154 156 149
-0.085938 0.007812 0.110408 151 154 146
-0.082031 0.007812 0.110593 150 154 145
-0.078125 0.007812 0.110729 150 154 145
-0.074219 0.007812 0.110825 151 155 145
-0.070312 0.007812 0.110874 152 157 146
-0.066406 0.007812 0.110858 154 159 148
-0.062500 0.007812 0.110789 156 161 150
-0.058594 0.007812 0.110629 158 163 151
-0.054688 0.007812 0.110342 160 165 153
-0.050781 0.007812 0.109947 162 167 155
-0.046875 0.007812 0.109435 165 169 158
-0.042969 0.007812 0.108828 167 170 160
-0.039062 0.007812 0.108157 169 172 162
-0.035156 0.007812 0.107367 171 172 163
-0.031250 0.007812 0.106472 172 172 165
-0.027344 0.007812 0.105412 173 173 166
-0.023438 0.007812 0.104178 174 173 167
-0.019531 0.007812 0.102822 176 174 169
-0.015625 0.007812 0.101367 179 177 173
-0.011719 0.007812 0.099924 183 181 178
-0.007812 0.007812 0.098523 188 186 183
-0.003906 0.007812 0.097073 194 192 190
0.000000 0.007812 0.095469 200 198 196
0.003906 0.007812 0.093553 205 203 201
0.007812 0.007812 0.091202 209 208 206
0.011719 0.007812 0.088631 213 212 211
0.015625 0.007812 0.085929 216 215 214
0.019531 0.007812 0.083016 219 217 217
0.023438 0.007812 0.080036 221 220 219
0.027344 0.007812 0.076982 223 222 222
0.031250 0.007812 0.073996 225 224 224
0.035156 0.007812 0.070599 227 226 225
0.039062 0.007812 0.066516 228 227 226
0.042969 0.007812 0.062210 228 227 227
0.046875 0.007812 0.057925 228 227 227
0.050781 0.007812 0.053852 228 228 228
0.054688 0.007812 0.050047 228 227 227
0.058594 0.007812 0.046303 226 226 225
0.062500 0.007812 0.042695 221 220 220
0.066406 0.007812 0.038615 216 212 212
0.070312 0.007812 0.032837 216 208 209
0.074219 0.007812 0.025752 230 222 223
0.078125 0.007812 0.015810 240 241 236
-0.257812 0.003906 0.017902 138 138 138
-0.253906 0.003906 0.030611 155 155 152
-0.250000 0.003906 0.040111 169 170 166
-0.246094 0.003906 0.047894 195 196 192
-0.242188 0.003906 0.054789 208 209 205
-0.238281 0.003906 0.060735 211 212 208
-0.234375 0.003906 0.065731 212 212 210
-0.230469 0.003906 0.069523 210 210 208
-0.226562 0.003906 0.072248 208 208 208
-0.222656 0.003906 0.074642 209 209 209
-0.218750 0.003906 0.076992 210 210 210
-0.214844 0.003906 0.079092 210 210 210
-0.210938 0.003906 0.081094 210 209 210
-0.207031 0.003906 0.083047 209 208 209
-0.203125 0.003906 0.085025 207 206 207
-0.199219 0.003906 0.086700 206 205 206
-0.195312 0.003906 0.087925 204 203 204
-0.191406 0.003906 0.089175 203 203 203
-0.187500 0.003906 0.090450 201 201 201
-0.183594 0.003906 0.091857 200 201 200
-0.179688 0.003906 0.093511 200 200 200
-0.175781 0.003906 0.095077 199 200 199
-0.171875 0.003906 0.096568 199 200 199
-0.167969 0.003906 0.097965 200 200 200
-0.164062 0.003906 0.099264 200 200 200
-0.160156 0.003906 0.100517 199 200 199
-0.156250 0.003906 0.101690 198 198 198
-0.152344 0.003906 0.102829 196 197 196
-0.148438 0.003906 0.103945 195 196 195
-0.144531 0.003906 0.105014 194 195 194
-0.140625 0.003906 0.106035 194 195 193
-0.136719 0.003906 0.106919 194 195 193
-0.132812 0.003906 0.107609 194 194 193
-0.128906 0.003906 0.108206 193 194 192
-0.125000 0.003906 0.108684 192 193 191
-0.121094 0.003906 0.109073 191 191 189
-0.117188 0.003906 0.109337 189 190 187
-0.113281 0.003906 0.109528 187 188 185
-0.109375 0.003906 0.109666 185 185 182
-0.105469 0.003906 0.109782 180 181 178
-0.101562 0.003906 0.109906 175 175 172
-0.097656 0.003906 0.110012 169 169 166
-0.093750 0.003906 0.110097 164 164 160
-0.089844 0.003906 0.110218 160 160 156
-0.085938 0.003906 0.110404 157 158 152
-0.082031 0.003906 0.110586 156 157 151
-0.078125 0.003906 0.110728 155 157 150
-0.074219 0.003906 0.110840 155 157 149
-0.070312 0.003906 0.110917 155 158 149
-0.066406 0.003906 0.110935 157 159 150
-0.062500 0.003906 0.110903 158 161 152
-0.058594 0.003906 0.110776 160 162 153
-0.054688 0.003906 0.110522 161 164 154
-0.050781 0.003906 0.110161 163 165 156
-0.046875 0.003906 0.109683 166 167 158
-0.042969 0.003906 0.109103 168 169 160
-0.039062 0.003906 0.108450 170 171 162
-0.035156 0.003906 0.107676 172 172 164
-0.031250 0.003906 0.106791 173 172 165
-0.027344 0.003906 0.105738 174 173 167
-0.023438 0.003906 0.104508 176 174 169
-0.019531 0.003906 0.103155 178 176 171
-0.015625 0.003906 0.101701 181 178 175
-0.011719 0.003906 0.100265 185 183 179
-0.007812 0.003906 0.098875 190 188 185
-0.003906 0.003906 0.097439 196 193 191
0.000000 0.003906 0.095841 201 199 198
0.003906 0.003906 0.093941 207 205 203
0.007812 0.003906 0.091620 211 210 209
0.011719 0.003906 0.089084 215 214 213
0.015625 0.003906 0.086407 218 217 216
0.019531 0.003906 0.083498 221 220 219
0.023438 0.003906 0.080502 223 222 222
0.027344 0.003906 0.077423 225 224 224
0.031250 0.003906 0.074389 227 226 226
0.035156 0.003906 0.070909 229 228 227
0.039062 0.003906 0.066719 229 228 228
0.042969 0.003906 0.062305 230 229 229
0.046875 0.003906 0.057986 230 229 229
0.050781 0.003906 0.053942 230 230 230
0.054688 0.003906 0.050215 230 230 229
0.058594 0.003906 0.046616 228 227 227
0.062500 0.003906 0.043150 222 221 221
0.066406 0.003906 0.039363 213 211 211
0.070312 0.003906 0.034186 209 203 203
0.074219 0.003906 0.027785 221 212 212
0.078125 0.003906 0.019095 237 234 229
0.082031 0.003906 0.003231 166 195 139
-0.257812 0.000000 0.019149 111 111 112
-0.253906 0.000000 0.032026 144 145 141
-0.250000 0.000000 0.041407 172 172 168
-0.246094 0.000000 0.048970 201 201 197
-0.242188 0.000000 0.055651 214 215 211
-0.238281 0.000000 0.061428 217 218 214
-0.234375 0.000000 0.066284 217 217 215
-0.230469 0.000000 0.069895 215 215 213
-0.226562 0.000000 0.072443 214 214 214
-0.222656 0.000000 0.074668 215 215 215
-0.218750 0.000000 0.076896 215 215 215
-0.214844 0.000000 0.078890 215 215 215
-0.210938 0.000000 0.080838 215 214 215
-0.207031 0.000000 0.082760 214 213 214
-0.203125 0.000000 0.084717 213 212 213
-0.199219 0.000000 0.086379 211 210 211
-0.195312 0.000000 0.087586 210 209 210
-0.191406 0.000000 0.088821 208 208 208
-0.187500 0.000000 0.090111 207 207 207
-0.183594 0.000000 0.091533 206 206 206
-0.179688 0.000000 0.093211 205 205 205
-0.175781 0.000000 0.094811 205 205 205
-0.171875 0.000000 0.096339 205 205 205
-0.167969 0.000000 0.097775 205 205 205
-0.164062 0.000000 0.099117 205 205 205
-0.160156 0.000000 0.100416 204 205 204
-0.156250 0.000000 0.101634 204 204 203
-0.152344 0.000000 0.102821 202 203 202
-0.148438 0.000000 0.103990 202 202 201
-0.144531 0.000000 0.105109 201 201 201
-0.140625 0.000000 0.106176 201 201 200
-0.136719 0.000000 0.107093 200 200 199
-0.132812 0.000000 0.107803 199 199 199
-0.128906 0.000000 0.108409 198 198 197
-0.125000 0.000000 0.108887 197 197 196
-0.121094 0.000000 0.109270 195 195 194
-0.117188 0.000000 0.109521 194 193 192
-0.113281 0.000000 0.109691 192 191 190
-0.109375 0.000000 0.109803 189 189 187
-0.105469 0.000000 0.109893 186 186 184
-0.101562 0.000000 0.109990 182 181 179
-0.097656 0.000000 0.110068 177 176 174
-0.093750 0.000000 0.110131 172 172 169
-0.089844 0.000000 0.110237 168 168 165
-0.085938 0.000000 0.110415 166 165 161
-0.082031 0.000000 0.110598 164 163 159
-0.078125 0.000000 0.110747 163 162 157
-0.074219 0.000000 0.110876 162 162 156
-0.070312 0.000000 0.110978 162 162 156
-0.066406 0.000000 0.111024 162 163 156
-0.062500 0.000000 0.111024 163 163 156
-0.058594 0.000000 0.110926 164 164 157
-0.054688 0.000000 0.110702 165 165 157
-0.050781 0.000000 0.110368 166 166 159
-0.046875 0.000000 0.109917 168 168 160
-0.042969 0.000000 0.109354 170 170 162
-0.039062 0.000000 0.108710 172 171 164
-0.035156 0.000000 0.107940 174 172 166
-0.031250 0.000000 0.107051 176 173 168
-0.027344 0.000000 0.105993 177 175 170
-0.023438 0.000000 0.104755 179 176 172
-0.019531 0.000000 0.103395 180 177 174
-0.015625 0.000000 0.101938 183 180 177
-0.011719 0.000000 0.100505 187 185 182
-0.007812 0.000000 0.099127 192 190 187
-0.003906 0.000000 0.097712 198 195 194
0.000000 0.000000 0.096131 203 201 200
0.003906 0.000000 0.094256 209 207 206
0.007812 0.000000 0.091965 214 212 211
0.011719 0.000000 0.089458 218 216 216
0.015625 0.000000 0.086797 221 220 219
0.019531 0.000000 0.083884 224 223 222
0.023438 0.000000 0.080871 226 225 225
0.027344 0.000000 0.077774 228 227 227
0.031250 0.000000 0.074703 230 229 229
0.035156 0.000000 0.071150 231 230 230
0.039062 0.000000 0.066872 231 230 230
0.042969 0.000000 0.062385 231 231 231
0.046875 0.000000 0.058060 232 231 231
0.050781 0.000000 0.054060 232 232 232
0.054688 0.000000 0.050418 232 231 231
0.058594 0.000000 0.046926 229 229 229
0.062500 0.000000 0.043575 222 222 222
0.066406 0.000000 0.040021 212 211 211
0.070312 0.000000 0.035362 205 202 202
0.074219 0.000000 0.029746 219 210 210
0.078125 0.000000 0.022004 242 236 234
0.082031 0.000000 0.010433 229 232 213
-0.257812 -0.003906 0.020592 92 92 93
-0.253906 -0.003906 0.033410 137 137 137
-0.250000 -0.003906 0.042509 176 176 176
-0.246094 -0.003906 0.049710 205 205 205
-0.242188 -0.003906 0.056163 218 218 218
-0.238281 -0.003906 0.061802 221 221 221
-0.234375 -0.003906 0.066553 221 221 221
-0.230469 -0.003906 0.070031 220 220 220
-0.226562 -0.003906 0.072441 219 219 219
-0.222656 -0.003906 0.074531 219 219 219
-0.218750 -0.003906 0.076665 220 220 220
-0.214844 -0.003906 0.078590 220 220 220
-0.210938 -0.003906 0.080510 219 219 219
-0.207031 -0.003906 0.082421 218 218 218
-0.203125 -0.003906 0.084368 217 217 217
-0.199219 -0.003906 0.086020 216 216 216
-0.195312 -0.003906 0.087209 214 214 214
-0.191406 -0.003906 0.088431 213 213 213
-0.187500 -0.003906 0.089725 212 212 212
-0.183594 -0.003906 0.091152 211 211 211
-0.179688 -0.003906 0.092852 210 210 210
-0.175781 -0.003906 0.094486 210 209 209
-0.171875 -0.003906 0.096050 209 209 209
-0.167969 -0.003906 0.097529 209 209 209
-0.164062 -0.003906 0.098925 209 209 209
-0.160156 -0.003906 0.100280 209 209 209
-0.156250 -0.003906 0.101553 208 208 208
-0.152344 -0.003906 0.102798 207 207 207
-0.148438 -0.003906 0.104026 206 206 206
-0.144531 -0.003906 0.105201 206 206 206
-0.140625 -0.003906 0.106318 206 205 205
-0.136719 -0.003906 0.107270 205 205 204
-0.132812 -0.003906 0.107999 203 203 203
-0.128906 -0.003906 0.108613 202 202 201
-0.125000 -0.003906 0.109091 200 200 200
-0.121094 -0.003906 0.109466 199 198 198
-0.117188 -0.003906 0.109702 197 196 196
-0.113281 -0.003906 0.109853 195 195 194
-0.109375 -0.003906 0.109943 193 193 192
-0.105469 -0.003906 0.110012 191 190 189
-0.101562 -0.003906 0.110087 188 187 186
-0.097656 -0.003906 0.110145 184 183 181
-0.093750 -0.003906 0.110193 180 179 177
-0.089844 -0.003906 0.110288 176 175 173
-0.085938 -0.003906 0.110459 173 172 170
-0.082031 -0.003906 0.110640 171 170 167
-0.078125 -0.003906 0.110797 169 168 165
-0.074219 -0.003906 0.110939 168 167 163
-0.070312 -0.003906 0.111062 168 166 162
-0.066406 -0.003906 0.111134 167 166 162
-0.062500 -0.003906 0.111163 167 166 161
-0.058594 -0.003906 0.111091 168 167 161
-0.054688 -0.003906 0.110895 168 167 161
-0.050781 -0.003906 0.110585 169 168 162
-0.046875 -0.003906 0.110160 171 169 163
-0.042969 -0.003906 0.109614 173 171 165
-0.039062 -0.003906 0.108974 175 172 167
-0.035156 -0.003906 0.108202 177 174 169
-0.031250 -0.003906 0.107302 178 175 171
-0.027344 -0.003906 0.106233 180 176 173
-0.023438 -0.003906 0.104982 181 178 174
-0.019531 -0.003906 0.103610 183 179 176
-0.015625 -0.003906 0.102143 186 182 180
-0.011719 -0.003906 0.100712 190 187 185
-0.007812 -0.003906 0.099352 195 192 190
-0.003906 -0.003906 0.097963 200 198 196
0.000000 -0.003906 0.096407 205 203 202
0.003906 -0.003906 0.094555 211 209 208
0.007812 -0.003906 0.092293 216 214 213
0.011719 -0.003906 0.089803 220 219 218
0.015625 -0.003906 0.087147 223 222 222
0.019531 -0.003906 0.084215 226 225 225
0.023438 -0.003906 0.081174 229 228 228
0.027344 -0.003906 0.078064 231 230 230
0.031250 -0.003906 0.074960 232 231 231
0.035156 -0.003906 0.071346 233 232 232
0.039062 -0.003906 0.067005 233 233 232
0.042969 -0.003906 0.062470 233 233 233
0.046875 -0.003906 0.058149 234 233 233
0.050781 -0.003906 0.054186 234 234 234
0.054688 -0.003906 0.050600 233 233 233
0.058594 -0.003906 0.047178 230 230 230
0.062500 -0.003906 0.043951 223 223 222
0.066406 -0.003906 0.040583 212 211 211
0.070312 -0.003906 0.036371 203 201 201
0.074219 -0.003906 0.031376 214 208 208
0.078125 -0.003906 0.024400 240 231 231
0.082031 -0.003906 0.015675 242 238 234
-0.257812 -0.007812 0.022381 106 106 107
-0.253906 -0.007812 0.034556 145 145 145
-0.250000 -0.007812 0.043369 185 185 185
-0.246094 -0.007812 0.050232 209 209 209
-0.242188 -0.007812 0.056389 219 219 219
-0.238281 -0.007812 0.061903 223 223 223
-0.234375 -0.007812 0.066572 224 224 224
-0.230469 -0.007812 0.069943 223 223 223
-0.226562 -0.007812 0.072255 222 222 222
-0.222656 -0.007812 0.074240 223 223 223
-0.218750 -0.007812 0.076297 224 224 224
-0.214844 -0.007812 0.078177 224 224 224
-0.210938 -0.007812 0.080080 223 223 223
-0.207031 -0.007812 0.081986 223 223 223
-0.203125 -0.007812 0.083930 221 221 221
-0.199219 -0.007812 0.085582 220 220 220
-0.195312 -0.007812 0.086760 218 218 218
-0.191406 -0.007812 0.087982 217 217 217
-0.187500 -0.007812 0.089281 216 216 216
-0.183594 -0.007812 0.090717 215 215 215
-0.179688 -0.007812 0.092445 214 214 214
-0.175781 -0.007812 0.094116 214 214 214
-0.171875 -0.007812 0.095723 213 213 213
-0.167969 -0.007812 0.097253 213 213 213
-0.164062 -0.007812 0.098712 213 212 212
-0.160156 -0.007812 0.100134 212 212 212
-0.156250 -0.007812 0.101472 211 211 211
-0.152344 -0.007812 0.102783 210 210 210
-0.148438 -0.007812 0.104073 210 210 210
-0.144531 -0.007812 0.105304 209 209 209
-0.140625 -0.007812 0.106472 209 209 209
-0.136719 -0.007812 0.107463 209 208 208
-0.132812 -0.007812 0.108215 207 207 207
-0.128906 -0.007812 0.108837 206 205 205
-0.125000 -0.007812 0.109317 204 203 203
-0.121094 -0.007812 0.109687 202 201 201
-0.117188 -0.007812 0.109916 200 200 199
-0.113281 -0.007812 0.110055 199 198 198
-0.109375 -0.007812 0.110129 197 196 196
-0.105469 -0.007812 0.110186 195 194 194
-0.101562 -0.007812 0.110249 193 192 191
-0.097656 -0.007812 0.110295 190 189 188
-0.093750 -0.007812 0.110331 187 186 185
-0.089844 -0.007812 0.110417 184 182 181
-0.085938 -0.007812 0.110579 181 179 178
-0.082031 -0.007812 0.110758 179 177 175
-0.078125 -0.007812 0.110917 177 175 173
-0.074219 -0.007812 0.111068 175 173 171
-0.070312 -0.007812 0.111205 174 172 169
-0.066406 -0.007812 0.111296 173 171 168
-0.062500 -0.007812 0.111347 173 171 167
-0.058594 -0.007812 0.111293 173 171 167
-0.054688 -0.007812 0.111116 173 171 167
-0.050781 -0.007812 0.110822 174 172 167
-0.046875 -0.007812 0.110412 176 173 168
-0.042969 -0.007812 0.109872 177 174 170
-0.039062 -0.007812 0.109227 179 176 172
-0.035156 -0.007812 0.108443 181 177 173
-0.031250 -0.007812 0.107525 182 178 175
-0.027344 -0.007812 0.106445 183 179 176
-0.023438 -0.007812 0.105180 185 181 178
-0.019531 -0.007812 0.103798 186 182 180
-0.015625 -0.007812 0.102321 189 186 184
-0.011719 -0.007812 0.100896 193 190 188
-0.007812 -0.007812 0.099562 198 195 194
-0.003906 -0.007812 0.098210 203 201 199
0.000000 -0.007812 0.096692 208 206 205
0.003906 -0.007812 0.094884 213 211 210
0.007812 -0.007812 0.092656 218 216 216
0.011719 -0.007812 0.090184 222 221 220
0.015625 -0.007812 0.087521 225 224 224
0.019531 -0.007812 0.084585 228 227 227
0.023438 -0.007812 0.081514 231 230 230
0.027344 -0.007812 0.078384 233 232 232
0.031250 -0.007812 0.075239 234 233 233
0.035156 -0.007812 0.071565 235 234 234
0.039062 -0.007812 0.067172 235 235 234
0.042969 -0.007812 0.062597 235 235 235
0.046875 -0.007812 0.058281 236 235 235
0.050781 -0.007812 0.054350 236 235 235
0.054688 -0.007812 0.050803 235 234 234
0.058594 -0.007812 0.047413 231 231 231
0.062500 -0.007812 0.044250 224 224 224
0.066406 -0.007812 0.041021 215 214 214
0.070312 -0.007812 0.037211 207 206 206
0.074219 -0.007812 0.032701 215 210 210
0.078125 -0.007812 0.026590 237 228 229
0.082031 -0.007812 0.019840 246 242 241
0.085938 -0.007812 0.003518 233 239 229
-0.261719 -0.011719 -0.010759 107 107 110
-0.257812 -0.011719 0.023908 121 121 121
-0.253906 -0.011719 0.035432 157 157 157
-0.250000 -0.011719 0.044105 194 194 194
-0.246094 -0.011719 0.050595 211 211 211
-0.242188 -0.011719 0.056423 220 220 220
-0.238281 -0.011719 0.061833 224 224 224
-0.234375 -0.011719 0.066435 226 226 226
-0.230469 -0.011719 0.069716 226 226 226
-0.226562 -0.011719 0.071945 226 226 226
-0.222656 -0.011719 0.073839 226 226 226
-0.218750 -0.011719 0.075821 227 227 227
-0.214844 -0.011719 0.077660 227 227 227
-0.210938 -0.011719 0.079544 227 227 227
-0.207031 -0.011719 0.081448 226 226 226
-0.203125 -0.011719 0.083398 224 224 224
-0.199219 -0.011719 0.085057 223 223 223
-0.195312 -0.011719 0.086230 221 221 221
-0.191406 -0.011719 0.087467 219 219 219
-0.187500 -0.011719 0.088770 218 218 218
-0.183594 -0.011719 0.090221 218 218 218
-0.179688 -0.011719 0.091982 217 217 217
-0.175781 -0.011719 0.093701 216 216 216
-0.171875 -0.011719 0.095360 216 216 216
-0.167969 -0.011719 0.096952 215 215 215
-0.164062 -0.011719 0.098485 215 215 215
-0.160156 -0.011719 0.099985 214 214 214
-0.156250 -0.011719 0.101395 214 213 213
-0.152344 -0.011719 0.102774 213 212 212
-0.148438 -0.011719 0.104124 212 212 212
-0.144531 -0.011719 0.105414 212 212 212
-0.140625 -0.011719 0.106640 212 212 211
-0.136719 -0.011719 0.107668 211 211 211
-0.132812 -0.011719 0.108441 210 210 210
-0.128906 -0.011719 0.109074 209 208 208
-0.125000 -0.011719 0.109562 207 207 206
-0.121094 -0.011719 0.109938 205 205 205
-0.117188 -0.011719 0.110169 204 203 203
-0.113281 -0.011719 0.110307 202 202 201
-0.109375 -0.011719 0.110377 201 200 200
-0.105469 -0.011719 0.110433 199 198 198
-0.101562 -0.011719 0.110493 198 196 196
-0.097656 -0.011719 0.110536 196 194 194
-0.093750 -0.011719 0.110566 194 192 192
-0.089844 -0.011719 0.110645 191 190 189
-0.085938 -0.011719 0.110797 189 187 186
-0.082031 -0.011719 0.110968 186 184 183
-0.078125 -0.011719 0.111124 184 182 181
-0.074219 -0.011719 0.111275 182 180 179
-0.070312 -0.011719 0.111416 181 179 177
-0.066406 -0.011719 0.111516 180 177 175
-0.062500 -0.011719 0.111580 179 176 174
-0.058594 -0.011719 0.111538 179 176 173
-0.054688 -0.011719 0.111374 179 176 173
-0.050781 -0.011719 0.111091 180 177 174
-0.046875 -0.011719 0.110691 181 178 175
-0.042969 -0.011719 0.110156 183 179 176
-0.039062 -0.011719 0.109506 184 180 177
-0.035156 -0.011719 0.108709 185 181 178
-0.031250 -0.011719 0.107777 186 182 180
-0.027344 -0.011719 0.106691 188 183 181
-0.023438 -0.011719 0.105423 189 185 183
-0.019531 -0.011719 0.104039 191 187 185
-0.015625 -0.011719 0.102561 194 190 189
-0.011719 -0.011719 0.101150 198 194 193
-0.007812 -0.011719 0.099863 202 199 198
-0.003906 -0.011719 0.098570 207 204 204
0.000000 -0.011719 0.097111 212 209 209
0.003906 -0.011719 0.095367 216 214 214
0.007812 -0.011719 0.093184 221 219 219
0.011719 -0.011719 0.090733 224 223 223
0.015625 -0.011719 0.088052 228 227 226
0.019531 -0.011719 0.085076 230 229 229
0.023438 -0.011719 0.081966 232 232 232
0.027344 -0.011719 0.078791 234 233 233
0.031250 -0.011719 0.075583 235 235 235
0.035156 -0.011719 0.071838 236 236 236
0.039062 -0.011719 0.067390 237 236 236
0.042969 -0.011719 0.062775 237 237 237
0.046875 -0.011719 0.058454 237 237 237
0.050781 -0.011719 0.054529 237 237 237
0.054688 -0.011719 0.050985 236 236 236
0.058594 -0.011719 0.047593 233 232 232
0.062500 -0.011719 0.044446 226 226 226
0.066406 -0.011719 0.041302 218 217 217
0.070312 -0.011719 0.037812 211 210 210
0.074219 -0.011719 0.033648 217 213 213
0.078125 -0.011719 0.028392 235 226 226
0.082031 -0.011719 0.022865 247 242 241
0.085938 -0.011719 0.011382 247 248 244
-0.261719 -0.015625 -0.003546 147 146 149
-0.257812 -0.015625 0.025399 154 153 154
-0.253906 -0.015625 0.036279 183 183 183
-0.250000 -0.015625 0.044725 207 207 207
-0.246094 -0.015625 0.050839 217 217 217
-0.242188 -0.015625 0.056331 223 223 223
-0.238281 -0.015625 0.061630 226 226 226
-0.234375 -0.015625 0.066166 228 228 228
-0.230469 -0.015625 0.069372 228 228 228
-0.226562 -0.015625 0.071539 228 228 228
-0.222656 -0.015625 0.073360 229 229 229
-0.218750 -0.015625 0.075273 230 230 230
-0.214844 -0.015625 0.077080 230 230 230
-0.210938 -0.015625 0.078947 230 230 230
-0.207031 -0.015625 0.080853 229 229 229
-0.203125 -0.015625 0.082817 227 227 227
-0.199219 -0.015625 0.084492 225 225 225
-0.195312 -0.015625 0.085675 223 223 223
-0.191406 -0.015625 0.086930 222 221 222
-0.187500 -0.015625 0.088244 220 220 220
-0.183594 -0.015625 0.089718 219 219 219
-0.179688 -0.015625 0.091521 219 219 219
-0.175781 -0.015625 0.093298 218 218 218
-0.171875 -0.015625 0.095020 217 217 217
