ply
    format ascii 1.0
    element vertex 58646
    property float x
    property float y
    property float z
    property uchar red
    property uchar green
    property uchar blue
    end_header
0.152344 0.332031 -0.013699 203 203 203
0.156250 0.332031 -0.015914 209 209 210
0.160156 0.332031 -0.018531 215 214 216
0.164062 0.332031 -0.022414 225 223 225
0.167969 0.332031 -0.027619 209 216 209
0.171875 0.332031 -0.037024 43 84 43
-0.234375 0.328125 0.025607 68 65 85
-0.230469 0.328125 0.039276 101 95 109
-0.226562 0.328125 0.047094 82 79 86
-0.222656 0.328125 0.053036 85 86 89
-0.218750 0.328125 0.057135 105 109 114
-0.214844 0.328125 0.059549 117 126 133
-0.210938 0.328125 0.061213 115 131 136
-0.207031 0.328125 0.062738 127 145 144
-0.203125 0.328125 0.064370 137 147 145
-0.199219 0.328125 0.065737 103 105 104
-0.195312 0.328125 0.066713 82 82 82
-0.191406 0.328125 0.067632 82 73 74
-0.187500 0.328125 0.068600 86 77 80
-0.183594 0.328125 0.069641 91 82 85
-0.179688 0.328125 0.070808 92 86 90
-0.175781 0.328125 0.072133 93 87 91
-0.171875 0.328125 0.073418 96 91 95
-0.167969 0.328125 0.074419 105 100 104
-0.164062 0.328125 0.075010 113 109 113
-0.160156 0.328125 0.075472 101 99 100
-0.156250 0.328125 0.075927 94 92 93
-0.152344 0.328125 0.076592 86 87 82
-0.148438 0.328125 0.077631 87 88 82
-0.144531 0.328125 0.078671 93 96 87
-0.140625 0.328125 0.079675 98 101 90
-0.136719 0.328125 0.080512 97 101 87
-0.132812 0.328125 0.081179 93 97 83
-0.128906 0.328125 0.081890 87 84 46
-0.125000 0.328125 0.082676 84 81 43
-0.121094 0.328125 0.083517 83 82 44
-0.117188 0.328125 0.084471 88 86 51
-0.113281 0.328125 0.085496 97 95 62
-0.109375 0.328125 0.086541 105 103 72
-0.105469 0.328125 0.087392 109 106 76
-0.101562 0.328125 0.087921 107 106 80
-0.097656 0.328125 0.088319 104 103 81
-0.093750 0.328125 0.088627 97 95 75
-0.089844 0.328125 0.088782 90 89 73
-0.085938 0.328125 0.088711 89 88 74
-0.082031 0.328125 0.088528 93 92 79
-0.078125 0.328125 0.088230 93 91 81
-0.074219 0.328125 0.087770 89 87 77
-0.070312 0.328125 0.087126 83 81 73
-0.066406 0.328125 0.086396 84 94 66
-0.062500 0.328125 0.085556 78 87 62
-0.058594 0.328125 0.084772 68 77 53
-0.054688 0.328125 0.084135 56 66 42
-0.050781 0.328125 0.083475 49 58 37
-0.046875 0.328125 0.082823 48 61 41
-0.042969 0.328125 0.082198 58 70 52
-0.039062 0.328125 0.081616 65 78 63
-0.035156 0.328125 0.081002 65 79 66
-0.031250 0.328125 0.080357 78 91 82
-0.027344 0.328125 0.079618 97 112 105
-0.023438 0.328125 0.078800 117 132 127
-0.019531 0.328125 0.077936 128 144 141
-0.015625 0.328125 0.077012 134 150 149
-0.011719 0.328125 0.076019 133 149 148
-0.007812 0.328125 0.074930 132 148 148
-0.003906 0.328125 0.073806 121 137 118
0.000000 0.328125 0.072705 117 132 113
0.003906 0.328125 0.071507 107 121 104
0.007812 0.328125 0.070252 97 110 93
0.011719 0.328125 0.068961 88 101 86
0.015625 0.328125 0.067767 85 97 83
0.019531 0.328125 0.066684 91 100 89
0.023438 0.328125 0.065744 96 104 96
0.027344 0.328125 0.064740 109 115 108
0.031250 0.328125 0.063852 112 115 109
0.035156 0.328125 0.062880 102 105 101
0.039062 0.328125 0.061789 84 85 85
0.042969 0.328125 0.060620 74 73 74
0.046875 0.328125 0.059217 76 75 78
0.050781 0.328125 0.057826 75 74 77
0.054688 0.328125 0.056426 71 67 71
0.058594 0.328125 0.055076 83 84 81
0.062500 0.328125 0.053612 66 67 65
0.066406 0.328125 0.051978 55 56 54
0.070312 0.328125 0.050164 57 58 56
0.074219 0.328125 0.048245 57 58 56
0.078125 0.328125 0.046179 44 45 43
0.082031 0.328125 0.043980 27 28 26
0.085938 0.328125 0.041524 18 19 17
0.089844 0.328125 0.038894 28 31 28
0.093750 0.328125 0.035975 67 71 68
0.097656 0.328125 0.032569 107 113 111
0.101562 0.328125 0.028683 118 125 125
0.105469 0.328125 0.024653 112 120 120
0.109375 0.328125 0.020750 112 118 118
0.113281 0.328125 0.017088 122 126 126
0.117188 0.328125 0.013755 135 138 137
0.121094 0.328125 0.010572 153 154 154
0.125000 0.328125 0.007552 165 166 166
0.128906 0.328125 0.004508 181 182 182
0.132812 0.328125 0.001265 188 189 189
0.136719 0.328125 -0.001855 188 188 188
0.140625 0.328125 -0.004682 188 188 188
0.144531 0.328125 -0.007445 187 187 187
0.148438 0.328125 -0.009919 186 186 186
0.152344 0.328125 -0.012373 196 196 196
0.156250 0.328125 -0.014588 202 202 202
0.160156 0.328125 -0.016766 205 205 206
0.164062 0.328125 -0.019979 205 204 206
0.167969 0.328125 -0.025563 211 212 214
0.171875 0.328125 -0.031629 198 223 201
-0.234375 0.324219 0.029634 100 95 110
-0.230469 0.324219 0.041509 111 104 115
-0.226562 0.324219 0.048800 82 80 87
-0.222656 0.324219 0.054584 81 83 86
-0.218750 0.324219 0.058019 94 99 102
-0.214844 0.324219 0.060197 98 108 113
-0.210938 0.324219 0.061725 102 116 118
-0.207031 0.324219 0.063105 125 139 137
-0.203125 0.324219 0.064581 113 117 116
-0.199219 0.324219 0.065848 70 70 70
-0.195312 0.324219 0.066786 76 76 76
-0.191406 0.324219 0.067733 77 76 74
-0.187500 0.324219 0.068757 81 79 80
-0.183594 0.324219 0.069826 86 86 86
-0.179688 0.324219 0.071049 90 90 92
-0.175781 0.324219 0.072430 95 96 100
-0.171875 0.324219 0.073770 104 104 112
-0.167969 0.324219 0.074810 111 114 123
-0.164062 0.324219 0.075409 116 120 129
-0.160156 0.324219 0.075870 146 153 163
-0.156250 0.324219 0.076351 126 135 144
-0.152344 0.324219 0.077089 104 113 122
-0.148438 0.324219 0.078213 92 103 109
-0.144531 0.324219 0.079319 90 103 109
-0.140625 0.324219 0.080395 89 103 106
-0.136719 0.324219 0.081358 80 95 98
-0.132812 0.324219 0.082212 70 86 86
-0.128906 0.324219 0.083128 103 113 88
-0.125000 0.324219 0.084132 101 111 86
-0.121094 0.324219 0.085206 98 108 84
-0.117188 0.324219 0.086395 93 102 81
-0.113281 0.324219 0.087646 90 99 80
-0.109375 0.324219 0.088917 89 98 81
-0.105469 0.324219 0.089959 87 98 82
-0.101562 0.324219 0.090619 89 100 88
-0.097656 0.324219 0.091131 98 108 99
-0.093750 0.324219 0.091544 96 106 98
-0.089844 0.324219 0.091794 94 103 98
-0.085938 0.324219 0.091802 93 104 100
-0.082031 0.324219 0.091678 96 106 105
-0.078125 0.324219 0.091428 101 111 112
-0.074219 0.324219 0.091014 105 115 116
-0.070312 0.324219 0.090414 107 117 118
-0.066406 0.324219 0.089697 100 112 100
-0.062500 0.324219 0.088854 94 107 94
-0.058594 0.324219 0.088055 85 98 87
-0.054688 0.324219 0.087384 78 91 80
-0.050781 0.324219 0.086683 71 85 75
-0.046875 0.324219 0.085974 63 77 69
-0.042969 0.324219 0.085280 51 67 61
-0.039062 0.324219 0.084614 44 60 56
-0.035156 0.324219 0.083905 50 67 65
-0.031250 0.324219 0.083155 46 64 64
-0.027344 0.324219 0.082333 44 63 67
-0.023438 0.324219 0.081432 47 66 72
-0.019531 0.324219 0.080504 54 74 81
-0.015625 0.324219 0.079542 63 86 94
-0.011719 0.324219 0.078501 74 97 105
-0.007812 0.324219 0.077396 80 102 113
-0.003906 0.324219 0.076266 83 101 89
0.000000 0.324219 0.075146 85 103 91
0.003906 0.324219 0.073941 85 102 90
0.007812 0.324219 0.072669 78 95 83
0.011719 0.324219 0.071352 70 84 73
0.015625 0.324219 0.070189 64 76 68
0.019531 0.324219 0.069169 62 73 65
0.023438 0.324219 0.068367 63 71 64
0.027344 0.324219 0.067590 72 78 72
0.031250 0.324219 0.066832 76 82 76
0.035156 0.324219 0.065917 74 77 74
0.039062 0.324219 0.064837 66 67 65
0.042969 0.324219 0.063636 64 65 63
0.046875 0.324219 0.062242 73 74 72
0.050781 0.324219 0.060879 79 79 77
0.054688 0.324219 0.059465 78 78 76
0.058594 0.324219 0.058039 78 79 77
0.062500 0.324219 0.056561 78 79 77
0.066406 0.324219 0.054995 69 70 68
0.070312 0.324219 0.053268 55 56 54
0.074219 0.324219 0.051387 50 51 49
0.078125 0.324219 0.049218 55 56 54
0.082031 0.324219 0.046910 57 58 56
0.085938 0.324219 0.044415 54 55 53
0.089844 0.324219 0.041754 24 25 23
0.093750 0.324219 0.038802 20 21 19
0.097656 0.324219 0.035366 30 31 29
0.101562 0.324219 0.031433 60 64 62
0.105469 0.324219 0.027303 90 97 96
0.109375 0.324219 0.023258 103 111 110
0.113281 0.324219 0.019496 118 124 122
0.117188 0.324219 0.016096 132 135 133
0.121094 0.324219 0.012848 136 138 137
0.125000 0.324219 0.009730 140 141 141
0.128906 0.324219 0.006512 154 155 155
0.132812 0.324219 0.002994 172 173 173
0.136719 0.324219 -0.000404 180 181 181
0.140625 0.324219 -0.003481 182 182 182
0.144531 0.324219 -0.006408 185 185 185
0.148438 0.324219 -0.008840 188 188 188
0.152344 0.324219 -0.011053 195 195 195
0.156250 0.324219 -0.013213 202 202 202
0.160156 0.324219 -0.015433 205 205 205
0.164062 0.324219 -0.018187 199 199 200
0.167969 0.324219 -0.022891 209 210 213
0.171875 0.324219 -0.027940 236 243 238
0.175781 0.324219 -0.037751 101 182 89
-0.234375 0.320312 0.033737 81 75 89
-0.230469 0.320312 0.043549 97 91 100
-0.226562 0.320312 0.050704 81 81 87
-0.222656 0.320312 0.055714 90 93 96
-0.218750 0.320312 0.058868 100 106 108
-0.214844 0.320312 0.060852 99 111 113
-0.210938 0.320312 0.062192 106 121 119
-0.207031 0.320312 0.063452 120 128 126
-0.203125 0.320312 0.064744 75 76 75
-0.199219 0.320312 0.065872 49 49 49
-0.195312 0.320312 0.066757 71 71 71
-0.191406 0.320312 0.067709 62 71 66
-0.187500 0.320312 0.068778 69 78 75
-0.183594 0.320312 0.069893 74 83 82
-0.179688 0.320312 0.071155 75 85 87
-0.175781 0.320312 0.072566 77 88 94
-0.171875 0.320312 0.073937 82 95 104
-0.167969 0.320312 0.075005 86 100 113
-0.164062 0.320312 0.075619 85 101 117
-0.160156 0.320312 0.076079 101 118 136
-0.156250 0.320312 0.076578 100 118 138
-0.152344 0.320312 0.077399 100 121 142
-0.148438 0.320312 0.078619 102 124 147
-0.144531 0.320312 0.079810 106 131 153
-0.140625 0.320312 0.080977 112 137 159
-0.136719 0.320312 0.082083 117 144 165
-0.132812 0.320312 0.083147 121 148 169
-0.128906 0.320312 0.084287 130 153 159
-0.125000 0.320312 0.085515 130 153 159
-0.121094 0.320312 0.086821 127 150 156
-0.117188 0.320312 0.088247 116 139 145
-0.113281 0.320312 0.089730 102 125 133
-0.109375 0.320312 0.091224 90 115 122
-0.105469 0.320312 0.092448 86 111 118
-0.101562 0.320312 0.093226 86 111 118
-0.097656 0.320312 0.093840 72 97 102
-0.093750 0.320312 0.094340 75 100 105
-0.089844 0.320312 0.094659 79 104 109
-0.085938 0.320312 0.094727 82 107 111
-0.082031 0.320312 0.094647 83 108 112
-0.078125 0.320312 0.094420 82 110 113
-0.074219 0.320312 0.094031 82 110 111
-0.070312 0.320312 0.093476 82 110 111
-0.066406 0.320312 0.092784 104 121 129
-0.062500 0.320312 0.091941 102 119 127
-0.058594 0.320312 0.091139 101 120 127
-0.054688 0.320312 0.090451 105 124 131
-0.050781 0.320312 0.089720 105 123 133
-0.046875 0.320312 0.088964 94 112 122
-0.042969 0.320312 0.088204 73 93 104
-0.039062 0.320312 0.087455 54 76 89
-0.035156 0.320312 0.086646 65 87 101
-0.031250 0.320312 0.085789 57 80 96
-0.027344 0.320312 0.084859 45 70 90
-0.023438 0.320312 0.083863 39 67 87
-0.019531 0.320312 0.082826 40 69 90
-0.015625 0.320312 0.081758 45 75 99
-0.011719 0.320312 0.080647 52 82 106
-0.007812 0.320312 0.079504 57 88 113
-0.003906 0.320312 0.078342 84 105 106
0.000000 0.320312 0.077194 91 111 112
0.003906 0.320312 0.075980 92 113 113
0.007812 0.320312 0.074719 85 104 103
0.011719 0.320312 0.073418 74 91 90
0.015625 0.320312 0.072277 64 79 78
0.019531 0.320312 0.071279 55 68 68
0.023438 0.320312 0.070532 49 59 58
0.027344 0.320312 0.069859 52 61 58
0.031250 0.320312 0.069169 58 65 63
0.035156 0.320312 0.068309 68 74 70
0.039062 0.320312 0.067257 76 82 78
0.042969 0.320312 0.066083 81 84 79
0.046875 0.320312 0.064745 77 80 75
0.050781 0.320312 0.063451 67 70 65
0.054688 0.320312 0.062137 58 61 56
0.058594 0.320312 0.060781 61 62 60
0.062500 0.320312 0.059366 83 84 82
0.066406 0.320312 0.057800 89 90 88
0.070312 0.320312 0.056011 69 70 68
0.074219 0.320312 0.054064 52 52 50
0.078125 0.320312 0.051845 50 50 48
0.082031 0.320312 0.049504 49 49 47
0.085938 0.320312 0.047021 43 43 41
0.089844 0.320312 0.044355 73 74 72
0.093750 0.320312 0.041358 57 58 56
0.097656 0.320312 0.037893 32 33 31
0.101562 0.320312 0.033919 13 14 12
0.105469 0.320312 0.029723 18 20 18
0.109375 0.320312 0.025579 58 62 59
0.113281 0.320312 0.021718 109 114 111
0.117188 0.320312 0.018225 124 128 125
0.121094 0.320312 0.014881 115 117 116
0.125000 0.320312 0.011647 105 107 106
0.128906 0.320312 0.008258 119 121 121
0.132812 0.320312 0.004462 146 147 147
0.136719 0.320312 0.000787 166 166 166
0.140625 0.320312 -0.002514 175 176 176
0.144531 0.320312 -0.005560 181 182 181
0.148438 0.320312 -0.008049 190 190 190
0.152344 0.320312 -0.010176 197 197 197
0.156250 0.320312 -0.012119 203 203 203
0.160156 0.320312 -0.014402 204 204 204
0.164062 0.320312 -0.017240 195 196 196
0.167969 0.320312 -0.021160 202 202 205
0.171875 0.320312 -0.025980 236 238 237
0.175781 0.320312 -0.030893 179 210 169
-0.234375 0.316406 0.036269 92 86 100
-0.230469 0.316406 0.046110 97 92 101
-0.226562 0.316406 0.052653 87 87 94
-0.222656 0.316406 0.056695 101 104 108
-0.218750 0.316406 0.059609 109 115 117
-0.214844 0.316406 0.061360 109 121 120
-0.210938 0.316406 0.062578 123 135 131
-0.207031 0.316406 0.063721 102 105 104
-0.203125 0.316406 0.064848 62 62 62
-0.199219 0.316406 0.065853 61 61 61
-0.195312 0.316406 0.066673 72 72 72
-0.191406 0.316406 0.067608 70 87 79
-0.187500 0.316406 0.068695 84 101 95
-0.183594 0.316406 0.069828 92 111 107
-0.179688 0.316406 0.071084 89 107 109
-0.175781 0.316406 0.072500 82 101 107
-0.171875 0.316406 0.073891 78 98 109
-0.167969 0.316406 0.074994 75 98 114
-0.164062 0.316406 0.075653 72 97 119
-0.160156 0.316406 0.076138 101 127 154
-0.156250 0.316406 0.076653 104 133 163
-0.152344 0.316406 0.077568 106 136 170
-0.148438 0.316406 0.078888 101 133 171
-0.144531 0.316406 0.080195 91 125 163
-0.140625 0.316406 0.081464 84 119 159
-0.136719 0.316406 0.082712 84 119 159
-0.132812 0.316406 0.084000 86 124 163
-0.128906 0.316406 0.085383 92 125 168
-0.125000 0.316406 0.086846 99 132 175
-0.121094 0.316406 0.088387 107 142 182
-0.117188 0.316406 0.090065 112 147 185
-0.113281 0.316406 0.091797 112 148 184
-0.109375 0.316406 0.093518 111 147 181
-0.105469 0.316406 0.094911 112 149 178
-0.101562 0.316406 0.095794 114 151 177
-0.097656 0.316406 0.096496 118 156 177
-0.093750 0.316406 0.097065 119 158 173
-0.089844 0.316406 0.097434 122 162 172
-0.085938 0.316406 0.097541 125 166 172
-0.082031 0.316406 0.097503 127 168 170
-0.078125 0.316406 0.097307 124 166 165
-0.074219 0.316406 0.096929 115 160 155
-0.070312 0.316406 0.096394 110 155 150
-0.066406 0.316406 0.095727 124 148 174
-0.062500 0.316406 0.094894 122 146 172
-0.058594 0.316406 0.094083 122 146 172
-0.054688 0.316406 0.093383 126 150 176
-0.050781 0.316406 0.092629 131 155 181
-0.046875 0.316406 0.091824 128 154 181
-0.042969 0.316406 0.090997 119 145 172
-0.039062 0.316406 0.090172 109 136 165
-0.035156 0.316406 0.089269 71 100 130
-0.031250 0.316406 0.088311 65 96 127
-0.027344 0.316406 0.087263 56 89 122
-0.023438 0.316406 0.086133 52 87 121
-0.019531 0.316406 0.084972 50 87 122
-0.015625 0.316406 0.083776 51 87 124
-0.011719 0.316406 0.082551 48 87 125
-0.007812 0.316406 0.081341 47 86 124
-0.003906 0.316406 0.080115 56 80 93
0.000000 0.316406 0.078946 64 88 101
0.003906 0.316406 0.077762 71 94 106
0.007812 0.316406 0.076557 71 91 104
0.011719 0.316406 0.075327 70 89 100
0.015625 0.316406 0.074234 70 88 95
0.019531 0.316406 0.073269 67 81 88
0.023438 0.316406 0.072545 62 74 80
0.027344 0.316406 0.071893 51 61 63
0.031250 0.316406 0.071252 51 59 61
0.035156 0.316406 0.070476 62 72 69
0.039062 0.316406 0.069501 89 96 91
0.042969 0.316406 0.068402 102 109 102
0.046875 0.316406 0.067130 94 101 93
0.050781 0.316406 0.065872 81 86 79
0.054688 0.316406 0.064593 74 80 71
0.058594 0.316406 0.063269 69 71 66
0.062500 0.316406 0.061846 76 77 73
0.066406 0.316406 0.060251 78 80 75
0.070312 0.316406 0.058439 74 76 71
0.074219 0.316406 0.056489 73 75 70
0.078125 0.316406 0.054290 74 76 71
0.082031 0.316406 0.051953 68 69 64
0.085938 0.316406 0.049442 57 58 53
0.089844 0.316406 0.046728 49 50 45
0.093750 0.316406 0.043714 62 63 58
0.097656 0.316406 0.040244 70 72 67
0.101562 0.316406 0.036251 58 60 55
0.105469 0.316406 0.032026 29 31 26
0.109375 0.316406 0.027794 14 16 11
0.113281 0.316406 0.023802 30 32 26
0.117188 0.316406 0.020141 49 53 47
0.121094 0.316406 0.016598 103 106 105
0.125000 0.316406 0.013172 88 91 91
0.128906 0.316406 0.009609 91 94 93
0.132812 0.316406 0.005600 120 122 122
0.136719 0.316406 0.001683 152 154 153
0.140625 0.316406 -0.001827 171 172 172
0.144531 0.316406 -0.004913 177 178 178
0.148438 0.316406 -0.007373 190 190 190
0.152344 0.316406 -0.009456 195 196 195
0.156250 0.316406 -0.011209 199 199 199
0.160156 0.316406 -0.013437 198 199 199
0.164062 0.316406 -0.016310 191 192 192
0.167969 0.316406 -0.019753 193 193 195
0.171875 0.316406 -0.024011 212 212 216
0.175781 0.316406 -0.029548 175 180 176
-0.238281 0.312500 0.023692 75 74 106
-0.234375 0.312500 0.039703 92 87 100
-0.230469 0.312500 0.047910 86 83 92
-0.226562 0.312500 0.053939 86 87 94
-0.222656 0.312500 0.057520 103 107 110
-0.218750 0.312500 0.060216 116 123 124
-0.214844 0.312500 0.061854 126 138 135
-0.210938 0.312500 0.062943 137 143 141
-0.207031 0.312500 0.063953 86 87 87
-0.203125 0.312500 0.064926 71 71 71
-0.199219 0.312500 0.065804 85 85 85
-0.195312 0.312500 0.066562 79 79 79
-0.191406 0.312500 0.067464 74 95 86
-0.187500 0.312500 0.068570 94 117 109
-0.183594 0.312500 0.069697 110 132 129
-0.179688 0.312500 0.070925 102 126 126
-0.175781 0.312500 0.072325 86 111 116
-0.171875 0.312500 0.073716 75 101 114
-0.167969 0.312500 0.074856 71 99 120
-0.164062 0.312500 0.075566 68 98 124
-0.160156 0.312500 0.076070 71 104 137
-0.156250 0.312500 0.076608 72 106 144
-0.152344 0.312500 0.077605 73 108 150
-0.148438 0.312500 0.079036 71 109 154
-0.144531 0.312500 0.080465 70 110 159
-0.140625 0.312500 0.081842 70 112 162
-0.136719 0.312500 0.083247 71 113 163
-0.132812 0.312500 0.084767 73 114 166
-0.128906 0.312500 0.086403 81 120 187
-0.125000 0.312500 0.088109 89 128 193
-0.121094 0.312500 0.089889 101 141 203
-0.117188 0.312500 0.091818 110 150 211
-0.113281 0.312500 0.093794 114 157 212
-0.109375 0.312500 0.095730 115 159 208
-0.105469 0.312500 0.097279 114 159 201
-0.101562 0.312500 0.098253 113 159 195
-0.097656 0.312500 0.099030 114 161 189
-0.093750 0.312500 0.099666 110 158 178
-0.089844 0.312500 0.100087 108 157 171
-0.085938 0.312500 0.100235 114 164 171
-0.082031 0.312500 0.100227 121 172 173
-0.078125 0.312500 0.100056 123 176 170
-0.074219 0.312500 0.099703 116 169 161
-0.070312 0.312500 0.099176 108 161 151
-0.066406 0.312500 0.098515 126 154 191
-0.062500 0.312500 0.097686 120 148 185
-0.058594 0.312500 0.096867 114 142 179
-0.054688 0.312500 0.096146 113 141 178
-0.050781 0.312500 0.095376 121 149 186
-0.046875 0.312500 0.094536 133 161 200
-0.042969 0.312500 0.093645 144 174 211
-0.039062 0.312500 0.092745 150 179 218
-0.035156 0.312500 0.091760 131 163 204
-0.031250 0.312500 0.090721 117 150 193
-0.027344 0.312500 0.089572 99 133 178
-0.023438 0.312500 0.088308 83 120 165
-0.019531 0.312500 0.087007 76 114 161
-0.015625 0.312500 0.085682 74 114 163
-0.011719 0.312500 0.084360 74 116 164
-0.007812 0.312500 0.083072 75 117 167
-0.003906 0.312500 0.081791 87 113 136
0.000000 0.312500 0.080614 94 119 141
0.003906 0.312500 0.079461 98 120 143
0.007812 0.312500 0.078319 95 116 137
0.011719 0.312500 0.077177 96 115 132
0.015625 0.312500 0.076159 98 115 131
0.019531 0.312500 0.075257 94 110 123
0.023438 0.312500 0.074570 90 104 112
0.027344 0.312500 0.073949 93 105 110
0.031250 0.312500 0.073336 71 82 83
0.035156 0.312500 0.072601 60 71 70
0.039062 0.312500 0.071668 75 85 79
0.042969 0.312500 0.070613 88 98 90
0.046875 0.312500 0.069400 89 96 88
0.050781 0.312500 0.068179 88 96 85
0.054688 0.312500 0.066919 93 101 90
0.058594 0.312500 0.065596 79 80 75
0.062500 0.312500 0.064145 77 78 73
0.066406 0.312500 0.062544 83 84 79
0.070312 0.312500 0.060748 99 100 95
0.074219 0.312500 0.058851 108 109 105
0.078125 0.312500 0.056681 100 102 97
0.082031 0.312500 0.054323 82 84 79
0.085938 0.312500 0.051781 69 70 65
0.089844 0.312500 0.049053 69 70 65
0.093750 0.312500 0.046059 59 60 55
0.097656 0.312500 0.042584 57 58 53
0.101562 0.312500 0.038563 70 72 67
0.105469 0.312500 0.034278 78 80 75
0.109375 0.312500 0.029914 64 66 61
0.113281 0.312500 0.025765 37 39 34
0.117188 0.312500 0.021936 16 18 13
0.121094 0.312500 0.018208 61 64 63
0.125000 0.312500 0.014572 97 101 100
0.128906 0.312500 0.010728 79 82 82
0.132812 0.312500 0.006505 88 91 91
0.136719 0.312500 0.002332 127 129 129
0.140625 0.312500 -0.001355 157 159 158
0.144531 0.312500 -0.004439 170 171 170
0.148438 0.312500 -0.006837 183 184 183
0.152344 0.312500 -0.008849 190 191 190
0.156250 0.312500 -0.010527 195 195 195
0.160156 0.312500 -0.012693 197 197 197
0.164062 0.312500 -0.015591 197 198 197
0.167969 0.312500 -0.018766 201 202 202
0.171875 0.312500 -0.022408 208 208 211
0.175781 0.312500 -0.027613 211 207 212
0.179688 0.312500 -0.036058 168 183 160
-0.238281 0.308594 0.027596 84 83 109
-0.234375 0.308594 0.042384 87 83 94
-0.230469 0.308594 0.049519 87 86 93
-0.226562 0.308594 0.054937 93 95 100
-0.222656 0.308594 0.058310 112 117 118
-0.218750 0.308594 0.060780 127 137 134
-0.214844 0.308594 0.062281 130 141 138
-0.210938 0.308594 0.063299 102 112 112
-0.207031 0.308594 0.064207 73 82 87
-0.203125 0.308594 0.065030 82 95 103
-0.199219 0.308594 0.065781 84 98 109
-0.195312 0.308594 0.066447 68 84 97
-0.191406 0.308594 0.067285 85 91 103
-0.187500 0.308594 0.068369 102 109 119
-0.183594 0.308594 0.069462 108 113 117
-0.179688 0.308594 0.070647 96 102 100
-0.175781 0.308594 0.072010 97 102 95
-0.171875 0.308594 0.073393 106 114 101
-0.167969 0.308594 0.074577 98 109 95
-0.164062 0.308594 0.075346 76 92 79
-0.160156 0.308594 0.075862 84 105 98
-0.156250 0.308594 0.076438 82 112 114
-0.152344 0.308594 0.077496 85 123 136
-0.148438 0.308594 0.079038 90 136 162
-0.144531 0.308594 0.080584 91 144 184
-0.140625 0.308594 0.082083 82 144 193
-0.136719 0.308594 0.083668 67 133 193
-0.132812 0.308594 0.085427 54 124 186
-0.128906 0.308594 0.087320 59 113 173
-0.125000 0.308594 0.089279 61 117 176
-0.121094 0.308594 0.091296 65 124 182
-0.117188 0.308594 0.093466 70 130 190
-0.113281 0.308594 0.095672 72 137 195
-0.109375 0.308594 0.097813 75 141 199
-0.105469 0.308594 0.099517 75 144 201
-0.101562 0.308594 0.100576 76 145 200
-0.097656 0.308594 0.101415 73 144 196
-0.093750 0.308594 0.102109 77 147 196
-0.089844 0.308594 0.102576 83 151 196
-0.085938 0.308594 0.102762 89 156 198
-0.082031 0.308594 0.102779 96 161 199
-0.078125 0.308594 0.102623 99 163 198
-0.074219 0.308594 0.102294 101 164 195
-0.070312 0.308594 0.101790 102 165 196
-0.066406 0.308594 0.101139 97 158 203
-0.062500 0.308594 0.100309 99 157 203
-0.058594 0.308594 0.099488 99 158 202
-0.054688 0.308594 0.098762 100 158 198
-0.050781 0.308594 0.097978 103 159 196
-0.046875 0.308594 0.097114 105 159 193
-0.042969 0.308594 0.096175 106 159 190
-0.039062 0.308594 0.095212 109 160 187
-0.035156 0.308594 0.094153 131 181 206
-0.031250 0.308594 0.093045 126 174 197
-0.027344 0.308594 0.091808 118 164 187
-0.023438 0.308594 0.090439 114 159 182
-0.019531 0.308594 0.089015 117 159 181
-0.015625 0.308594 0.087567 121 162 184
-0.011719 0.308594 0.086153 124 165 187
-0.007812 0.308594 0.084821 124 165 187
-0.003906 0.308594 0.083510 129 172 204
0.000000 0.308594 0.082308 124 165 197
0.003906 0.308594 0.081158 114 155 187
0.007812 0.308594 0.080084 110 149 180
0.011719 0.308594 0.079044 112 148 180
0.015625 0.308594 0.078122 117 150 183
0.019531 0.308594 0.077316 122 151 183
0.023438 0.308594 0.076687 124 150 183
0.027344 0.308594 0.076109 137 160 194
0.031250 0.308594 0.075526 119 137 173
0.035156 0.308594 0.074830 87 101 138
0.039062 0.308594 0.073925 62 74 114
0.042969 0.308594 0.072873 66 75 116
0.046875 0.308594 0.071677 83 90 132
0.050781 0.308594 0.070454 88 92 137
0.054688 0.308594 0.069214 79 83 128
0.058594 0.308594 0.067923 76 95 93
0.062500 0.308594 0.066501 69 87 87
0.066406 0.308594 0.064952 68 86 88
0.070312 0.308594 0.063186 79 98 104
0.074219 0.308594 0.061297 94 113 120
0.078125 0.308594 0.059157 99 117 127
0.082031 0.308594 0.056845 87 106 116
0.085938 0.308594 0.054336 75 94 101
0.089844 0.308594 0.051610 56 74 78
0.093750 0.308594 0.048607 55 71 70
0.097656 0.308594 0.045115 65 81 71
0.101562 0.308594 0.041028 84 99 80
0.105469 0.308594 0.036635 89 103 77
0.109375 0.308594 0.032126 75 87 53
0.113281 0.308594 0.027801 59 71 31
0.117188 0.308594 0.023769 53 65 22
0.121094 0.308594 0.019807 47 41 51
0.125000 0.308594 0.015848 46 45 52
0.128906 0.308594 0.011600 89 92 95
0.132812 0.308594 0.007079 79 83 83
0.136719 0.308594 0.002580 103 106 106
0.140625 0.308594 -0.001186 142 143 146
0.144531 0.308594 -0.004207 167 167 168
0.148438 0.308594 -0.006528 172 173 176
0.152344 0.308594 -0.008432 182 182 182
0.156250 0.308594 -0.010056 185 185 185
0.160156 0.308594 -0.012053 189 189 189
0.164062 0.308594 -0.014988 194 194 194
0.167969 0.308594 -0.018087 198 199 199
0.171875 0.308594 -0.021314 196 196 199
0.175781 0.308594 -0.025854 205 199 209
0.179688 0.308594 -0.031735 218 218 219
-0.238281 0.304688 0.031969 112 110 130
-0.234375 0.304688 0.044680 100 99 108
-0.230469 0.304688 0.051477 103 105 110
-0.226562 0.304688 0.055925 109 114 117
-0.222656 0.304688 0.058924 121 128 129
-0.218750 0.304688 0.061301 135 146 141
-0.214844 0.304688 0.062711 138 147 144
-0.210938 0.304688 0.063640 93 102 103
-0.207031 0.304688 0.064446 66 75 80
-0.203125 0.304688 0.065151 77 90 98
-0.199219 0.304688 0.065778 88 102 111
-0.195312 0.304688 0.066331 85 99 110
-0.191406 0.304688 0.067090 67 79 95
-0.187500 0.304688 0.068106 87 97 109
-0.183594 0.304688 0.069131 97 107 116
-0.179688 0.304688 0.070257 95 104 109
-0.175781 0.304688 0.071583 95 105 104
-0.171875 0.304688 0.072958 100 111 107
-0.167969 0.304688 0.074172 95 108 101
-0.164062 0.304688 0.074989 79 96 90
-0.160156 0.304688 0.075497 80 102 100
-0.156250 0.304688 0.076090 87 116 122
-0.152344 0.304688 0.077187 96 132 148
-0.148438 0.304688 0.078848 98 140 165
-0.144531 0.304688 0.080528 90 138 176
-0.140625 0.304688 0.082167 80 134 181
-0.136719 0.304688 0.083937 73 133 187
-0.132812 0.304688 0.085914 72 133 190
-0.128906 0.304688 0.088048 71 125 187
-0.125000 0.304688 0.090272 70 124 186
-0.121094 0.304688 0.092551 67 122 186
-0.117188 0.304688 0.094979 63 121 185
-0.113281 0.304688 0.097415 62 123 188
-0.109375 0.304688 0.099749 61 125 189
-0.105469 0.304688 0.101590 62 127 191
-0.101562 0.304688 0.102725 62 130 193
-0.097656 0.304688 0.103621 67 135 198
-0.093750 0.304688 0.104364 70 136 196
-0.089844 0.304688 0.104877 71 137 195
-0.085938 0.304688 0.105106 74 139 193
-0.082031 0.304688 0.105151 78 141 194
-0.078125 0.304688 0.105017 82 144 193
-0.074219 0.304688 0.104704 85 146 193
-0.070312 0.304688 0.104216 86 147 194
-0.066406 0.304688 0.103590 78 137 193
-0.062500 0.304688 0.102776 79 139 193
-0.058594 0.304688 0.101962 82 142 194
-0.054688 0.304688 0.101247 88 146 196
-0.050781 0.304688 0.100470 95 153 199
-0.046875 0.304688 0.099594 102 159 204
-0.042969 0.304688 0.098638 110 164 208
-0.039062 0.304688 0.097646 115 168 208
-0.035156 0.304688 0.096553 109 161 200
-0.031250 0.304688 0.095409 108 157 197
-0.027344 0.304688 0.094126 108 156 196
-0.023438 0.304688 0.092696 111 156 197
-0.019531 0.304688 0.091206 116 159 201
-0.015625 0.304688 0.089692 120 162 203
-0.011719 0.304688 0.088223 120 162 203
-0.007812 0.304688 0.086862 119 161 202
-0.003906 0.304688 0.085551 125 169 208
0.000000 0.304688 0.084365 119 165 200
0.003906 0.304688 0.083252 114 158 194
0.007812 0.304688 0.082243 111 154 189
0.011719 0.304688 0.081285 114 154 189
0.015625 0.304688 0.080439 119 158 189
0.019531 0.304688 0.079704 127 162 192
0.023438 0.304688 0.079127 131 165 193
0.027344 0.304688 0.078584 121 151 179
0.031250 0.304688 0.078031 129 155 182
0.035156 0.304688 0.077367 122 146 172
0.039062 0.304688 0.076485 105 127 151
0.042969 0.304688 0.075450 94 114 139
0.046875 0.304688 0.074287 98 116 140
0.050781 0.304688 0.073099 103 119 144
0.054688 0.304688 0.071917 103 119 144
0.058594 0.304688 0.070657 125 149 159
0.062500 0.304688 0.069241 107 131 141
0.066406 0.304688 0.067700 85 109 121
0.070312 0.304688 0.065942 71 94 110
0.074219 0.304688 0.064065 71 94 112
0.078125 0.304688 0.061953 83 106 124
0.082031 0.304688 0.059656 95 118 136
0.085938 0.304688 0.057139 104 125 143
0.089844 0.304688 0.054400 96 116 127
0.093750 0.304688 0.051340 75 92 99
0.097656 0.304688 0.047797 54 70 67
0.101562 0.304688 0.043658 58 71 61
0.105469 0.304688 0.039153 81 93 73
0.109375 0.304688 0.034516 96 107 80
0.113281 0.304688 0.029992 89 100 66
0.117188 0.304688 0.025661 74 83 46
0.121094 0.304688 0.021368 45 40 44
0.125000 0.304688 0.016998 51 47 52
0.128906 0.304688 0.012220 85 90 91
0.132812 0.304688 0.007288 84 91 90
0.136719 0.304688 0.002494 94 100 100
0.140625 0.304688 -0.001246 146 148 148
0.144531 0.304688 -0.004147 172 174 173
0.148438 0.304688 -0.006377 179 179 179
0.152344 0.304688 -0.008153 180 180 180
0.156250 0.304688 -0.009738 178 177 178
0.160156 0.304688 -0.011582 177 177 177
0.164062 0.304688 -0.014346 181 181 181
0.167969 0.304688 -0.017288 182 183 183
0.171875 0.304688 -0.020467 172 173 174
0.175781 0.304688 -0.024568 171 167 178
0.179688 0.304688 -0.029570 186 180 194
-0.238281 0.300781 0.034687 99 97 110
-0.234375 0.300781 0.046545 93 93 100
-0.230469 0.300781 0.052922 105 108 113
-0.226562 0.300781 0.056836 116 122 124
-0.222656 0.300781 0.059552 128 137 135
-0.218750 0.300781 0.061789 140 150 144
-0.214844 0.300781 0.063129 125 132 129
-0.210938 0.300781 0.063992 82 88 88
-0.207031 0.300781 0.064715 63 73 75
-0.203125 0.300781 0.065311 74 85 91
-0.199219 0.300781 0.065805 88 101 109
-0.195312 0.300781 0.066218 94 109 116
-0.191406 0.300781 0.066855 72 90 112
-0.187500 0.300781 0.067774 78 96 116
-0.183594 0.300781 0.068718 82 99 117
-0.179688 0.300781 0.069772 80 98 112
-0.175781 0.300781 0.071057 79 96 106
-0.171875 0.300781 0.072423 81 98 106
-0.167969 0.300781 0.073650 82 101 107
-0.164062 0.300781 0.074502 80 100 107
-0.160156 0.300781 0.074982 79 101 112
-0.156250 0.300781 0.075532 74 102 116
-0.152344 0.300781 0.076634 76 107 127
-0.148438 0.300781 0.078400 85 120 148
-0.144531 0.300781 0.080227 96 136 171
-0.140625 0.300781 0.082002 100 143 185
-0.136719 0.300781 0.083935 93 140 186
-0.132812 0.300781 0.086140 84 132 180
-0.128906 0.300781 0.088531 79 128 194
-0.125000 0.300781 0.091027 76 125 191
-0.121094 0.300781 0.093566 69 120 186
-0.117188 0.300781 0.096267 63 116 184
-0.113281 0.300781 0.098967 61 115 187
-0.109375 0.300781 0.101494 59 117 190
-0.105469 0.300781 0.103461 62 122 195
-0.101562 0.300781 0.104671 62 124 199
-0.097656 0.300781 0.105628 64 126 203
-0.093750 0.300781 0.106419 63 125 202
-0.089844 0.300781 0.106978 64 123 199
-0.085938 0.300781 0.107254 64 121 198
-0.082031 0.300781 0.107332 67 123 198
-0.078125 0.300781 0.107222 69 125 199
-0.074219 0.300781 0.106927 74 128 200
-0.070312 0.300781 0.106446 77 129 202
-0.066406 0.300781 0.105843 75 136 201
-0.062500 0.300781 0.105059 74 133 199
-0.058594 0.300781 0.104257 72 132 195
-0.054688 0.300781 0.103546 71 131 194
-0.050781 0.300781 0.102774 72 130 193
-0.046875 0.300781 0.101906 76 132 193
-0.042969 0.300781 0.100957 78 134 193
-0.039062 0.300781 0.099965 81 135 195
-0.035156 0.300781 0.098859 90 142 202
-0.031250 0.300781 0.097708 90 140 201
-0.027344 0.300781 0.096412 92 140 204
-0.023438 0.300781 0.094960 94 142 207
-0.019531 0.300781 0.093438 100 145 211
-0.015625 0.300781 0.091904 103 148 215
-0.011719 0.300781 0.090424 105 146 218
-0.007812 0.300781 0.089055 105 146 218
-0.003906 0.300781 0.087750 103 152 205
0.000000 0.300781 0.086562 101 150 201
0.003906 0.300781 0.085475 99 147 195
0.007812 0.300781 0.084526 95 143 188
0.011719 0.300781 0.083641 95 142 184
0.015625 0.300781 0.082861 99 145 181
0.019531 0.300781 0.082183 105 150 183
0.023438 0.300781 0.081654 110 154 181
0.027344 0.300781 0.081150 111 151 176
0.031250 0.300781 0.080630 128 165 184
0.035156 0.300781 0.079989 137 173 189
0.039062 0.300781 0.079148 126 162 173
0.042969 0.300781 0.078180 112 146 156
0.046875 0.300781 0.077081 108 143 149
0.050781 0.300781 0.075932 111 144 151
0.054688 0.300781 0.074770 111 144 149
0.058594 0.300781 0.073526 92 127 155
0.062500 0.300781 0.072140 98 133 160
0.066406 0.300781 0.070631 103 136 166
0.070312 0.300781 0.068886 101 134 166
0.074219 0.300781 0.067021 92 125 159
0.078125 0.300781 0.064912 87 117 152
0.082031 0.300781 0.062602 86 115 149
0.085938 0.300781 0.060051 90 115 146
0.089844 0.300781 0.057263 113 134 161
0.093750 0.300781 0.054163 108 126 147
0.097656 0.300781 0.050555 87 104 114
0.101562 0.300781 0.046371 64 75 77
0.105469 0.300781 0.041783 59 69 61
0.109375 0.300781 0.037012 78 84 70
0.113281 0.300781 0.032258 93 99 79
0.117188 0.300781 0.027621 96 101 78
0.121094 0.300781 0.022941 76 74 67
0.125000 0.300781 0.018104 66 64 58
0.128906 0.300781 0.012644 55 58 52
0.132812 0.300781 0.007105 94 102 99
0.136719 0.300781 0.002033 98 104 102
0.140625 0.300781 -0.001581 143 145 144
0.144531 0.300781 -0.004263 173 174 174
0.148438 0.300781 -0.006377 182 183 182
0.152344 0.300781 -0.008008 181 181 181
0.156250 0.300781 -0.009479 175 175 175
0.160156 0.300781 -0.011210 172 172 172
0.164062 0.300781 -0.013781 175 175 175
0.167969 0.300781 -0.016566 176 177 176
0.171875 0.300781 -0.019520 169 170 171
0.175781 0.300781 -0.023405 173 170 180
0.179688 0.300781 -0.027898 198 192 204
0.183594 0.300781 -0.036629 113 154 111
-0.238281 0.296875 0.037981 83 82 90
-0.234375 0.296875 0.048191 75 76 81
-0.230469 0.296875 0.054319 93 97 100
-0.226562 0.296875 0.057773 117 124 124
-0.222656 0.296875 0.060164 141 150 146
-0.218750 0.296875 0.062263 143 150 143
-0.214844 0.296875 0.063558 102 105 101
-0.210938 0.296875 0.064362 73 79 79
-0.207031 0.296875 0.065012 65 73 75
-0.203125 0.296875 0.065526 67 78 80
-0.199219 0.296875 0.065904 76 87 91
-0.195312 0.296875 0.066171 78 91 97
-0.191406 0.296875 0.066666 68 93 123
-0.187500 0.296875 0.067468 66 92 119
-0.183594 0.296875 0.068311 67 93 120
-0.179688 0.296875 0.069256 72 98 123
-0.175781 0.296875 0.070475 75 99 123
-0.171875 0.296875 0.071806 73 97 121
-0.167969 0.296875 0.073030 72 96 120
-0.164062 0.296875 0.073894 74 98 122
-0.160156 0.296875 0.074327 75 99 123
-0.156250 0.296875 0.074776 67 93 118
-0.152344 0.296875 0.075868 63 90 117
-0.148438 0.296875 0.077734 73 100 130
-0.144531 0.296875 0.079711 89 118 150
-0.140625 0.296875 0.081609 100 130 164
-0.136719 0.296875 0.083754 99 129 165
-0.132812 0.296875 0.086193 91 123 161
-0.128906 0.296875 0.088838 86 128 188
-0.125000 0.296875 0.091607 83 127 188
-0.121094 0.296875 0.094405 79 125 187
-0.117188 0.296875 0.097362 74 122 188
-0.113281 0.296875 0.100320 71 120 189
-0.109375 0.296875 0.103063 68 118 191
-0.105469 0.296875 0.105156 66 117 196
-0.101562 0.296875 0.106442 64 116 199
-0.097656 0.296875 0.107456 68 123 206
-0.093750 0.296875 0.108290 68 122 208
-0.089844 0.296875 0.108893 69 120 209
-0.085938 0.296875 0.109211 69 120 209
-0.082031 0.296875 0.109320 72 122 211
-0.078125 0.296875 0.109230 75 122 212
-0.074219 0.296875 0.108950 77 124 214
-0.070312 0.296875 0.108473 80 125 216
-0.066406 0.296875 0.107879 72 132 204
-0.062500 0.296875 0.107112 73 132 202
-0.058594 0.296875 0.106331 74 133 203
-0.054688 0.296875 0.105622 76 135 205
-0.050781 0.296875 0.104848 79 138 208
-0.046875 0.296875 0.103986 82 139 210
-0.042969 0.296875 0.103049 84 141 212
-0.039062 0.296875 0.102061 87 141 215
-0.035156 0.296875 0.100957 88 141 217
-0.031250 0.296875 0.099805 86 137 215
-0.027344 0.296875 0.098506 82 133 215
-0.023438 0.296875 0.097041 82 130 214
-0.019531 0.296875 0.095508 82 129 218
-0.015625 0.296875 0.093971 84 129 221
-0.011719 0.296875 0.092488 86 130 224
-0.007812 0.296875 0.091120 88 132 226
-0.003906 0.296875 0.089825 87 138 211
0.000000 0.296875 0.088649 88 140 212
0.003906 0.296875 0.087582 90 140 208
0.007812 0.296875 0.086677 86 137 201
0.011719 0.296875 0.085855 81 133 193
0.015625 0.296875 0.085136 80 131 186
0.019531 0.296875 0.084526 82 132 181
0.023438 0.296875 0.084061 85 137 177
0.027344 0.296875 0.083614 94 144 179
0.031250 0.296875 0.083139 98 147 177
0.035156 0.296875 0.082535 96 146 169
0.039062 0.296875 0.081753 91 140 157
0.042969 0.296875 0.080857 88 137 151
0.046875 0.296875 0.079814 89 137 147
0.050781 0.296875 0.078702 86 135 142
0.054688 0.296875 0.077576 80 129 136
0.058594 0.296875 0.076359 74 120 170
0.062500 0.296875 0.074996 83 129 178
0.066406 0.296875 0.073493 91 137 186
0.070312 0.296875 0.071732 92 135 187
0.074219 0.296875 0.069852 84 125 178
0.078125 0.296875 0.067720 82 119 173
0.082031 0.296875 0.065385 85 121 172
0.085938 0.296875 0.062799 94 123 173
0.089844 0.296875 0.059975 95 121 164
0.093750 0.296875 0.056843 115 137 175
0.097656 0.296875 0.053185 121 138 166
0.101562 0.296875 0.048890 92 106 125
0.105469 0.296875 0.044274 60 69 78
0.109375 0.296875 0.039419 54 59 62
0.113281 0.296875 0.034482 74 76 73
0.117188 0.296875 0.029606 93 95 89
0.121094 0.296875 0.024525 101 103 87
0.125000 0.296875 0.019263 76 78 62
0.128906 0.296875 0.012893 58 61 47
0.132812 0.296875 0.006424 97 103 93
0.136719 0.296875 0.001261 123 129 123
0.140625 0.296875 -0.002103 142 146 140
0.144531 0.296875 -0.004471 180 181 176
0.148438 0.296875 -0.006425 188 190 186
0.152344 0.296875 -0.007911 186 187 185
0.156250 0.296875 -0.009222 176 177 176
0.160156 0.296875 -0.010836 169 170 170
0.164062 0.296875 -0.013203 168 169 168
0.167969 0.296875 -0.015850 165 165 165
0.171875 0.296875 -0.018603 155 156 156
0.175781 0.296875 -0.022090 155 153 160
0.179688 0.296875 -0.026888 169 161 179
0.183594 0.296875 -0.032753 100 127 110
-0.242188 0.292969 0.025908 93 92 107
-0.238281 0.292969 0.041152 82 82 88
-0.234375 0.292969 0.049503 70 72 76
-0.230469 0.292969 0.055672 85 90 93
-0.226562 0.292969 0.058586 116 123 122
-0.222656 0.292969 0.060679 149 155 151
-0.218750 0.292969 0.062690 128 130 127
-0.214844 0.292969 0.063956 78 80 77
-0.210938 0.292969 0.064719 66 72 70
-0.207031 0.292969 0.065320 64 73 72
-0.203125 0.292969 0.065766 64 74 75
-0.199219 0.292969 0.066036 69 81 81
-0.195312 0.292969 0.066157 69 80 82
-0.191406 0.292969 0.066505 53 83 117
-0.187500 0.292969 0.067186 51 81 115
-0.183594 0.292969 0.067901 56 89 124
-0.179688 0.292969 0.068719 72 105 140
-0.175781 0.292969 0.069837 82 114 152
-0.171875 0.292969 0.071081 82 111 151
-0.167969 0.292969 0.072266 74 103 143
-0.164062 0.292969 0.073101 71 100 140
-0.160156 0.292969 0.073468 70 98 137
-0.156250 0.292969 0.073768 78 104 141
-0.152344 0.292969 0.074861 82 106 142
-0.148438 0.292969 0.076851 76 99 133
-0.144531 0.292969 0.078969 69 90 121
-0.140625 0.292969 0.081020 70 89 119
-0.136719 0.292969 0.083381 85 102 130
-0.132812 0.292969 0.086026 98 115 143
-0.128906 0.292969 0.088906 95 132 177
-0.125000 0.292969 0.091936 97 134 179
-0.121094 0.292969 0.094987 98 136 185
-0.117188 0.292969 0.098196 96 136 188
-0.113281 0.292969 0.101389 90 131 187
-0.109375 0.292969 0.104352 82 123 185
-0.105469 0.292969 0.106605 71 114 182
-0.101562 0.292969 0.107982 65 109 182
-0.097656 0.292969 0.109061 64 110 187
-0.093750 0.292969 0.109944 65 110 191
-0.089844 0.292969 0.110598 66 111 196
-0.085938 0.292969 0.110961 67 111 198
-0.082031 0.292969 0.111103 69 110 200
-0.078125 0.292969 0.111044 68 109 201
-0.074219 0.292969 0.110792 68 107 200
-0.070312 0.292969 0.110327 67 106 199
-0.066406 0.292969 0.109733 68 126 189
-0.062500 0.292969 0.108968 70 128 191
-0.058594 0.292969 0.108188 75 130 195
-0.054688 0.292969 0.107486 77 132 197
-0.050781 0.292969 0.106705 79 134 199
-0.046875 0.292969 0.105840 79 134 201
-0.042969 0.292969 0.104906 78 132 202
-0.039062 0.292969 0.103919 77 131 203
-0.035156 0.292969 0.102824 87 139 214
-0.031250 0.292969 0.101672 86 137 217
-0.027344 0.292969 0.100367 84 134 218
-0.023438 0.292969 0.098904 80 130 218
-0.019531 0.292969 0.097366 77 126 218
-0.015625 0.292969 0.095834 74 122 219
-0.011719 0.292969 0.094351 75 120 220
-0.007812 0.292969 0.092985 75 120 222
-0.003906 0.292969 0.091692 77 128 219
0.000000 0.292969 0.090519 81 132 222
0.003906 0.292969 0.089461 86 137 225
0.007812 0.292969 0.088576 86 138 223
0.011719 0.292969 0.087785 82 134 217
0.015625 0.292969 0.087096 79 132 210
0.019531 0.292969 0.086526 78 132 204
0.023438 0.292969 0.086105 79 134 199
0.027344 0.292969 0.085703 85 139 201
0.031250 0.292969 0.085283 81 136 192
0.035156 0.292969 0.084744 75 131 182
0.039062 0.292969 0.084013 72 129 174
0.042969 0.292969 0.083157 75 133 173
0.046875 0.292969 0.082173 78 136 174
0.050781 0.292969 0.081121 75 133 170
0.054688 0.292969 0.080044 69 128 162
0.058594 0.292969 0.078867 78 135 204
0.062500 0.292969 0.077534 80 134 203
0.066406 0.292969 0.076037 77 131 200
0.070312 0.292969 0.074259 72 125 194
0.074219 0.292969 0.072357 69 117 188
0.078125 0.292969 0.070205 71 118 189
0.082031 0.292969 0.067852 83 123 192
0.085938 0.292969 0.065237 92 129 196
0.089844 0.292969 0.062391 85 117 177
0.093750 0.292969 0.059227 96 120 174
0.097656 0.292969 0.055521 107 128 173
0.101562 0.292969 0.051162 107 123 159
0.105469 0.292969 0.046471 89 101 129
0.109375 0.292969 0.041608 69 75 97
0.113281 0.292969 0.036574 65 68 85
0.117188 0.292969 0.031467 72 74 87
0.121094 0.292969 0.025924 84 88 67
0.125000 0.292969 0.020242 68 72 51
0.128906 0.292969 0.012923 74 77 57
0.132812 0.292969 0.005135 69 75 58
0.136719 0.292969 0.000157 134 141 131
0.140625 0.292969 -0.002814 142 146 139
0.144531 0.292969 -0.004807 174 176 168
0.148438 0.292969 -0.006553 191 193 186
0.152344 0.292969 -0.007880 189 190 186
0.156250 0.292969 -0.009011 178 179 176
0.160156 0.292969 -0.010484 171 172 171
0.164062 0.292969 -0.012621 169 170 169
0.167969 0.292969 -0.015053 165 166 165
0.171875 0.292969 -0.017759 158 159 159
0.175781 0.292969 -0.020884 158 158 161
0.179688 0.292969 -0.025370 167 163 176
0.183594 0.292969 -0.032249 116 134 132
-0.242188 0.289062 0.031056 79 79 92
-0.238281 0.289062 0.043566 76 77 82
-0.234375 0.289062 0.051188 71 74 79
-0.230469 0.289062 0.056620 87 93 96
-0.226562 0.289062 0.059248 122 130 128
-0.222656 0.289062 0.061190 130 134 131
-0.218750 0.289062 0.063136 94 95 92
-0.214844 0.289062 0.064384 60 62 59
-0.210938 0.289062 0.065116 64 68 67
-0.207031 0.289062 0.065685 65 71 69
-0.203125 0.289062 0.066088 74 83 82
-0.199219 0.289062 0.066260 90 100 99
-0.195312 0.289062 0.066243 92 102 101
-0.191406 0.289062 0.066439 73 106 139
-0.187500 0.289062 0.066983 63 96 131
-0.183594 0.289062 0.067557 56 90 128
-0.179688 0.289062 0.068240 60 93 136
-0.175781 0.289062 0.069211 68 102 148
-0.171875 0.289062 0.070315 74 107 158
-0.167969 0.289062 0.071394 77 110 164
-0.164062 0.289062 0.072139 80 111 166
-0.160156 0.289062 0.072426 75 105 159
-0.156250 0.289062 0.072569 81 107 158
-0.152344 0.289062 0.073694 84 106 153
-0.148438 0.289062 0.075809 80 98 138
-0.144531 0.289062 0.078045 74 89 122
-0.140625 0.289062 0.080285 75 86 114
-0.136719 0.289062 0.082833 85 92 118
-0.132812 0.289062 0.085682 95 101 123
-0.128906 0.289062 0.088799 93 124 144
-0.125000 0.289062 0.092090 99 130 151
-0.121094 0.289062 0.095402 108 138 164
-0.117188 0.289062 0.098865 114 145 174
-0.113281 0.289062 0.102291 112 145 178
-0.109375 0.289062 0.105440 106 140 178
-0.105469 0.289062 0.107857 97 131 176
-0.101562 0.289062 0.109341 89 125 175
-0.097656 0.289062 0.110475 86 123 176
-0.093750 0.289062 0.111402 87 123 183
-0.089844 0.289062 0.112105 89 124 188
-0.085938 0.289062 0.112511 89 124 192
-0.082031 0.289062 0.112685 88 122 193
-0.078125 0.289062 0.112660 87 119 192
-0.074219 0.289062 0.112433 84 116 191
-0.070312 0.289062 0.111981 82 114 189
-0.066406 0.289062 0.111388 70 121 166
-0.062500 0.289062 0.110614 71 122 167
-0.058594 0.289062 0.109822 71 122 167
-0.054688 0.289062 0.109104 70 121 166
-0.050781 0.289062 0.108319 68 119 166
-0.046875 0.289062 0.107433 64 114 163
-0.042969 0.289062 0.106480 61 111 162
-0.039062 0.289062 0.105483 58 107 163
-0.035156 0.289062 0.104374 73 122 181
-0.031250 0.289062 0.103214 76 124 187
-0.027344 0.289062 0.101903 80 129 195
-0.023438 0.289062 0.100447 81 129 202
-0.019531 0.289062 0.098913 79 126 203
-0.015625 0.289062 0.097380 75 122 203
-0.011719 0.289062 0.095893 71 117 201
-0.007812 0.289062 0.094525 70 116 201
-0.003906 0.289062 0.093222 63 109 202
0.000000 0.289062 0.092038 67 113 206
0.003906 0.289062 0.090984 70 119 211
0.007812 0.289062 0.090107 73 122 215
0.011719 0.289062 0.089340 74 123 215
0.015625 0.289062 0.088676 72 123 214
0.019531 0.289062 0.088146 71 122 211
0.023438 0.289062 0.087776 71 122 211
0.027344 0.289062 0.087425 69 123 209
0.031250 0.289062 0.087060 74 129 212
0.035156 0.289062 0.086581 77 134 215
0.039062 0.289062 0.085917 76 133 214
0.042969 0.289062 0.085127 74 131 210
0.046875 0.289062 0.084209 71 130 206
0.050781 0.289062 0.083220 71 130 206
0.054688 0.289062 0.082188 72 131 207
0.058594 0.289062 0.081047 58 119 199
0.062500 0.289062 0.079743 61 122 201
0.066406 0.289062 0.078253 67 125 206
0.070312 0.289062 0.076459 71 127 209
0.074219 0.289062 0.074529 72 127 209
0.078125 0.289062 0.072362 72 122 206
0.082031 0.289062 0.069993 71 118 199
0.085938 0.289062 0.067346 72 113 192
0.089844 0.289062 0.064481 86 122 197
0.093750 0.289062 0.061296 86 116 185
0.097656 0.289062 0.057559 95 121 182
0.101562 0.289062 0.053175 108 129 182
0.105469 0.289062 0.048400 104 121 167
0.109375 0.289062 0.043545 83 96 136
0.113281 0.289062 0.038486 67 77 112
0.117188 0.289062 0.033305 65 74 107
0.121094 0.289062 0.027393 66 74 53
0.125000 0.289062 0.021065 69 78 57
0.128906 0.289062 0.012592 80 85 68
0.132812 0.289062 0.003424 60 65 49
0.136719 0.289062 -0.001051 101 108 98
0.140625 0.289062 -0.003538 117 121 116
0.144531 0.289062 -0.005167 136 139 132
0.148438 0.289062 -0.006689 174 175 169
0.152344 0.289062 -0.007843 180 181 177
0.156250 0.289062 -0.008784 175 175 172
0.160156 0.289062 -0.010103 173 174 171
0.164062 0.289062 -0.012064 174 175 174
0.167969 0.289062 -0.014334 175 177 176
0.171875 0.289062 -0.016963 176 178 177
0.175781 0.289062 -0.019830 180 181 183
0.179688 0.289062 -0.023732 190 188 196
0.183594 0.289062 -0.030647 171 179 182
-0.242188 0.285156 0.034099 81 81 95
-0.238281 0.285156 0.045480 78 79 85
-0.234375 0.285156 0.052857 74 78 84
-0.230469 0.285156 0.057429 84 93 97
-0.226562 0.285156 0.059817 121 128 127
-0.222656 0.285156 0.061666 98 101 100
-0.218750 0.285156 0.063594 73 76 74
-0.214844 0.285156 0.064850 69 73 72
-0.210938 0.285156 0.065563 79 85 83
-0.207031 0.285156 0.066108 71 77 75
-0.203125 0.285156 0.066463 80 89 86
-0.199219 0.285156 0.066536 103 114 110
-0.195312 0.285156 0.066383 105 116 112
-0.191406 0.285156 0.066417 96 123 152
-0.187500 0.285156 0.066823 86 115 145
-0.183594 0.285156 0.067246 71 101 137
-0.179688 0.285156 0.067774 56 87 131
-0.175781 0.285156 0.068573 52 85 136
-0.171875 0.285156 0.069479 61 96 154
-0.167969 0.285156 0.070384 75 109 172
-0.164062 0.285156 0.070975 83 117 181
-0.160156 0.285156 0.071142 81 112 176
-0.156250 0.285156 0.071145 78 107 167
-0.152344 0.285156 0.072340 78 101 155
-0.148438 0.285156 0.074606 83 101 147
-0.144531 0.285156 0.077005 90 104 141
-0.140625 0.285156 0.079417 94 103 134
-0.136719 0.285156 0.082144 90 96 120
-0.132812 0.285156 0.085199 84 89 109
-0.128906 0.285156 0.088544 80 102 99
-0.125000 0.285156 0.092076 88 110 107
-0.121094 0.285156 0.095633 99 121 119
-0.117188 0.285156 0.099329 108 132 134
-0.113281 0.285156 0.102978 115 140 145
-0.109375 0.285156 0.106303 115 142 151
-0.105469 0.285156 0.108831 114 140 155
-0.101562 0.285156 0.110425 112 139 158
-0.097656 0.285156 0.111633 117 145 167
-0.093750 0.285156 0.112615 118 145 174
-0.089844 0.285156 0.113378 119 146 176
-0.085938 0.285156 0.113840 120 146 181
-0.082031 0.285156 0.114061 121 147 184
-0.078125 0.285156 0.114075 122 147 187
-0.074219 0.285156 0.113875 122 147 188
-0.070312 0.285156 0.113440 122 147 188
-0.066406 0.285156 0.112857 81 122 142
-0.062500 0.285156 0.112089 81 122 142
-0.058594 0.285156 0.111286 82 123 143
-0.054688 0.285156 0.110546 83 124 144
-0.050781 0.285156 0.109740 86 127 147
-0.046875 0.285156 0.108830 87 129 151
-0.042969 0.285156 0.107842 90 132 156
-0.039062 0.285156 0.106815 91 133 158
