ply
    format ascii 1.0
    element vertex 68816
    property float x
    property float y
    property float z
    property uchar red
    property uchar green
    property uchar blue
    end_header
0.054688 -0.828125 0.001622 30 30 31
-0.148438 -0.832031 -0.026666 16 15 19
-0.144531 -0.832031 -0.073242 31 28 25
-0.140625 -0.832031 -0.047739 24 21 20
-0.136719 -0.832031 -0.031347 18 18 17
-0.132812 -0.832031 -0.023519 14 14 13
-0.128906 -0.832031 -0.019786 11 11 11
-0.125000 -0.832031 -0.016916 10 11 10
-0.121094 -0.832031 -0.015806 12 13 12
-0.117188 -0.832031 -0.016401 13 13 12
-0.113281 -0.832031 -0.017971 12 13 12
-0.109375 -0.832031 -0.019448 12 13 12
-0.105469 -0.832031 -0.021353 12 12 12
-0.101562 -0.832031 -0.024010 10 11 11
-0.097656 -0.832031 -0.026738 9 10 10
-0.093750 -0.832031 -0.028672 8 9 9
-0.089844 -0.832031 -0.030621 8 9 9
-0.085938 -0.832031 -0.033010 8 8 8
-0.082031 -0.832031 -0.035398 8 9 8
-0.078125 -0.832031 -0.038181 8 9 8
-0.074219 -0.832031 -0.041665 8 9 8
-0.070312 -0.832031 -0.045976 9 10 10
-0.066406 -0.832031 -0.052765 7 9 10
-0.062500 -0.832031 -0.061043 10 14 17
-0.058594 -0.832031 -0.072899 2 4 5
-0.054688 -0.832031 -0.099671 0 0 0
-0.035156 -0.832031 -0.022804 56 51 37
-0.031250 -0.832031 -0.007820 11 10 10
-0.027344 -0.832031 0.009952 11 11 10
-0.023438 -0.832031 0.020320 10 10 10
-0.019531 -0.832031 0.029288 10 10 9
-0.015625 -0.832031 0.035708 12 12 11
-0.011719 -0.832031 0.039481 11 12 11
-0.007812 -0.832031 0.041821 11 12 11
-0.003906 -0.832031 0.043411 11 11 11
0.000000 -0.832031 0.044758 10 11 11
0.003906 -0.832031 0.045707 11 12 12
0.007812 -0.832031 0.045986 12 13 12
0.011719 -0.832031 0.045976 12 13 12
0.015625 -0.832031 0.045716 12 13 12
0.019531 -0.832031 0.044729 12 12 11
0.023438 -0.832031 0.042829 11 12 11
0.027344 -0.832031 0.040746 11 12 11
0.031250 -0.832031 0.038857 11 11 11
0.035156 -0.832031 0.036244 11 12 11
0.039062 -0.832031 0.032649 12 13 12
0.042969 -0.832031 0.028666 14 14 13
0.046875 -0.832031 0.023141 15 15 14
0.050781 -0.832031 0.015091 16 16 16
0.054688 -0.832031 0.000676 33 34 34
-0.148438 -0.835938 -0.021773 16 16 20
-0.144531 -0.835938 -0.075302 29 26 23
-0.140625 -0.835938 -0.048126 24 21 20
-0.136719 -0.835938 -0.031316 19 19 19
-0.132812 -0.835938 -0.023820 14 14 14
-0.128906 -0.835938 -0.020262 10 10 10
-0.125000 -0.835938 -0.017667 9 10 10
-0.121094 -0.835938 -0.016696 11 12 11
-0.117188 -0.835938 -0.017266 12 13 12
-0.113281 -0.835938 -0.018700 12 12 12
-0.109375 -0.835938 -0.020021 12 12 12
-0.105469 -0.835938 -0.021710 11 11 11
-0.101562 -0.835938 -0.024216 10 10 10
-0.097656 -0.835938 -0.026761 8 9 9
-0.093750 -0.835938 -0.028507 8 9 9
-0.089844 -0.835938 -0.030247 9 9 10
-0.085938 -0.835938 -0.032408 9 10 9
-0.082031 -0.835938 -0.034592 9 10 10
-0.078125 -0.835938 -0.037228 9 10 9
-0.074219 -0.835938 -0.040586 8 9 8
-0.070312 -0.835938 -0.044852 8 8 8
-0.066406 -0.835938 -0.051709 5 6 8
-0.062500 -0.835938 -0.060068 8 11 14
-0.058594 -0.835938 -0.072099 1 1 2
-0.054688 -0.835938 -0.099766 0 0 0
-0.035156 -0.835938 -0.023274 46 41 31
-0.031250 -0.835938 -0.007781 9 9 9
-0.027344 -0.835938 0.010591 11 11 11
-0.023438 -0.835938 0.021180 11 10 11
-0.019531 -0.835938 0.030146 10 10 10
-0.015625 -0.835938 0.036542 12 12 11
-0.011719 -0.835938 0.040273 12 12 11
-0.007812 -0.835938 0.042531 12 13 12
-0.003906 -0.835938 0.044008 11 12 11
0.000000 -0.835938 0.045280 10 11 11
0.003906 -0.835938 0.046174 11 12 12
0.007812 -0.835938 0.046416 13 14 13
0.011719 -0.835938 0.046365 15 15 14
0.015625 -0.835938 0.046044 15 15 14
0.019531 -0.835938 0.044990 14 14 13
0.023438 -0.835938 0.043023 13 13 12
0.027344 -0.835938 0.040860 12 13 11
0.031250 -0.835938 0.038898 11 12 11
0.035156 -0.835938 0.036211 11 12 11
0.039062 -0.835938 0.032491 12 12 11
0.042969 -0.835938 0.028355 13 14 13
0.046875 -0.835938 0.022663 16 16 15
0.050781 -0.835938 0.014334 14 15 15
0.054688 -0.835938 -0.000264 21 20 25
-0.148438 -0.839844 -0.017337 16 15 19
-0.144531 -0.839844 -0.077775 27 24 21
-0.140625 -0.839844 -0.048853 24 21 19
-0.136719 -0.839844 -0.031651 21 21 20
-0.132812 -0.839844 -0.024444 15 16 15
-0.128906 -0.839844 -0.020927 11 11 11
-0.125000 -0.839844 -0.018546 10 10 10
-0.121094 -0.839844 -0.017726 11 11 11
-0.117188 -0.839844 -0.018265 12 13 12
-0.113281 -0.839844 -0.019531 12 13 12
-0.109375 -0.839844 -0.020633 12 13 12
-0.105469 -0.839844 -0.022092 11 12 11
-0.101562 -0.839844 -0.024386 10 10 10
-0.097656 -0.839844 -0.026698 9 9 9
-0.093750 -0.839844 -0.028229 8 9 9
-0.089844 -0.839844 -0.029756 8 9 9
-0.085938 -0.839844 -0.031679 9 9 9
-0.082031 -0.839844 -0.033641 9 10 10
-0.078125 -0.839844 -0.036133 10 11 10
-0.074219 -0.839844 -0.039382 9 10 9
-0.070312 -0.839844 -0.043590 9 10 9
-0.066406 -0.839844 -0.050462 7 9 10
-0.062500 -0.839844 -0.059022 12 16 19
-0.058594 -0.839844 -0.071440 1 1 2
-0.054688 -0.839844 -0.099257 0 0 0
-0.035156 -0.839844 -0.023566 49 45 34
-0.031250 -0.839844 -0.007372 10 10 10
-0.027344 -0.839844 0.011363 11 11 11
-0.023438 -0.839844 0.022104 9 9 10
-0.019531 -0.839844 0.031003 10 10 10
-0.015625 -0.839844 0.037358 14 14 12
-0.011719 -0.839844 0.041057 15 15 13
-0.007812 -0.839844 0.043235 16 17 15
-0.003906 -0.839844 0.044602 15 16 15
0.000000 -0.839844 0.045807 14 15 14
0.003906 -0.839844 0.046647 13 14 13
0.007812 -0.839844 0.046855 14 14 13
0.011719 -0.839844 0.046760 14 14 14
0.015625 -0.839844 0.046382 13 14 13
0.019531 -0.839844 0.045266 12 13 12
0.023438 -0.839844 0.043226 12 13 12
0.027344 -0.839844 0.040966 12 12 11
0.031250 -0.839844 0.038903 11 12 11
0.035156 -0.839844 0.036136 12 12 11
0.039062 -0.839844 0.032337 12 13 12
0.042969 -0.839844 0.028058 14 15 14
0.046875 -0.839844 0.022237 19 18 17
0.050781 -0.839844 0.013919 18 18 19
0.054688 -0.839844 -0.001484 22 21 26
-0.148438 -0.843750 -0.017180 14 14 18
-0.144531 -0.843750 -0.080057 24 21 19
-0.140625 -0.843750 -0.049645 20 18 17
-0.136719 -0.843750 -0.032287 20 20 19
-0.132812 -0.843750 -0.025370 16 16 16
-0.128906 -0.843750 -0.021827 13 13 12
-0.125000 -0.843750 -0.019614 11 11 11
-0.121094 -0.843750 -0.018901 12 12 11
-0.117188 -0.843750 -0.019370 12 12 12
-0.113281 -0.843750 -0.020430 12 12 12
-0.109375 -0.843750 -0.021231 11 12 11
-0.105469 -0.843750 -0.022449 10 10 10
-0.101562 -0.843750 -0.024487 8 9 9
-0.097656 -0.843750 -0.026537 8 8 9
-0.093750 -0.843750 -0.027829 8 8 9
-0.089844 -0.843750 -0.029135 8 9 9
-0.085938 -0.843750 -0.030834 8 9 9
-0.082031 -0.843750 -0.032587 8 9 9
-0.078125 -0.843750 -0.034952 7 8 8
-0.074219 -0.843750 -0.038126 6 6 6
-0.070312 -0.843750 -0.042331 6 6 7
-0.066406 -0.843750 -0.049250 6 6 8
-0.062500 -0.843750 -0.057999 12 15 18
-0.058594 -0.843750 -0.070749 1 1 2
-0.054688 -0.843750 -0.098264 0 0 0
-0.035156 -0.843750 -0.023669 41 37 28
-0.031250 -0.843750 -0.006507 8 7 8
-0.027344 -0.843750 0.012281 7 8 8
-0.023438 -0.843750 0.023104 7 7 8
-0.019531 -0.843750 0.031893 8 8 8
-0.015625 -0.843750 0.038144 12 11 11
-0.011719 -0.843750 0.041776 13 13 12
-0.007812 -0.843750 0.043880 14 15 13
-0.003906 -0.843750 0.045158 13 14 13
0.000000 -0.843750 0.046305 12 13 13
0.003906 -0.843750 0.047102 12 13 13
0.007812 -0.843750 0.047293 13 14 13
0.011719 -0.843750 0.047166 14 15 14
0.015625 -0.843750 0.046737 14 14 14
0.019531 -0.843750 0.045546 13 14 13
0.023438 -0.843750 0.043426 12 13 12
0.027344 -0.843750 0.041085 11 12 11
0.031250 -0.843750 0.038912 10 11 10
0.035156 -0.843750 0.036055 10 11 10
0.039062 -0.843750 0.032177 12 12 11
0.042969 -0.843750 0.027767 13 14 13
0.046875 -0.843750 0.021863 17 17 16
0.050781 -0.843750 0.013414 19 19 20
0.054688 -0.843750 -0.004079 26 26 29
-0.148438 -0.847656 -0.020977 9 9 13
-0.144531 -0.847656 -0.082053 21 19 18
-0.140625 -0.847656 -0.050348 19 17 17
-0.136719 -0.847656 -0.033293 20 20 19
-0.132812 -0.847656 -0.026648 18 18 16
-0.128906 -0.847656 -0.023011 13 13 13
-0.125000 -0.847656 -0.020840 11 11 11
-0.121094 -0.847656 -0.020135 10 11 10
-0.117188 -0.847656 -0.020474 10 11 10
-0.113281 -0.847656 -0.021272 10 11 11
-0.109375 -0.847656 -0.021750 11 11 11
-0.105469 -0.847656 -0.022694 9 10 10
-0.101562 -0.847656 -0.024459 8 9 9
-0.097656 -0.847656 -0.026250 8 9 9
-0.093750 -0.847656 -0.027299 9 9 9
-0.089844 -0.847656 -0.028378 9 10 10
-0.085938 -0.847656 -0.029862 9 10 10
-0.082031 -0.847656 -0.031419 10 11 10
-0.078125 -0.847656 -0.033614 10 11 10
-0.074219 -0.847656 -0.036681 8 9 8
-0.070312 -0.847656 -0.040934 8 9 8
-0.066406 -0.847656 -0.047949 7 8 9
-0.062500 -0.847656 -0.056898 10 14 16
-0.058594 -0.847656 -0.070013 0 1 1
-0.054688 -0.847656 -0.097051 0 0 0
-0.035156 -0.847656 -0.023625 36 33 26
-0.031250 -0.847656 -0.005151 9 9 9
-0.027344 -0.847656 0.013378 9 9 10
-0.023438 -0.847656 0.024170 8 8 9
-0.019531 -0.847656 0.032830 10 10 9
-0.015625 -0.847656 0.038955 11 12 11
-0.011719 -0.847656 0.042499 12 12 12
-0.007812 -0.847656 0.044512 13 14 13
-0.003906 -0.847656 0.045701 13 14 13
0.000000 -0.847656 0.046788 13 14 13
0.003906 -0.847656 0.047547 14 15 14
0.007812 -0.847656 0.047716 15 16 15
0.011719 -0.847656 0.047562 16 17 15
0.015625 -0.847656 0.047091 15 16 15
0.019531 -0.847656 0.045832 14 15 14
0.023438 -0.847656 0.043622 13 15 14
0.027344 -0.847656 0.041200 13 14 13
0.031250 -0.847656 0.038935 11 12 12
0.035156 -0.847656 0.036008 11 12 11
0.039062 -0.847656 0.031972 12 13 12
0.042969 -0.847656 0.027406 13 14 13
0.046875 -0.847656 0.021375 16 16 15
0.050781 -0.847656 0.012497 19 19 20
0.054688 -0.847656 -0.008684 15 14 17
-0.144531 -0.851562 -0.083282 24 22 21
-0.140625 -0.851562 -0.051194 21 19 19
-0.136719 -0.851562 -0.034746 21 21 20
-0.132812 -0.851562 -0.028152 20 19 18
-0.128906 -0.851562 -0.024339 14 14 13
-0.125000 -0.851562 -0.022071 11 12 11
-0.121094 -0.851562 -0.021246 11 11 11
-0.117188 -0.851562 -0.021413 11 11 11
-0.113281 -0.851562 -0.021937 11 12 12
-0.109375 -0.851562 -0.022144 12 12 12
-0.105469 -0.851562 -0.022822 10 11 11
-0.101562 -0.851562 -0.024315 9 9 9
-0.097656 -0.851562 -0.025862 8 8 9
-0.093750 -0.851562 -0.026670 7 8 8
-0.089844 -0.851562 -0.027505 7 8 8
-0.085938 -0.851562 -0.028780 7 7 8
-0.082031 -0.851562 -0.030146 8 8 8
-0.078125 -0.851562 -0.032160 9 9 9
-0.074219 -0.851562 -0.035122 10 10 9
-0.070312 -0.851562 -0.039426 11 11 10
-0.066406 -0.851562 -0.046560 10 11 11
-0.062500 -0.851562 -0.055738 15 20 19
-0.058594 -0.851562 -0.069368 2 4 4
-0.054688 -0.851562 -0.095655 0 0 0
-0.035156 -0.851562 -0.023365 31 29 23
-0.031250 -0.851562 -0.003658 10 10 11
-0.027344 -0.851562 0.014598 10 11 11
-0.023438 -0.851562 0.025294 8 9 9
-0.019531 -0.851562 0.033855 9 9 9
-0.015625 -0.851562 0.039898 10 10 9
-0.011719 -0.851562 0.043337 9 10 9
-0.007812 -0.851562 0.045230 10 10 10
-0.003906 -0.851562 0.046307 10 10 10
0.000000 -0.851562 0.047314 11 12 12
0.003906 -0.851562 0.048012 12 13 13
0.007812 -0.851562 0.048137 13 13 13
0.011719 -0.851562 0.047941 12 13 12
0.015625 -0.851562 0.047440 11 12 11
0.019531 -0.851562 0.046136 10 11 11
0.023438 -0.851562 0.043834 10 11 11
0.027344 -0.851562 0.041317 11 12 12
0.031250 -0.851562 0.038983 11 13 12
0.035156 -0.851562 0.036011 12 13 13
0.039062 -0.851562 0.031775 14 15 14
0.042969 -0.851562 0.026964 13 14 14
0.046875 -0.851562 0.020704 17 17 16
0.050781 -0.851562 0.011296 24 24 24
-0.144531 -0.855469 -0.083383 18 16 17
-0.140625 -0.855469 -0.051790 19 17 17
-0.136719 -0.855469 -0.036541 19 19 18
-0.132812 -0.855469 -0.029937 19 19 17
-0.128906 -0.855469 -0.025749 14 14 13
-0.125000 -0.855469 -0.023282 12 13 12
-0.121094 -0.855469 -0.022265 11 12 11
-0.117188 -0.855469 -0.022232 10 11 11
-0.113281 -0.855469 -0.022505 11 11 11
-0.109375 -0.855469 -0.022474 10 11 11
-0.105469 -0.855469 -0.022904 9 10 10
-0.101562 -0.855469 -0.024130 9 9 10
-0.097656 -0.855469 -0.025435 8 8 9
-0.093750 -0.855469 -0.025994 8 8 9
-0.089844 -0.855469 -0.026555 7 8 8
-0.085938 -0.855469 -0.027604 7 8 8
-0.082031 -0.855469 -0.028780 7 7 8
-0.078125 -0.855469 -0.030624 7 8 8
-0.074219 -0.855469 -0.033542 8 8 8
-0.070312 -0.855469 -0.037977 8 8 8
-0.066406 -0.855469 -0.045333 7 6 7
-0.062500 -0.855469 -0.054679 9 10 11
-0.058594 -0.855469 -0.069291 4 6 7
-0.054688 -0.855469 -0.095000 0 0 0
-0.031250 -0.855469 -0.001966 9 9 10
-0.027344 -0.855469 0.015918 9 11 11
-0.023438 -0.855469 0.026475 8 9 9
-0.019531 -0.855469 0.034992 9 10 9
-0.015625 -0.855469 0.040981 10 10 10
-0.011719 -0.855469 0.044336 9 10 10
-0.007812 -0.855469 0.046079 8 9 9
-0.003906 -0.855469 0.047019 9 10 10
0.000000 -0.855469 0.047904 11 12 12
0.003906 -0.855469 0.048511 12 13 13
0.007812 -0.855469 0.048587 13 13 13
0.011719 -0.855469 0.048357 12 13 13
0.015625 -0.855469 0.047848 12 13 12
0.019531 -0.855469 0.046532 11 12 12
0.023438 -0.855469 0.044169 11 12 11
0.027344 -0.855469 0.041579 11 12 12
0.031250 -0.855469 0.039184 11 12 12
0.035156 -0.855469 0.036148 13 14 14
0.039062 -0.855469 0.031693 15 16 16
0.042969 -0.855469 0.026535 13 13 14
0.046875 -0.855469 0.019966 15 15 15
0.050781 -0.855469 0.009861 24 25 26
-0.144531 -0.859375 -0.083442 10 9 11
-0.140625 -0.859375 -0.053398 15 14 14
-0.136719 -0.859375 -0.038400 18 18 17
-0.132812 -0.859375 -0.031814 18 18 16
-0.128906 -0.859375 -0.027071 13 13 13
-0.125000 -0.859375 -0.024274 11 12 11
-0.121094 -0.859375 -0.023024 10 10 10
-0.117188 -0.859375 -0.022830 9 10 10
-0.113281 -0.859375 -0.022925 9 10 10
-0.109375 -0.859375 -0.022687 9 10 10
-0.105469 -0.859375 -0.022892 9 9 10
-0.101562 -0.859375 -0.023873 8 9 9
-0.097656 -0.859375 -0.024943 7 8 8
-0.093750 -0.859375 -0.025262 7 7 8
-0.089844 -0.859375 -0.025540 7 7 8
-0.085938 -0.859375 -0.026330 7 7 8
-0.082031 -0.859375 -0.027281 7 8 8
-0.078125 -0.859375 -0.028915 8 9 8
-0.074219 -0.859375 -0.031737 9 10 9
-0.070312 -0.859375 -0.036191 8 9 8
-0.066406 -0.859375 -0.043679 7 7 7
-0.062500 -0.859375 -0.053101 8 8 9
-0.058594 -0.859375 -0.068638 5 9 9
-0.054688 -0.859375 -0.094328 2 4 3
-0.031250 -0.859375 0.000011 9 8 10
-0.027344 -0.859375 0.017435 9 10 11
-0.023438 -0.859375 0.027747 8 9 10
-0.019531 -0.859375 0.036230 11 11 11
-0.015625 -0.859375 0.042174 12 13 12
-0.011719 -0.859375 0.045478 11 12 11
-0.007812 -0.859375 0.047068 10 11 11
-0.003906 -0.859375 0.047833 11 12 12
0.000000 -0.859375 0.048557 13 15 14
0.003906 -0.859375 0.049047 14 16 14
0.007812 -0.859375 0.049074 15 16 15
0.011719 -0.859375 0.048820 15 16 15
0.015625 -0.859375 0.048310 14 15 14
0.019531 -0.859375 0.046990 14 15 14
0.023438 -0.859375 0.044585 14 15 14
0.027344 -0.859375 0.041942 14 16 15
0.031250 -0.859375 0.039476 13 15 14
0.035156 -0.859375 0.036316 15 16 16
0.039062 -0.859375 0.031600 17 18 18
0.042969 -0.859375 0.026099 12 13 13
0.046875 -0.859375 0.019272 15 15 15
0.050781 -0.859375 0.008545 30 31 31
-0.144531 -0.863281 -0.082617 17 16 17
-0.140625 -0.863281 -0.055828 15 14 14
-0.136719 -0.863281 -0.040101 18 19 18
-0.132812 -0.863281 -0.033376 19 19 17
-0.128906 -0.863281 -0.028138 15 15 14
-0.125000 -0.863281 -0.024958 13 13 12
-0.121094 -0.863281 -0.023488 11 11 11
-0.117188 -0.863281 -0.023179 10 10 10
-0.113281 -0.863281 -0.023155 10 11 11
-0.109375 -0.863281 -0.022758 9 10 10
-0.105469 -0.863281 -0.022778 9 9 10
-0.101562 -0.863281 -0.023547 7 8 9
-0.097656 -0.863281 -0.024380 6 7 8
-0.093750 -0.863281 -0.024451 6 6 7
-0.089844 -0.863281 -0.024434 6 6 7
-0.085938 -0.863281 -0.024944 6 7 7
-0.082031 -0.863281 -0.025657 7 7 7
-0.078125 -0.863281 -0.027089 7 8 8
-0.074219 -0.863281 -0.029847 9 10 9
-0.070312 -0.863281 -0.034314 10 10 9
-0.066406 -0.863281 -0.041975 8 8 8
-0.062500 -0.863281 -0.051497 10 10 10
-0.058594 -0.863281 -0.067744 8 12 12
-0.054688 -0.863281 -0.093780 7 13 8
-0.031250 -0.863281 0.002238 8 7 8
-0.027344 -0.863281 0.019199 9 10 10
-0.023438 -0.863281 0.029159 8 8 9
-0.019531 -0.863281 0.037586 11 11 11
-0.015625 -0.863281 0.043505 13 13 12
-0.011719 -0.863281 0.046762 12 12 12
-0.007812 -0.863281 0.048207 11 12 11
-0.003906 -0.863281 0.048792 11 12 11
0.000000 -0.863281 0.049337 12 13 12
0.003906 -0.863281 0.049683 12 13 12
0.007812 -0.863281 0.049649 12 13 12
0.011719 -0.863281 0.049359 12 13 13
0.015625 -0.863281 0.048839 12 13 12
0.019531 -0.863281 0.047513 11 12 12
0.023438 -0.863281 0.045059 11 12 12
0.027344 -0.863281 0.042348 12 13 13
0.031250 -0.863281 0.039783 11 13 12
0.035156 -0.863281 0.036493 13 14 14
0.039062 -0.863281 0.031581 15 16 16
0.042969 -0.863281 0.025778 11 11 12
0.046875 -0.863281 0.018534 14 13 14
0.050781 -0.863281 0.007091 37 37 37
-0.144531 -0.867188 -0.080251 15 14 15
-0.140625 -0.867188 -0.056807 12 11 12
-0.136719 -0.867188 -0.041738 16 17 16
-0.132812 -0.867188 -0.034577 18 18 17
-0.128906 -0.867188 -0.029099 17 18 16
-0.125000 -0.867188 -0.025559 15 15 14
-0.121094 -0.867188 -0.023834 12 12 12
-0.117188 -0.867188 -0.023380 10 10 10
-0.113281 -0.867188 -0.023272 9 10 10
-0.109375 -0.867188 -0.022746 9 10 10
-0.105469 -0.867188 -0.022594 9 9 10
-0.101562 -0.867188 -0.023167 8 9 10
-0.097656 -0.867188 -0.023768 8 8 9
-0.093750 -0.867188 -0.023595 7 8 8
-0.089844 -0.867188 -0.023309 7 8 8
-0.085938 -0.867188 -0.023532 7 8 9
-0.082031 -0.867188 -0.023959 8 9 9
-0.078125 -0.867188 -0.025141 9 9 9
-0.074219 -0.867188 -0.027785 10 11 10
-0.070312 -0.867188 -0.032239 10 10 10
-0.066406 -0.867188 -0.040066 8 8 8
-0.062500 -0.867188 -0.049716 7 8 8
-0.058594 -0.867188 -0.066859 5 7 8
-0.054688 -0.867188 -0.094371 5 7 7
-0.031250 -0.867188 0.004261 7 7 8
-0.027344 -0.867188 0.020955 10 11 11
-0.023438 -0.867188 0.030596 8 9 9
-0.019531 -0.867188 0.038940 12 12 12
-0.015625 -0.867188 0.044841 15 15 14
-0.011719 -0.867188 0.048080 16 16 15
-0.007812 -0.867188 0.049404 16 17 15
-0.003906 -0.867188 0.049829 15 16 15
0.000000 -0.867188 0.050209 15 16 15
0.003906 -0.867188 0.050421 14 14 14
0.007812 -0.867188 0.050318 13 14 13
0.011719 -0.867188 0.049980 13 14 13
0.015625 -0.867188 0.049445 12 13 13
0.019531 -0.867188 0.048107 12 13 12
0.023438 -0.867188 0.045594 11 12 12
0.027344 -0.867188 0.042790 11 12 12
0.031250 -0.867188 0.040110 10 11 11
0.035156 -0.867188 0.036704 11 12 12
0.039062 -0.867188 0.031658 14 15 16
0.042969 -0.867188 0.025726 11 12 13
0.046875 -0.867188 0.018047 16 15 16
0.050781 -0.867188 0.005820 42 42 43
-0.144531 -0.871094 -0.069270 7 6 7
-0.140625 -0.871094 -0.056923 10 9 10
-0.136719 -0.871094 -0.042814 15 15 14
-0.132812 -0.871094 -0.035277 15 15 14
-0.128906 -0.871094 -0.029751 16 16 15
-0.125000 -0.871094 -0.026030 15 15 14
-0.121094 -0.871094 -0.024025 12 13 12
-0.117188 -0.871094 -0.023343 9 10 10
-0.113281 -0.871094 -0.023184 9 9 10
-0.109375 -0.871094 -0.022560 8 9 10
-0.105469 -0.871094 -0.022240 8 8 9
-0.101562 -0.871094 -0.022631 7 8 9
-0.097656 -0.871094 -0.023024 7 7 8
-0.093750 -0.871094 -0.022638 6 7 8
-0.089844 -0.871094 -0.022150 7 8 8
-0.085938 -0.871094 -0.022130 8 9 9
-0.082031 -0.871094 -0.022275 9 10 10
-0.078125 -0.871094 -0.023190 10 10 10
-0.074219 -0.871094 -0.025641 11 11 10
-0.070312 -0.871094 -0.030018 10 11 10
-0.066406 -0.871094 -0.037952 8 9 8
-0.062500 -0.871094 -0.047659 9 10 9
-0.058594 -0.871094 -0.065716 7 10 11
-0.054688 -0.871094 -0.095481 7 10 9
-0.031250 -0.871094 0.006039 5 5 6
-0.027344 -0.871094 0.022720 9 10 10
-0.023438 -0.871094 0.032090 7 8 8
-0.019531 -0.871094 0.040313 10 11 10
-0.015625 -0.871094 0.046211 13 13 12
-0.011719 -0.871094 0.049448 13 14 13
-0.007812 -0.871094 0.050675 14 15 14
-0.003906 -0.871094 0.050960 14 15 14
0.000000 -0.871094 0.051192 13 14 14
0.003906 -0.871094 0.051266 13 14 13
0.007812 -0.871094 0.051076 13 14 13
0.011719 -0.871094 0.050667 13 14 13
0.015625 -0.871094 0.050092 12 14 13
0.019531 -0.871094 0.048715 12 14 13
0.023438 -0.871094 0.046127 12 14 13
0.027344 -0.871094 0.043216 12 14 13
0.031250 -0.871094 0.040408 11 12 12
0.035156 -0.871094 0.036914 13 14 14
0.039062 -0.871094 0.031703 16 17 17
0.042969 -0.871094 0.025673 12 13 14
0.046875 -0.871094 0.017486 16 16 17
0.050781 -0.871094 0.004415 28 28 31
-0.144531 -0.875000 -0.020473 10 9 10
-0.140625 -0.875000 -0.057023 11 10 11
-0.136719 -0.875000 -0.043839 15 15 14
-0.132812 -0.875000 -0.035860 15 15 14
-0.128906 -0.875000 -0.030431 16 16 14
-0.125000 -0.875000 -0.026550 15 16 15
-0.121094 -0.875000 -0.024243 14 15 14
-0.117188 -0.875000 -0.023309 11 12 12
-0.113281 -0.875000 -0.023039 9 10 11
-0.109375 -0.875000 -0.022321 9 10 11
-0.105469 -0.875000 -0.021847 8 9 10
-0.101562 -0.875000 -0.022073 8 8 9
-0.097656 -0.875000 -0.022275 8 8 9
-0.093750 -0.875000 -0.021699 7 8 9
-0.089844 -0.875000 -0.021025 8 9 10
-0.085938 -0.875000 -0.020787 9 10 10
-0.082031 -0.875000 -0.020633 10 11 11
-0.078125 -0.875000 -0.021311 11 12 10
-0.074219 -0.875000 -0.023570 12 12 11
-0.070312 -0.875000 -0.027883 11 11 10
-0.066406 -0.875000 -0.036005 9 9 8
-0.062500 -0.875000 -0.045734 9 10 9
-0.058594 -0.875000 -0.065211 9 12 12
-0.054688 -0.875000 -0.096431 7 9 9
-0.031250 -0.875000 0.007300 5 4 5
-0.027344 -0.875000 0.024123 7 8 8
-0.023438 -0.875000 0.033450 6 7 7
-0.019531 -0.875000 0.041639 10 10 9
-0.015625 -0.875000 0.047549 12 13 12
-0.011719 -0.875000 0.050801 13 13 13
-0.007812 -0.875000 0.051989 14 14 14
-0.003906 -0.875000 0.052183 12 13 13
0.000000 -0.875000 0.052301 11 12 12
0.003906 -0.875000 0.052247 11 11 11
0.007812 -0.875000 0.051956 11 12 12
0.011719 -0.875000 0.051460 11 12 12
0.015625 -0.875000 0.050806 11 12 11
0.019531 -0.875000 0.049353 10 11 11
0.023438 -0.875000 0.046661 11 12 12
0.027344 -0.875000 0.043637 12 13 13
0.031250 -0.875000 0.040661 11 12 12
0.035156 -0.875000 0.037094 14 15 15
0.039062 -0.875000 0.031751 17 18 18
0.042969 -0.875000 0.025659 12 13 14
0.046875 -0.875000 0.016910 15 15 17
0.050781 -0.875000 0.002568 18 17 22
-0.144531 -0.878906 -0.018765 6 5 7
-0.140625 -0.878906 -0.058386 9 8 9
-0.136719 -0.878906 -0.044424 14 15 14
-0.132812 -0.878906 -0.036094 15 15 14
-0.128906 -0.878906 -0.031103 15 15 14
-0.125000 -0.878906 -0.027133 15 16 15
-0.121094 -0.878906 -0.024515 16 17 15
-0.117188 -0.878906 -0.023319 13 14 14
-0.113281 -0.878906 -0.022900 11 12 12
-0.109375 -0.878906 -0.022072 11 12 12
-0.105469 -0.878906 -0.021444 10 11 12
-0.101562 -0.878906 -0.021512 10 11 12
-0.097656 -0.878906 -0.021542 10 11 11
-0.093750 -0.878906 -0.020811 9 10 11
-0.089844 -0.878906 -0.019968 10 11 11
-0.085938 -0.878906 -0.019544 10 11 11
-0.082031 -0.878906 -0.019088 10 11 10
-0.078125 -0.878906 -0.019557 10 11 10
-0.074219 -0.878906 -0.021608 11 11 10
-0.070312 -0.878906 -0.025730 10 10 9
-0.066406 -0.878906 -0.033841 7 7 7
-0.062500 -0.878906 -0.043472 8 9 8
-0.058594 -0.878906 -0.065396 9 12 12
-0.054688 -0.878906 -0.097176 8 11 10
-0.031250 -0.878906 0.007975 7 7 7
-0.027344 -0.878906 0.025124 8 9 8
-0.023438 -0.878906 0.034704 6 7 7
-0.019531 -0.878906 0.042832 10 10 10
-0.015625 -0.878906 0.048766 14 14 13
-0.011719 -0.878906 0.052080 16 16 15
-0.007812 -0.878906 0.053274 17 18 16
-0.003906 -0.878906 0.053420 15 16 15
0.000000 -0.878906 0.053455 13 14 13
0.003906 -0.878906 0.053288 13 14 13
0.007812 -0.878906 0.052873 14 15 14
0.011719 -0.878906 0.052249 14 15 14
0.015625 -0.878906 0.051479 13 14 13
0.019531 -0.878906 0.049930 12 13 13
0.023438 -0.878906 0.047121 12 13 13
0.027344 -0.878906 0.043974 12 14 13
0.031250 -0.878906 0.040792 12 13 13
0.035156 -0.878906 0.037160 14 15 15
0.039062 -0.878906 0.031730 16 17 17
0.042969 -0.878906 0.025633 13 14 15
0.046875 -0.878906 0.016625 19 19 21
0.050781 -0.878906 0.000898 21 21 26
-0.140625 -0.882812 -0.059492 9 8 9
-0.136719 -0.882812 -0.044975 15 15 14
-0.132812 -0.882812 -0.036544 15 14 13
-0.128906 -0.882812 -0.031652 13 13 12
-0.125000 -0.882812 -0.027692 13 14 13
-0.121094 -0.882812 -0.024837 15 15 14
-0.117188 -0.882812 -0.023401 14 15 14
-0.113281 -0.882812 -0.022788 11 12 12
-0.109375 -0.882812 -0.021833 11 12 12
-0.105469 -0.882812 -0.021070 10 12 12
-0.101562 -0.882812 -0.021007 10 12 12
-0.097656 -0.882812 -0.020887 11 12 12
-0.093750 -0.882812 -0.020018 11 12 12
-0.089844 -0.882812 -0.019012 12 13 12
-0.085938 -0.882812 -0.018410 12 13 12
-0.082031 -0.882812 -0.017696 12 13 11
-0.078125 -0.882812 -0.017959 11 11 10
-0.074219 -0.882812 -0.019782 10 11 10
-0.070312 -0.882812 -0.023675 9 9 9
-0.066406 -0.882812 -0.031754 6 7 6
-0.062500 -0.882812 -0.041052 8 9 8
-0.058594 -0.882812 -0.065042 11 15 14
-0.054688 -0.882812 -0.097368 12 15 14
-0.031250 -0.882812 0.008950 6 6 7
-0.027344 -0.882812 0.025998 7 7 7
-0.023438 -0.882812 0.035784 6 7 7
-0.019531 -0.882812 0.043877 10 10 9
-0.015625 -0.882812 0.049841 13 13 12
-0.011719 -0.882812 0.053219 14 15 14
-0.007812 -0.882812 0.054461 15 16 14
-0.003906 -0.882812 0.054627 13 14 13
0.000000 -0.882812 0.054630 12 13 13
0.003906 -0.882812 0.054365 14 15 13
0.007812 -0.882812 0.053823 15 16 15
0.011719 -0.882812 0.053066 15 17 15
0.015625 -0.882812 0.052167 14 16 15
0.019531 -0.882812 0.050510 13 15 14
0.023438 -0.882812 0.047553 13 15 14
0.027344 -0.882812 0.044234 14 15 15
0.031250 -0.882812 0.040815 13 14 14
0.035156 -0.882812 0.037125 15 16 16
0.039062 -0.882812 0.031769 17 18 19
0.042969 -0.882812 0.025695 14 15 17
0.046875 -0.882812 0.016090 22 23 24
0.050781 -0.882812 -0.002331 24 24 30
-0.140625 -0.886719 -0.062424 6 6 7
-0.136719 -0.886719 -0.045958 14 14 14
-0.132812 -0.886719 -0.037213 15 15 14
-0.128906 -0.886719 -0.032077 13 13 12
-0.125000 -0.886719 -0.028259 13 13 12
-0.121094 -0.886719 -0.025263 14 14 13
-0.117188 -0.886719 -0.023614 14 15 14
-0.113281 -0.886719 -0.022781 12 13 13
-0.109375 -0.886719 -0.021678 12 13 12
-0.105469 -0.886719 -0.020797 11 12 12
-0.101562 -0.886719 -0.020629 11 12 12
-0.097656 -0.886719 -0.020391 11 12 12
-0.093750 -0.886719 -0.019393 12 13 12
-0.089844 -0.886719 -0.018235 13 14 13
-0.085938 -0.886719 -0.017439 13 14 13
-0.082031 -0.886719 -0.016474 12 13 12
-0.078125 -0.886719 -0.016578 11 11 10
-0.074219 -0.886719 -0.018222 11 11 10
-0.070312 -0.886719 -0.021856 9 9 9
-0.066406 -0.886719 -0.029747 6 6 6
-0.062500 -0.886719 -0.038647 8 9 8
-0.058594 -0.886719 -0.064369 12 15 14
-0.054688 -0.886719 -0.097078 18 22 20
-0.031250 -0.886719 0.009928 9 8 8
-0.027344 -0.886719 0.026657 7 7 7
-0.023438 -0.886719 0.036620 6 6 7
-0.019531 -0.886719 0.044717 10 10 9
-0.015625 -0.886719 0.050714 13 13 12
-0.011719 -0.886719 0.054185 14 14 13
-0.007812 -0.886719 0.055502 15 16 15
-0.003906 -0.886719 0.055726 14 14 14
0.000000 -0.886719 0.055745 12 13 13
0.003906 -0.886719 0.055412 12 13 12
0.007812 -0.886719 0.054760 13 14 13
0.011719 -0.886719 0.053881 13 14 14
0.015625 -0.886719 0.052847 13 14 14
0.019531 -0.886719 0.051043 12 14 13
0.023438 -0.886719 0.047915 12 13 13
0.027344 -0.886719 0.044394 11 13 13
0.031250 -0.886719 0.040789 10 12 12
0.035156 -0.886719 0.037045 14 15 15
0.039062 -0.886719 0.031746 18 18 19
0.042969 -0.886719 0.025559 15 16 17
0.046875 -0.886719 0.015519 26 25 26
-0.140625 -0.890625 -0.042907 8 8 10
-0.136719 -0.890625 -0.046644 17 18 17
-0.132812 -0.890625 -0.037844 16 16 14
-0.128906 -0.890625 -0.032334 14 14 13
-0.125000 -0.890625 -0.028655 13 13 12
-0.121094 -0.890625 -0.025613 13 14 12
-0.117188 -0.890625 -0.023779 14 14 13
-0.113281 -0.890625 -0.022764 13 13 13
-0.109375 -0.890625 -0.021563 12 13 13
-0.105469 -0.890625 -0.020587 12 13 13
-0.101562 -0.890625 -0.020340 11 12 12
-0.097656 -0.890625 -0.020011 11 12 11
-0.093750 -0.890625 -0.018907 11 12 11
-0.089844 -0.890625 -0.017635 11 12 12
-0.085938 -0.890625 -0.016681 12 12 11
-0.082031 -0.890625 -0.015534 10 11 10
-0.078125 -0.890625 -0.015506 9 9 9
-0.074219 -0.890625 -0.016974 9 9 8
-0.070312 -0.890625 -0.020359 8 8 7
-0.066406 -0.890625 -0.027958 6 6 6
-0.062500 -0.890625 -0.036216 9 9 8
-0.058594 -0.890625 -0.062100 13 17 15
-0.054688 -0.890625 -0.096310 28 34 29
-0.035156 -0.890625 -0.006100 9 9 7
-0.031250 -0.890625 0.009966 9 8 8
-0.027344 -0.890625 0.027049 6 6 6
-0.023438 -0.890625 0.037204 6 6 6
-0.019531 -0.890625 0.045270 9 9 9
-0.015625 -0.890625 0.051339 13 13 12
-0.011719 -0.890625 0.054931 15 15 14
-0.007812 -0.890625 0.056358 17 17 16
-0.003906 -0.890625 0.056687 16 17 16
0.000000 -0.890625 0.056765 15 16 15
0.003906 -0.890625 0.056396 15 16 14
0.007812 -0.890625 0.055646 15 16 15
0.011719 -0.890625 0.054638 14 16 15
0.015625 -0.890625 0.053471 13 15 14
0.019531 -0.890625 0.051522 11 13 13
0.023438 -0.890625 0.048222 10 11 12
0.027344 -0.890625 0.044507 10 11 11
0.031250 -0.890625 0.040748 9 10 11
0.035156 -0.890625 0.036921 13 13 14
0.039062 -0.890625 0.031654 17 17 18
0.042969 -0.890625 0.024876 14 15 16
0.046875 -0.890625 0.014671 26 25 26
-0.140625 -0.894531 -0.016207 11 11 13
-0.136719 -0.894531 -0.046923 16 16 16
-0.132812 -0.894531 -0.038076 12 12 12
-0.128906 -0.894531 -0.032583 12 12 11
-0.125000 -0.894531 -0.028911 11 11 11
-0.121094 -0.894531 -0.025847 11 11 11
-0.117188 -0.894531 -0.023879 11 12 12
-0.113281 -0.894531 -0.022736 11 12 12
-0.109375 -0.894531 -0.021485 11 12 12
-0.105469 -0.894531 -0.020450 10 11 11
-0.101562 -0.894531 -0.020143 10 10 11
-0.097656 -0.894531 -0.019745 10 10 11
-0.093750 -0.894531 -0.018578 10 11 11
-0.089844 -0.894531 -0.017227 11 12 11
-0.085938 -0.894531 -0.016141 11 12 12
-0.082031 -0.894531 -0.014878 11 12 11
-0.078125 -0.894531 -0.014741 9 10 9
-0.074219 -0.894531 -0.016061 8 9 8
-0.070312 -0.894531 -0.019321 7 8 7
-0.066406 -0.894531 -0.026638 6 7 6
-0.062500 -0.894531 -0.034095 9 9 8
-0.058594 -0.894531 -0.058302 10 12 11
-0.054688 -0.894531 -0.094954 29 34 31
-0.035156 -0.894531 -0.003738 6 5 5
-0.031250 -0.894531 0.009619 7 6 7
-0.027344 -0.894531 0.027256 6 6 6
-0.023438 -0.894531 0.037500 6 6 6
-0.019531 -0.894531 0.045639 10 10 9
-0.015625 -0.894531 0.051767 13 14 12
-0.011719 -0.894531 0.055470 14 15 14
-0.007812 -0.894531 0.057044 14 15 14
-0.003906 -0.894531 0.057520 14 14 14
0.000000 -0.894531 0.057685 13 13 13
0.003906 -0.894531 0.057303 12 13 12
0.007812 -0.894531 0.056485 12 13 12
0.011719 -0.894531 0.055377 12 13 13
0.015625 -0.894531 0.054088 12 13 13
0.019531 -0.894531 0.051994 10 12 12
0.023438 -0.894531 0.048500 9 11 11
0.027344 -0.894531 0.044598 9 10 11
0.031250 -0.894531 0.040690 10 10 11
0.035156 -0.894531 0.036654 14 14 14
0.039062 -0.894531 0.031283 18 18 18
0.042969 -0.894531 0.024281 14 14 16
0.046875 -0.894531 0.013644 22 21 23
-0.140625 -0.898438 -0.019654 3 3 5
-0.136719 -0.898438 -0.049427 9 8 9
-0.132812 -0.898438 -0.038772 11 11 11
-0.128906 -0.898438 -0.033004 14 14 13
-0.125000 -0.898438 -0.029127 14 15 13
-0.121094 -0.898438 -0.026086 12 13 12
-0.117188 -0.898438 -0.023955 12 13 12
-0.113281 -0.898438 -0.022699 12 13 12
-0.109375 -0.898438 -0.021408 11 12 12
-0.105469 -0.898438 -0.020348 10 11 11
-0.101562 -0.898438 -0.020003 10 11 11
-0.097656 -0.898438 -0.019559 10 10 11
-0.093750 -0.898438 -0.018364 9 10 10
-0.089844 -0.898438 -0.016977 9 10 10
-0.085938 -0.898438 -0.015817 9 10 10
-0.082031 -0.898438 -0.014523 9 10 9
-0.078125 -0.898438 -0.014355 8 9 8
-0.074219 -0.898438 -0.015608 8 8 8
-0.070312 -0.898438 -0.018752 7 7 7
-0.066406 -0.898438 -0.025679 7 7 6
-0.062500 -0.898438 -0.032654 9 9 8
-0.058594 -0.898438 -0.054827 10 12 10
-0.054688 -0.898438 -0.093226 71 84 72
-0.035156 -0.898438 -0.002825 17 18 17
-0.031250 -0.898438 0.009227 9 8 9
-0.027344 -0.898438 0.027288 8 7 8
-0.023438 -0.898438 0.037625 6 6 7
-0.019531 -0.898438 0.045826 9 9 9
-0.015625 -0.898438 0.052034 11 12 11
-0.011719 -0.898438 0.055910 13 13 12
-0.007812 -0.898438 0.057673 13 14 13
-0.003906 -0.898438 0.058305 12 13 13
0.000000 -0.898438 0.058563 11 12 12
0.003906 -0.898438 0.058197 11 11 11
0.007812 -0.898438 0.057335 11 12 12
0.011719 -0.898438 0.056128 11 12 12
0.015625 -0.898438 0.054717 12 13 13
0.019531 -0.898438 0.052458 12 13 13
0.023438 -0.898438 0.048751 12 13 13
0.027344 -0.898438 0.044656 12 13 13
0.031250 -0.898438 0.040595 12 13 13
0.035156 -0.898438 0.036345 17 17 17
0.039062 -0.898438 0.030642 23 23 22
0.042969 -0.898438 0.023359 21 22 22
0.046875 -0.898438 0.011646 34 33 34
-0.136719 -0.902344 -0.051651 10 11 11
-0.132812 -0.902344 -0.039590 11 11 11
-0.128906 -0.902344 -0.033578 14 15 13
-0.125000 -0.902344 -0.029292 14 15 13
-0.121094 -0.902344 -0.026217 12 13 12
-0.117188 -0.902344 -0.024006 12 13 12
-0.113281 -0.902344 -0.022587 12 13 13
-0.109375 -0.902344 -0.021235 12 13 12
-0.105469 -0.902344 -0.020179 11 12 12
-0.101562 -0.902344 -0.019829 11 12 12
-0.097656 -0.902344 -0.019376 10 11 11
-0.093750 -0.902344 -0.018191 10 11 11
-0.089844 -0.902344 -0.016833 9 10 10
-0.085938 -0.902344 -0.015661 9 10 10
-0.082031 -0.902344 -0.014408 8 9 9
-0.078125 -0.902344 -0.014216 7 8 8
-0.074219 -0.902344 -0.015444 7 8 7
-0.070312 -0.902344 -0.018602 6 7 7
-0.066406 -0.902344 -0.025204 8 8 7
-0.062500 -0.902344 -0.031740 10 10 8
-0.058594 -0.902344 -0.051385 11 12 11
-0.054688 -0.902344 -0.091174 105 119 101
-0.035156 -0.902344 -0.003364 28 29 26
-0.031250 -0.902344 0.008708 8 8 8
-0.027344 -0.902344 0.027210 7 7 7
-0.023438 -0.902344 0.037645 5 5 6
-0.019531 -0.902344 0.045903 8 8 8
-0.015625 -0.902344 0.052202 11 11 10
-0.011719 -0.902344 0.056252 14 14 13
-0.007812 -0.902344 0.058209 16 17 15
-0.003906 -0.902344 0.059003 16 16 15
0.000000 -0.902344 0.059369 15 15 15
0.003906 -0.902344 0.059052 14 15 14
0.007812 -0.902344 0.058159 15 16 15
0.011719 -0.902344 0.056852 14 16 15
0.015625 -0.902344 0.055332 14 15 14
0.019531 -0.902344 0.052906 13 15 15
0.023438 -0.902344 0.048987 13 14 14
0.027344 -0.902344 0.044684 12 14 13
0.031250 -0.902344 0.040423 12 13 13
0.035156 -0.902344 0.035890 15 16 15
0.039062 -0.902344 0.029829 15 16 16
0.042969 -0.902344 0.022269 10 11 13
0.046875 -0.902344 0.007946 15 15 19
-0.136719 -0.906250 -0.053747 9 9 10
-0.132812 -0.906250 -0.040225 10 10 10
-0.128906 -0.906250 -0.034373 13 14 13
-0.125000 -0.906250 -0.029648 14 15 13
-0.121094 -0.906250 -0.026406 12 13 12
-0.117188 -0.906250 -0.024076 11 12 12
-0.113281 -0.906250 -0.022450 12 13 13
-0.109375 -0.906250 -0.020999 12 13 13
-0.105469 -0.906250 -0.019965 12 13 13
-0.101562 -0.906250 -0.019631 11 13 12
-0.097656 -0.906250 -0.019186 11 12 12
-0.093750 -0.906250 -0.018034 10 11 11
-0.089844 -0.906250 -0.016716 9 10 10
-0.085938 -0.906250 -0.015549 9 10 10
-0.082031 -0.906250 -0.014362 8 10 10
-0.078125 -0.906250 -0.014183 7 9 8
-0.074219 -0.906250 -0.015442 7 8 8
-0.070312 -0.906250 -0.018709 6 7 7
-0.066406 -0.906250 -0.025060 8 8 7
-0.062500 -0.906250 -0.031380 8 8 8
-0.058594 -0.906250 -0.048486 6 7 7
-0.054688 -0.906250 -0.088299 33 37 33
-0.050781 -0.906250 -0.111705 172 179 169
-0.035156 -0.906250 -0.003959 14 14 13
-0.031250 -0.906250 0.008240 7 7 7
-0.027344 -0.906250 0.027006 8 8 8
-0.023438 -0.906250 0.037556 7 7 7
-0.019531 -0.906250 0.045902 9 9 9
-0.015625 -0.906250 0.052250 11 11 10
-0.011719 -0.906250 0.056453 13 14 13
-0.007812 -0.906250 0.058586 15 15 14
-0.003906 -0.906250 0.059558 14 15 14
0.000000 -0.906250 0.060073 13 14 14
0.003906 -0.906250 0.059824 14 14 14
0.007812 -0.906250 0.058904 14 15 14
0.011719 -0.906250 0.057524 13 14 14
0.015625 -0.906250 0.055893 13 14 13
0.019531 -0.906250 0.053296 13 14 14
0.023438 -0.906250 0.049150 12 14 14
0.027344 -0.906250 0.044588 12 13 13
0.031250 -0.906250 0.040119 12 13 13
0.035156 -0.906250 0.035244 13 14 14
0.039062 -0.906250 0.028736 11 11 12
0.042969 -0.906250 0.020690 6 5 8
0.046875 -0.906250 0.003181 7 7 11
-0.136719 -0.910156 -0.044303 8 9 9
-0.132812 -0.910156 -0.041797 11 11 10
-0.128906 -0.910156 -0.035601 15 16 13
-0.125000 -0.910156 -0.030041 15 16 14
-0.121094 -0.910156 -0.026634 14 15 14
-0.117188 -0.910156 -0.024110 14 15 14
-0.113281 -0.910156 -0.022304 14 15 14
-0.109375 -0.910156 -0.020765 15 16 15
-0.105469 -0.910156 -0.019750 14 15 14
-0.101562 -0.910156 -0.019426 12 14 13
-0.097656 -0.910156 -0.018994 11 12 12
-0.093750 -0.910156 -0.017862 9 10 10
-0.089844 -0.910156 -0.016538 8 9 9
-0.085938 -0.910156 -0.015372 8 9 9
-0.082031 -0.910156 -0.014262 8 9 9
-0.078125 -0.910156 -0.014147 7 9 8
-0.074219 -0.910156 -0.015491 7 8 8
-0.070312 -0.910156 -0.018969 7 7 7
-0.066406 -0.910156 -0.025180 7 8 7
-0.062500 -0.910156 -0.031369 8 8 8
-0.058594 -0.910156 -0.046086 7 8 8
-0.054688 -0.910156 -0.083996 25 28 24
-0.050781 -0.910156 -0.106416 81 85 71
-0.035156 -0.910156 -0.004419 13 13 12
-0.031250 -0.910156 0.008366 8 8 9
-0.027344 -0.910156 0.026732 9 10 10
-0.023438 -0.910156 0.037318 8 8 9
-0.019531 -0.910156 0.045770 9 8 9
-0.015625 -0.910156 0.052154 9 9 9
-0.011719 -0.910156 0.056503 12 12 12
-0.007812 -0.910156 0.058817 15 15 14
-0.003906 -0.910156 0.059976 15 15 15
0.000000 -0.910156 0.060661 15 15 15
0.003906 -0.910156 0.060482 15 16 15
0.007812 -0.910156 0.059534 15 16 15
0.011719 -0.910156 0.058109 15 16 15
0.015625 -0.910156 0.056367 15 16 15
0.019531 -0.910156 0.053604 16 18 16
0.023438 -0.910156 0.049225 15 17 16
0.027344 -0.910156 0.044379 14 16 15
0.031250 -0.910156 0.039640 14 15 14
0.035156 -0.910156 0.034439 15 16 15
0.039062 -0.910156 0.027464 15 15 15
0.042969 -0.910156 0.018256 13 14 16
0.046875 -0.910156 -0.002216 31 33 36
-0.136719 -0.914062 -0.012604 12 12 12
-0.132812 -0.914062 -0.043775 10 9 9
-0.128906 -0.914062 -0.037119 13 14 12
-0.125000 -0.914062 -0.030542 13 14 12
-0.121094 -0.914062 -0.026887 13 14 13
-0.117188 -0.914062 -0.024163 14 15 13
-0.113281 -0.914062 -0.022213 14 15 14
-0.109375 -0.914062 -0.020598 15 15 14
-0.105469 -0.914062 -0.019570 13 14 13
-0.101562 -0.914062 -0.019206 11 12 11
-0.097656 -0.914062 -0.018745 9 10 10
-0.093750 -0.914062 -0.017615 8 9 9
-0.089844 -0.914062 -0.016254 8 9 9
-0.085938 -0.914062 -0.015102 9 10 10
-0.082031 -0.914062 -0.014063 10 12 11
-0.078125 -0.914062 -0.013998 9 11 10
-0.074219 -0.914062 -0.015439 9 10 9
-0.070312 -0.914062 -0.019127 8 9 8
-0.066406 -0.914062 -0.025139 8 8 8
-0.062500 -0.914062 -0.031482 9 9 9
-0.058594 -0.914062 -0.044967 10 10 10
-0.054688 -0.914062 -0.079576 28 28 25
-0.050781 -0.914062 -0.099634 64 62 55
-0.035156 -0.914062 -0.005165 11 11 11
-0.031250 -0.914062 0.008744 8 8 9
-0.027344 -0.914062 0.026568 9 10 10
-0.023438 -0.914062 0.037149 8 8 9
-0.019531 -0.914062 0.045628 9 8 9
-0.015625 -0.914062 0.051972 9 9 9
-0.011719 -0.914062 0.056425 13 13 12
-0.007812 -0.914062 0.058873 17 17 16
-0.003906 -0.914062 0.060198 17 18 16
0.000000 -0.914062 0.061063 17 18 16
0.003906 -0.914062 0.060973 17 17 15
0.007812 -0.914062 0.060021 16 16 14
0.011719 -0.914062 0.058536 14 14 13
0.015625 -0.914062 0.056649 12 13 12
0.019531 -0.914062 0.053709 12 13 12
0.023438 -0.914062 0.049127 11 12 12
0.027344 -0.914062 0.044058 11 12 11
0.031250 -0.914062 0.039047 11 12 12
0.035156 -0.914062 0.033530 11 12 12
0.039062 -0.914062 0.026053 10 10 11
0.042969 -0.914062 0.015730 7 7 10
0.046875 -0.914062 -0.007514 8 7 12
-0.132812 -0.917969 -0.047026 3 2 3
-0.128906 -0.917969 -0.038499 11 11 10
-0.125000 -0.917969 -0.031204 13 14 12
-0.121094 -0.917969 -0.027268 14 15 13
-0.117188 -0.917969 -0.024367 14 15 13
-0.113281 -0.917969 -0.022261 13 14 13
-0.109375 -0.917969 -0.020527 13 14 12
-0.105469 -0.917969 -0.019437 12 13 12
-0.101562 -0.917969 -0.018977 10 11 11
-0.097656 -0.917969 -0.018439 9 10 10
-0.093750 -0.917969 -0.017281 8 10 10
-0.089844 -0.917969 -0.015861 9 10 10
-0.085938 -0.917969 -0.014752 10 12 11
-0.082031 -0.917969 -0.013818 12 14 13
-0.078125 -0.917969 -0.013788 12 14 12
-0.074219 -0.917969 -0.015293 11 12 11
-0.070312 -0.917969 -0.019107 9 10 9
-0.066406 -0.917969 -0.024879 8 8 8
-0.062500 -0.917969 -0.031537 8 8 9
-0.058594 -0.917969 -0.044471 9 9 9
-0.054688 -0.917969 -0.075505 20 21 20
-0.050781 -0.917969 -0.094222 51 50 47
-0.035156 -0.917969 -0.006146 10 9 9
-0.031250 -0.917969 0.009394 9 8 9
-0.027344 -0.917969 0.026164 10 10 10
-0.023438 -0.917969 0.036966 8 8 9
-0.019531 -0.917969 0.045431 9 9 9
-0.015625 -0.917969 0.051704 9 9 9
-0.011719 -0.917969 0.056249 11 11 11
-0.007812 -0.917969 0.058790 13 13 12
-0.003906 -0.917969 0.060273 12 12 12
0.000000 -0.917969 0.061318 12 12 11
0.003906 -0.917969 0.061325 12 12 11
0.007812 -0.917969 0.060391 12 12 11
0.011719 -0.917969 0.058849 11 11 10
0.015625 -0.917969 0.056816 9 10 9
0.019531 -0.917969 0.053714 9 10 10
0.023438 -0.917969 0.048957 8 9 9
0.027344 -0.917969 0.043716 9 9 9
0.031250 -0.917969 0.038418 11 11 11
0.035156 -0.917969 0.032584 12 13 13
0.039062 -0.917969 0.024373 15 15 15
0.042969 -0.917969 0.012671 14 14 18
-0.132812 -0.921875 -0.050063 4 4 5
-0.128906 -0.921875 -0.039954 15 15 13
-0.125000 -0.921875 -0.032064 15 15 13
-0.121094 -0.921875 -0.027619 15 15 13
-0.117188 -0.921875 -0.024591 15 16 13
-0.113281 -0.921875 -0.022342 13 14 12
-0.109375 -0.921875 -0.020455 12 13 12
-0.105469 -0.921875 -0.019260 11 12 11
-0.101562 -0.921875 -0.018672 9 10 10
-0.097656 -0.921875 -0.018035 7 8 8
-0.093750 -0.921875 -0.016846 7 8 8
-0.089844 -0.921875 -0.015411 8 10 9
-0.085938 -0.921875 -0.014362 10 12 11
-0.082031 -0.921875 -0.013545 12 15 13
-0.078125 -0.921875 -0.013557 13 15 13
-0.074219 -0.921875 -0.015142 12 13 11
-0.070312 -0.921875 -0.019076 10 10 9
-0.066406 -0.921875 -0.024634 8 9 8
-0.062500 -0.921875 -0.031216 9 10 10
-0.058594 -0.921875 -0.043049 10 10 11
-0.054688 -0.921875 -0.071556 21 22 23
-0.050781 -0.921875 -0.089104 60 62 59
-0.035156 -0.921875 -0.008705 12 11 12
-0.031250 -0.921875 0.009889 9 8 9
-0.027344 -0.921875 0.025912 10 9 10
-0.023438 -0.921875 0.036858 8 8 8
-0.019531 -0.921875 0.045253 8 8 8
-0.015625 -0.921875 0.051419 8 8 8
-0.011719 -0.921875 0.056042 9 9 9
-0.007812 -0.921875 0.058673 11 10 10
-0.003906 -0.921875 0.060299 11 10 10
0.000000 -0.921875 0.061510 11 10 10
0.003906 -0.921875 0.061607 11 11 10
0.007812 -0.921875 0.060678 11 11 11
0.011719 -0.921875 0.059057 11 11 10
0.015625 -0.921875 0.056892 9 10 9
0.019531 -0.921875 0.053666 9 11 10
0.023438 -0.921875 0.048757 9 10 9
0.027344 -0.921875 0.043398 9 10 9
0.031250 -0.921875 0.037814 11 12 12
0.035156 -0.921875 0.031662 13 13 13
0.039062 -0.921875 0.022767 22 21 20
0.042969 -0.921875 0.009559 35 35 36
-0.132812 -0.925781 -0.054107 4 4 5
-0.128906 -0.925781 -0.041598 14 14 12
-0.125000 -0.925781 -0.033310 14 14 12
-0.121094 -0.925781 -0.028146 14 15 13
-0.117188 -0.925781 -0.024971 15 15 13
-0.113281 -0.925781 -0.022494 13 14 12
-0.109375 -0.925781 -0.020365 12 13 11
-0.105469 -0.925781 -0.019038 10 11 10
-0.101562 -0.925781 -0.018306 8 9 9
-0.097656 -0.925781 -0.017533 7 8 8
-0.093750 -0.925781 -0.016282 8 9 9
-0.089844 -0.925781 -0.014849 10 11 10
-0.085938 -0.925781 -0.013872 12 14 13
-0.082031 -0.925781 -0.013189 15 18 15
-0.078125 -0.925781 -0.013282 16 18 14
-0.074219 -0.925781 -0.014938 13 15 12
-0.070312 -0.925781 -0.018820 10 11 10
-0.066406 -0.925781 -0.024143 8 8 8
-0.062500 -0.925781 -0.030736 8 8 9
-0.058594 -0.925781 -0.041578 8 8 10
-0.054688 -0.925781 -0.066561 15 17 19
-0.050781 -0.925781 -0.083660 47 51 49
-0.046875 -0.925781 -0.093445 122 127 120
-0.035156 -0.925781 -0.013935 14 12 13
-0.031250 -0.925781 0.010133 9 7 8
-0.027344 -0.925781 0.025935 10 9 9
-0.023438 -0.925781 0.036766 8 8 8
-0.019531 -0.925781 0.045065 9 8 8
-0.015625 -0.925781 0.051098 9 9 9
-0.011719 -0.925781 0.055768 10 10 9
-0.007812 -0.925781 0.058474 11 10 10
-0.003906 -0.925781 0.060249 10 10 10
0.000000 -0.925781 0.061635 11 11 10
0.003906 -0.925781 0.061837 11 11 10
0.007812 -0.925781 0.060915 11 12 11
0.011719 -0.925781 0.059200 10 10 10
0.015625 -0.925781 0.056903 8 9 8
0.019531 -0.925781 0.053578 8 9 8
0.023438 -0.925781 0.048589 7 8 8
0.027344 -0.925781 0.043185 7 8 7
0.031250 -0.925781 0.037341 8 9 9
0.035156 -0.925781 0.030828 8 8 8
0.039062 -0.925781 0.021055 9 8 9
0.042969 -0.925781 0.005819 8 7 10
-0.132812 -0.929688 -0.045676 1 1 2
-0.128906 -0.929688 -0.043223 9 8 8
-0.125000 -0.929688 -0.034686 12 12 11
-0.121094 -0.929688 -0.028692 14 15 13
-0.117188 -0.929688 -0.025321 15 15 13
-0.113281 -0.929688 -0.022599 13 14 12
-0.109375 -0.929688 -0.020148 11 12 11
-0.105469 -0.929688 -0.018648 9 10 9
-0.101562 -0.929688 -0.017798 8 9 8
-0.097656 -0.929688 -0.016907 8 9 8
-0.093750 -0.929688 -0.015596 9 10 9
-0.089844 -0.929688 -0.014185 11 12 11
-0.085938 -0.929688 -0.013290 14 16 13
-0.082031 -0.929688 -0.012748 16 19 15
-0.078125 -0.929688 -0.012918 16 18 14
-0.074219 -0.929688 -0.014575 13 15 12
-0.070312 -0.929688 -0.018286 10 11 9
-0.066406 -0.929688 -0.023270 7 8 8
-0.062500 -0.929688 -0.029521 7 7 8
-0.058594 -0.929688 -0.039420 6 7 8
-0.054688 -0.929688 -0.060031 11 13 15
-0.050781 -0.929688 -0.077201 36 41 39
-0.046875 -0.929688 -0.084229 97 103 97
-0.035156 -0.929688 -0.017484 13 11 11
-0.031250 -0.929688 0.010163 9 7 8
-0.027344 -0.929688 0.026050 10 9 9
-0.023438 -0.929688 0.036657 9 8 8
-0.019531 -0.929688 0.044869 9 9 9
-0.015625 -0.929688 0.050831 10 10 9
-0.011719 -0.929688 0.055503 9 9 9
-0.007812 -0.929688 0.058259 9 9 8
-0.003906 -0.929688 0.060173 9 9 8
0.000000 -0.929688 0.061715 10 10 9
0.003906 -0.929688 0.062011 11 11 10
0.007812 -0.929688 0.061107 12 13 11
0.011719 -0.929688 0.059319 11 12 10
0.015625 -0.929688 0.056921 9 10 9
0.019531 -0.929688 0.053526 8 9 8
0.023438 -0.929688 0.048532 7 8 8
0.027344 -0.929688 0.043155 7 8 7
0.031250 -0.929688 0.037124 9 9 9
0.035156 -0.929688 0.030105 8 8 8
0.039062 -0.929688 0.019639 11 10 11
0.042969 -0.929688 0.000733 10 9 12
-0.132812 -0.933594 -0.024095 12 14 19
-0.128906 -0.933594 -0.044722 20 21 19
-0.125000 -0.933594 -0.035927 12 13 11
-0.121094 -0.933594 -0.029161 13 14 12
-0.117188 -0.933594 -0.025583 14 15 13
-0.113281 -0.933594 -0.022645 12 13 11
-0.109375 -0.933594 -0.019827 10 11 10
-0.105469 -0.933594 -0.018079 9 9 9
-0.101562 -0.933594 -0.017112 7 8 8
-0.097656 -0.933594 -0.016113 8 9 8
-0.093750 -0.933594 -0.014756 9 10 9
-0.089844 -0.933594 -0.013385 11 12 10
-0.085938 -0.933594 -0.012549 13 14 12
-0.082031 -0.933594 -0.012100 15 17 14
-0.078125 -0.933594 -0.012315 15 17 13
-0.074219 -0.933594 -0.013912 13 16 12
-0.070312 -0.933594 -0.017318 11 12 10
-0.066406 -0.933594 -0.021874 8 9 8
-0.062500 -0.933594 -0.027666 7 8 8
-0.058594 -0.933594 -0.036748 6 7 8
-0.054688 -0.933594 -0.053493 10 12 14
-0.050781 -0.933594 -0.070751 28 33 32
-0.046875 -0.933594 -0.077293 57 61 60
-0.042969 -0.933594 -0.074254 77 80 74
-0.039062 -0.933594 -0.048612 43 45 37
-0.035156 -0.933594 -0.018697 14 13 12
-0.031250 -0.933594 0.009937 11 9 9
-0.027344 -0.933594 0.026347 12 10 10
-0.023438 -0.933594 0.036647 10 9 9
-0.019531 -0.933594 0.044723 10 10 9
-0.015625 -0.933594 0.050618 10 10 10
-0.011719 -0.933594 0.055224 10 10 9
-0.007812 -0.933594 0.058028 9 9 9
-0.003906 -0.933594 0.060084 10 10 9
0.000000 -0.933594 0.061763 11 12 11
0.003906 -0.933594 0.062141 13 14 12
0.007812 -0.933594 0.061229 15 16 13
0.011719 -0.933594 0.059343 14 15 13
0.015625 -0.933594 0.056848 12 14 11
0.019531 -0.933594 0.053393 12 14 11
0.023438 -0.933594 0.048450 12 14 11
0.027344 -0.933594 0.043127 13 13 11
0.031250 -0.933594 0.037038 14 14 13
0.035156 -0.933594 0.029456 12 11 12
0.039062 -0.933594 0.018444 17 15 16
0.042969 -0.933594 -0.006916 17 15 19
-0.132812 -0.937500 -0.016621 4 6 12
-0.128906 -0.937500 -0.049252 13 14 14
-0.125000 -0.937500 -0.037732 11 11 11
-0.121094 -0.937500 -0.030130 14 15 13
-0.117188 -0.937500 -0.025825 14 15 13
-0.113281 -0.937500 -0.022494 12 13 12
-0.109375 -0.937500 -0.019310 11 12 11
-0.105469 -0.937500 -0.017287 10 11 10
-0.101562 -0.937500 -0.016203 9 11 10
-0.097656 -0.937500 -0.015135 11 12 11
-0.093750 -0.937500 -0.013762 12 14 12
-0.089844 -0.937500 -0.012454 13 14 12
-0.085938 -0.937500 -0.011693 14 15 13
-0.082031 -0.937500 -0.011313 15 17 13
-0.078125 -0.937500 -0.011542 14 16 13
-0.074219 -0.937500 -0.012989 13 15 12
-0.070312 -0.937500 -0.015990 10 12 10
-0.066406 -0.937500 -0.020029 7 8 8
-0.062500 -0.937500 -0.025248 5 7 7
-0.058594 -0.937500 -0.033383 4 5 6
-0.054688 -0.937500 -0.047341 6 7 9
-0.050781 -0.937500 -0.063945 17 22 21
-0.046875 -0.937500 -0.072361 33 40 36
-0.042969 -0.937500 -0.073295 46 52 42
-0.039062 -0.937500 -0.058132 34 35 26
-0.035156 -0.937500 -0.020601 14 12 11
-0.031250 -0.937500 0.010378 11 9 8
-0.027344 -0.937500 0.026357 11 10 9
-0.023438 -0.937500 0.036567 11 10 9
-0.019531 -0.937500 0.044634 11 11 10
-0.015625 -0.937500 0.050443 12 13 11
-0.011719 -0.937500 0.054952 11 12 11
-0.007812 -0.937500 0.057785 10 10 10
-0.003906 -0.937500 0.059940 10 11 10
0.000000 -0.937500 0.061713 11 12 10
0.003906 -0.937500 0.062141 12 13 11
0.007812 -0.937500 0.061183 14 15 12
0.011719 -0.937500 0.059178 14 15 12
