ply
    format ascii 1.0
    element vertex 62544
    property float x
    property float y
    property float z
    property uchar red
    property uchar green
    property uchar blue
    end_header
-0.003906 0.492188 -0.073177 186 158 143
0.000000 0.492188 -0.071244 188 159 144
0.003906 0.492188 -0.069040 189 160 144
0.007812 0.492188 -0.066298 190 161 145
0.011719 0.492188 -0.063436 191 161 145
0.015625 0.492188 -0.060182 191 162 144
0.019531 0.492188 -0.055950 191 159 142
0.023438 0.492188 -0.051573 192 154 134
0.027344 0.492188 -0.044407 204 165 149
-0.101562 0.488281 -0.057814 28 31 31
-0.097656 0.488281 -0.064873 33 36 35
-0.093750 0.488281 -0.069301 38 40 39
-0.089844 0.488281 -0.072925 43 44 43
-0.085938 0.488281 -0.076589 48 49 48
-0.082031 0.488281 -0.079506 55 55 53
-0.078125 0.488281 -0.081812 63 63 61
-0.074219 0.488281 -0.083753 73 73 70
-0.070312 0.488281 -0.085313 86 85 82
-0.066406 0.488281 -0.086586 103 101 99
-0.062500 0.488281 -0.087529 126 124 122
-0.058594 0.488281 -0.087872 149 146 145
-0.054688 0.488281 -0.087713 168 164 164
-0.050781 0.488281 -0.087482 172 167 167
-0.046875 0.488281 -0.087152 189 181 182
-0.042969 0.488281 -0.086635 202 189 190
-0.039062 0.488281 -0.085939 195 177 174
-0.035156 0.488281 -0.085294 192 169 162
-0.031250 0.488281 -0.084659 193 166 157
-0.027344 0.488281 -0.083899 192 162 150
-0.023438 0.488281 -0.083089 192 161 146
-0.019531 0.488281 -0.082202 192 161 145
-0.015625 0.488281 -0.081190 192 161 145
-0.011719 0.488281 -0.079974 193 161 145
-0.007812 0.488281 -0.078502 194 161 145
-0.003906 0.488281 -0.076951 195 162 145
0.000000 0.488281 -0.075225 195 161 144
0.003906 0.488281 -0.073218 195 162 145
0.007812 0.488281 -0.070806 195 162 145
0.011719 0.488281 -0.068209 194 161 144
0.015625 0.488281 -0.065978 195 161 143
0.019531 0.488281 -0.063436 195 160 141
0.023438 0.488281 -0.059003 197 157 137
0.027344 0.488281 -0.054955 191 158 141
0.031250 0.488281 -0.050610 198 162 145
0.035156 0.488281 -0.031889 193 163 145
-0.105469 0.484375 -0.060754 163 154 142
-0.101562 0.484375 -0.062109 62 66 64
-0.097656 0.484375 -0.068696 65 67 65
-0.093750 0.484375 -0.072541 68 69 67
-0.089844 0.484375 -0.075909 77 77 74
-0.085938 0.484375 -0.079027 87 85 82
-0.082031 0.484375 -0.081660 97 95 91
-0.078125 0.484375 -0.083745 108 105 101
-0.074219 0.484375 -0.085603 120 117 113
-0.070312 0.484375 -0.087113 135 132 128
-0.066406 0.484375 -0.088335 151 147 144
-0.062500 0.484375 -0.089264 165 162 160
-0.058594 0.484375 -0.089654 177 174 172
-0.054688 0.484375 -0.089583 192 187 187
-0.050781 0.484375 -0.089438 195 189 190
-0.046875 0.484375 -0.089212 201 192 194
-0.042969 0.484375 -0.088842 202 190 192
-0.039062 0.484375 -0.088341 200 182 181
-0.035156 0.484375 -0.087855 196 176 172
-0.031250 0.484375 -0.087372 196 172 164
-0.027344 0.484375 -0.086765 195 167 158
-0.023438 0.484375 -0.086091 195 166 152
-0.019531 0.484375 -0.085355 196 163 149
-0.015625 0.484375 -0.084480 196 163 147
-0.011719 0.484375 -0.083417 196 163 146
-0.007812 0.484375 -0.082121 197 163 146
-0.003906 0.484375 -0.080730 197 163 147
0.000000 0.484375 -0.079177 198 163 145
0.003906 0.484375 -0.077332 198 162 146
0.007812 0.484375 -0.075213 198 162 144
0.011719 0.484375 -0.072987 199 161 144
0.015625 0.484375 -0.070913 198 160 146
0.019531 0.484375 -0.068745 198 161 144
0.023438 0.484375 -0.065575 200 159 142
0.027344 0.484375 -0.061255 197 160 144
0.031250 0.484375 -0.056491 195 165 148
0.035156 0.484375 -0.050948 205 173 157
0.039062 0.484375 -0.046526 206 182 166
-0.113281 0.480469 -0.054316 185 177 175
-0.109375 0.480469 -0.063983 169 156 144
-0.105469 0.480469 -0.065980 101 100 98
-0.101562 0.480469 -0.069810 100 99 95
-0.097656 0.480469 -0.073186 100 98 94
-0.093750 0.480469 -0.076065 115 112 106
-0.089844 0.480469 -0.079084 123 119 113
-0.085938 0.480469 -0.081742 130 126 120
-0.082031 0.480469 -0.084081 138 134 128
-0.078125 0.480469 -0.085991 147 143 138
-0.074219 0.480469 -0.087727 157 153 148
-0.070312 0.480469 -0.089173 167 163 160
-0.066406 0.480469 -0.090346 177 173 171
-0.062500 0.480469 -0.091259 185 181 180
-0.058594 0.480469 -0.091695 196 192 191
-0.054688 0.480469 -0.091723 202 197 198
-0.050781 0.480469 -0.091689 204 197 199
-0.046875 0.480469 -0.091584 203 194 196
-0.042969 0.480469 -0.091345 203 191 193
-0.039062 0.480469 -0.090995 199 183 184
-0.035156 0.480469 -0.090642 198 179 177
-0.031250 0.480469 -0.090273 196 174 169
-0.027344 0.480469 -0.089779 196 171 162
-0.023438 0.480469 -0.089198 196 168 156
-0.019531 0.480469 -0.088564 197 167 153
-0.015625 0.480469 -0.087788 197 166 150
-0.011719 0.480469 -0.086833 198 165 148
-0.007812 0.480469 -0.085668 198 164 147
-0.003906 0.480469 -0.084392 198 164 146
0.000000 0.480469 -0.082973 199 164 146
0.003906 0.480469 -0.081270 199 163 145
0.007812 0.480469 -0.079332 199 163 146
0.011719 0.480469 -0.077267 200 163 145
0.015625 0.480469 -0.075198 200 163 145
0.019531 0.480469 -0.072924 200 163 145
0.023438 0.480469 -0.070809 206 165 149
0.027344 0.480469 -0.068670 204 165 149
0.031250 0.480469 -0.065400 198 164 147
0.035156 0.480469 -0.061273 186 161 143
0.039062 0.480469 -0.056929 209 185 169
0.042969 0.480469 -0.052450 202 181 167
0.046875 0.480469 -0.047992 188 167 163
0.050781 0.480469 -0.044119 190 171 180
-0.121094 0.476562 -0.053872 188 187 186
-0.117188 0.476562 -0.060564 46 59 69
-0.113281 0.476562 -0.063085 112 106 111
-0.109375 0.476562 -0.068825 151 136 123
-0.105469 0.476562 -0.071708 138 129 122
-0.101562 0.476562 -0.074394 134 128 120
-0.097656 0.476562 -0.076934 149 143 133
-0.093750 0.476562 -0.079595 151 145 135
-0.089844 0.476562 -0.082244 154 148 139
-0.085938 0.476562 -0.084592 158 153 145
-0.082031 0.476562 -0.086730 164 159 153
-0.078125 0.476562 -0.088527 170 166 161
-0.074219 0.476562 -0.090153 177 173 170
-0.070312 0.476562 -0.091533 185 181 179
-0.066406 0.476562 -0.092663 194 190 189
-0.062500 0.476562 -0.093555 199 196 195
-0.058594 0.476562 -0.094009 204 200 200
-0.054688 0.476562 -0.094112 206 200 202
-0.050781 0.476562 -0.094152 205 198 201
-0.046875 0.476562 -0.094137 204 195 197
-0.042969 0.476562 -0.094002 202 190 193
-0.039062 0.476562 -0.093767 199 184 185
-0.035156 0.476562 -0.093526 198 181 180
-0.031250 0.476562 -0.093246 197 176 173
-0.027344 0.476562 -0.092841 196 172 166
-0.023438 0.476562 -0.092324 196 170 160
-0.019531 0.476562 -0.091754 196 168 156
-0.015625 0.476562 -0.091044 197 167 152
-0.011719 0.476562 -0.090163 198 166 150
-0.007812 0.476562 -0.089092 198 166 148
-0.003906 0.476562 -0.087901 199 165 147
0.000000 0.476562 -0.086579 199 164 146
0.003906 0.476562 -0.084999 199 163 147
0.007812 0.476562 -0.083263 199 162 144
0.011719 0.476562 -0.081415 200 161 145
0.015625 0.476562 -0.079510 200 162 145
0.019531 0.476562 -0.077581 199 159 144
0.023438 0.476562 -0.075544 203 163 148
0.027344 0.476562 -0.073241 202 163 147
0.031250 0.476562 -0.070398 198 162 145
0.035156 0.476562 -0.067612 193 163 145
0.039062 0.476562 -0.064302 192 171 152
0.042969 0.476562 -0.059903 165 150 138
0.046875 0.476562 -0.054987 153 147 141
0.050781 0.476562 -0.050414 205 182 196
0.054688 0.476562 -0.045157 201 182 197
0.058594 0.476562 -0.038562 196 178 195
-0.132812 0.472656 -0.052406 171 163 168
-0.128906 0.472656 -0.057697 172 166 2
-0.125000 0.472656 -0.060502 4 6 13
-0.121094 0.472656 -0.063150 50 53 72
-0.117188 0.472656 -0.067543 167 164 172
-0.113281 0.472656 -0.070701 196 187 183
-0.109375 0.472656 -0.073460 194 182 162
-0.105469 0.472656 -0.075836 163 154 142
-0.101562 0.472656 -0.078433 171 162 149
-0.097656 0.472656 -0.080940 169 161 149
-0.093750 0.472656 -0.083215 167 160 150
-0.089844 0.472656 -0.085397 169 163 155
-0.085938 0.472656 -0.087498 174 168 162
-0.082031 0.472656 -0.089500 179 174 169
-0.078125 0.472656 -0.091194 185 180 177
-0.074219 0.472656 -0.092736 191 187 185
-0.070312 0.472656 -0.094038 198 194 193
-0.066406 0.472656 -0.095122 202 199 198
-0.062500 0.472656 -0.095995 205 202 202
-0.058594 0.472656 -0.096472 206 202 203
-0.054688 0.472656 -0.096651 206 200 203
-0.050781 0.472656 -0.096759 205 198 201
-0.046875 0.472656 -0.096817 204 195 198
-0.042969 0.472656 -0.096767 202 191 194
-0.039062 0.472656 -0.096611 201 184 186
-0.035156 0.472656 -0.096441 198 181 181
-0.031250 0.472656 -0.096210 196 176 176
-0.027344 0.472656 -0.095857 195 173 169
-0.023438 0.472656 -0.095380 195 170 163
-0.019531 0.472656 -0.094856 196 171 159
-0.015625 0.472656 -0.094204 196 168 155
-0.011719 0.472656 -0.093382 197 168 152
-0.007812 0.472656 -0.092395 198 167 150
-0.003906 0.472656 -0.091280 199 166 148
0.000000 0.472656 -0.090045 199 166 147
0.003906 0.472656 -0.088600 199 165 146
0.007812 0.472656 -0.087032 199 163 144
0.011719 0.472656 -0.085354 200 163 146
0.015625 0.472656 -0.083653 199 162 144
0.019531 0.472656 -0.081837 195 156 140
0.023438 0.472656 -0.079904 201 162 146
0.027344 0.472656 -0.077833 202 164 148
0.031250 0.472656 -0.075475 204 167 152
0.035156 0.472656 -0.073130 205 173 157
0.039062 0.472656 -0.070030 206 182 166
0.042969 0.472656 -0.066637 196 178 164
0.046875 0.472656 -0.062960 187 174 166
0.050781 0.472656 -0.058767 197 191 189
0.054688 0.472656 -0.053558 207 207 208
0.058594 0.472656 -0.048444 194 179 189
0.062500 0.472656 -0.036554 188 165 180
-0.144531 0.468750 -0.033383 181 176 180
-0.140625 0.468750 -0.053203 196 191 193
-0.136719 0.468750 -0.056675 6 15 21
-0.132812 0.468750 -0.061836 57 91 100
-0.128906 0.468750 -0.064654 85 99 115
-0.125000 0.468750 -0.067516 110 112 125
-0.121094 0.468750 -0.070154 152 148 155
-0.117188 0.468750 -0.072820 185 180 183
-0.113281 0.468750 -0.075506 185 177 175
-0.109375 0.468750 -0.077660 169 156 144
-0.105469 0.468750 -0.079832 179 166 143
-0.101562 0.468750 -0.082133 173 163 149
-0.097656 0.468750 -0.084289 170 161 149
-0.093750 0.468750 -0.086337 175 167 158
-0.089844 0.468750 -0.088388 180 174 167
-0.085938 0.468750 -0.090408 185 180 175
-0.082031 0.468750 -0.092266 190 186 182
-0.078125 0.468750 -0.093863 196 192 190
-0.074219 0.468750 -0.095324 200 197 195
-0.070312 0.468750 -0.096568 204 201 200
-0.066406 0.468750 -0.097596 206 203 203
-0.062500 0.468750 -0.098449 207 204 204
-0.058594 0.468750 -0.098952 208 202 204
-0.054688 0.468750 -0.099190 206 200 202
-0.050781 0.468750 -0.099358 206 197 201
-0.046875 0.468750 -0.099474 205 196 199
-0.042969 0.468750 -0.099488 203 191 194
-0.039062 0.468750 -0.099387 198 185 187
-0.035156 0.468750 -0.099268 197 181 182
-0.031250 0.468750 -0.099063 196 179 178
-0.027344 0.468750 -0.098741 194 173 171
-0.023438 0.468750 -0.098286 194 172 166
-0.019531 0.468750 -0.097780 194 169 162
-0.015625 0.468750 -0.097157 195 170 158
-0.011719 0.468750 -0.096373 196 168 155
-0.007812 0.468750 -0.095451 197 168 152
-0.003906 0.468750 -0.094400 198 168 150
0.000000 0.468750 -0.093247 198 167 148
0.003906 0.468750 -0.091934 200 167 146
0.007812 0.468750 -0.090535 198 165 145
0.011719 0.468750 -0.089007 199 165 145
0.015625 0.468750 -0.087490 199 163 144
0.019531 0.468750 -0.085915 195 160 140
0.023438 0.468750 -0.084253 201 166 147
0.027344 0.468750 -0.082621 204 168 150
0.031250 0.468750 -0.080646 206 172 155
0.035156 0.468750 -0.078423 208 177 160
0.039062 0.468750 -0.075531 209 185 169
0.042969 0.468750 -0.072423 202 181 167
0.046875 0.468750 -0.068855 188 167 163
0.050781 0.468750 -0.065039 190 171 180
0.054688 0.468750 -0.060982 193 177 192
0.058594 0.468750 -0.055820 190 177 193
0.062500 0.468750 -0.049396 189 184 188
-0.148438 0.464844 -0.040150 181 176 179
-0.144531 0.464844 -0.054746 187 183 1
-0.140625 0.464844 -0.061078 6 7 14
-0.136719 0.464844 -0.065712 67 69 88
-0.132812 0.464844 -0.068728 162 159 172
-0.128906 0.464844 -0.070993 185 181 187
-0.125000 0.464844 -0.073114 187 184 186
-0.121094 0.464844 -0.075160 188 187 186
-0.117188 0.464844 -0.077343 192 191 190
-0.113281 0.464844 -0.079834 189 187 185
-0.109375 0.464844 -0.081945 176 171 166
-0.105469 0.464844 -0.083879 175 167 153
-0.101562 0.464844 -0.085686 181 173 162
-0.097656 0.464844 -0.087341 182 176 167
-0.093750 0.464844 -0.089242 187 182 176
-0.089844 0.464844 -0.091209 190 186 182
-0.085938 0.464844 -0.093081 194 190 187
-0.082031 0.464844 -0.094832 198 195 193
-0.078125 0.464844 -0.096319 201 198 197
-0.074219 0.464844 -0.097718 204 202 201
-0.070312 0.464844 -0.098949 207 204 204
-0.066406 0.464844 -0.099939 208 205 205
-0.062500 0.464844 -0.100776 208 205 206
-0.058594 0.464844 -0.101306 207 203 204
-0.054688 0.464844 -0.101592 207 200 204
-0.050781 0.464844 -0.101817 205 198 201
-0.046875 0.464844 -0.101998 205 196 199
-0.042969 0.464844 -0.102069 203 191 195
-0.039062 0.464844 -0.102009 199 185 187
-0.035156 0.464844 -0.101925 197 180 182
-0.031250 0.464844 -0.101730 196 179 179
-0.027344 0.464844 -0.101431 194 173 172
-0.023438 0.464844 -0.100986 193 171 167
-0.019531 0.464844 -0.100497 193 170 164
-0.015625 0.464844 -0.099912 194 168 160
-0.011719 0.464844 -0.099167 195 169 157
-0.007812 0.464844 -0.098317 196 168 154
-0.003906 0.464844 -0.097346 197 168 152
0.000000 0.464844 -0.096305 198 168 150
0.003906 0.464844 -0.095146 198 168 148
0.007812 0.464844 -0.093924 198 167 146
0.011719 0.464844 -0.092605 200 167 145
0.015625 0.464844 -0.091234 200 166 145
0.019531 0.464844 -0.089840 197 163 142
0.023438 0.464844 -0.088395 203 170 150
0.027344 0.464844 -0.086889 206 174 154
0.031250 0.464844 -0.085180 209 178 160
0.035156 0.464844 -0.083175 213 185 170
0.039062 0.464844 -0.080609 215 194 181
0.042969 0.464844 -0.077943 208 191 180
0.046875 0.464844 -0.074953 200 179 182
0.050781 0.464844 -0.071642 205 182 196
0.054688 0.464844 -0.067796 201 182 197
0.058594 0.464844 -0.063509 196 178 195
0.062500 0.464844 -0.057277 195 175 191
0.066406 0.464844 -0.050195 127 111 122
-0.152344 0.460938 -0.050707 197 1 2
-0.148438 0.460938 -0.057128 11 18 25
-0.144531 0.460938 -0.063722 51 54 66
-0.140625 0.460938 -0.067832 115 110 119
-0.136719 0.460938 -0.070645 159 151 158
-0.132812 0.460938 -0.073227 171 163 168
-0.128906 0.460938 -0.075421 172 166 169
-0.125000 0.460938 -0.077228 177 173 174
-0.121094 0.460938 -0.079264 184 182 182
-0.117188 0.460938 -0.081256 192 191 191
-0.113281 0.460938 -0.083281 198 197 196
-0.109375 0.460938 -0.085124 198 197 195
-0.105469 0.460938 -0.086867 186 184 179
-0.101562 0.460938 -0.088598 188 184 178
-0.097656 0.460938 -0.090283 191 188 185
-0.093750 0.460938 -0.092057 193 189 187
-0.089844 0.460938 -0.093837 195 192 190
-0.085938 0.460938 -0.095622 199 196 195
-0.082031 0.460938 -0.097330 202 199 199
-0.078125 0.460938 -0.098782 204 202 202
-0.074219 0.460938 -0.100158 207 205 205
-0.070312 0.460938 -0.101363 209 206 206
-0.066406 0.460938 -0.102316 209 206 207
-0.062500 0.460938 -0.103132 209 204 206
-0.058594 0.460938 -0.103676 208 203 204
-0.054688 0.460938 -0.103997 206 199 202
-0.050781 0.460938 -0.104248 206 198 202
-0.046875 0.460938 -0.104468 205 196 200
-0.042969 0.460938 -0.104568 203 192 196
-0.039062 0.460938 -0.104521 199 185 187
-0.035156 0.460938 -0.104443 196 180 182
-0.031250 0.460938 -0.104240 196 179 181
-0.027344 0.460938 -0.103944 193 174 173
-0.023438 0.460938 -0.103500 192 171 168
-0.019531 0.460938 -0.103021 192 171 165
-0.015625 0.460938 -0.102463 193 169 162
-0.011719 0.460938 -0.101759 193 169 159
-0.007812 0.460938 -0.100980 194 169 156
-0.003906 0.460938 -0.100084 196 169 154
0.000000 0.460938 -0.099140 197 169 151
0.003906 0.460938 -0.098112 197 169 149
0.007812 0.460938 -0.097039 199 170 147
0.011719 0.460938 -0.095879 198 166 143
0.015625 0.460938 -0.094641 192 159 135
0.019531 0.460938 -0.093371 198 167 144
0.023438 0.460938 -0.092023 204 174 152
0.027344 0.460938 -0.090614 206 177 156
0.031250 0.460938 -0.089092 208 181 161
0.035156 0.460938 -0.087315 211 186 172
0.039062 0.460938 -0.085096 208 186 177
0.042969 0.460938 -0.082652 196 174 171
0.046875 0.460938 -0.079715 198 176 186
0.050781 0.460938 -0.076554 207 189 200
0.054688 0.460938 -0.073016 203 189 198
0.058594 0.460938 -0.068957 194 179 189
0.062500 0.460938 -0.064037 188 165 180
0.066406 0.460938 -0.058102 191 166 182
0.070312 0.460938 -0.052070 191 175 178
-0.164062 0.457031 -0.035899 177 171 174
-0.160156 0.457031 -0.049014 183 179 181
-0.156250 0.457031 -0.057854 3 3 7
-0.152344 0.457031 -0.062069 38 38 49
-0.148438 0.457031 -0.067305 133 129 138
-0.144531 0.457031 -0.070487 181 176 180
-0.140625 0.457031 -0.072900 196 191 193
-0.136719 0.457031 -0.075469 193 189 190
-0.132812 0.457031 -0.077712 184 180 181
-0.128906 0.457031 -0.079550 181 177 178
-0.125000 0.457031 -0.081173 183 180 181
-0.121094 0.457031 -0.082880 188 186 186
-0.117188 0.457031 -0.084650 194 193 193
-0.113281 0.457031 -0.086410 200 199 199
-0.109375 0.457031 -0.088170 202 201 201
-0.105469 0.457031 -0.089869 195 194 193
-0.101562 0.457031 -0.091499 180 177 175
-0.097656 0.457031 -0.093148 193 190 189
-0.093750 0.457031 -0.094778 197 194 193
-0.089844 0.457031 -0.096430 199 196 196
-0.085938 0.457031 -0.098102 201 199 199
-0.082031 0.457031 -0.099684 204 202 202
-0.078125 0.457031 -0.101081 207 205 205
-0.074219 0.457031 -0.102380 209 207 206
-0.070312 0.457031 -0.103531 210 208 207
-0.066406 0.457031 -0.104470 210 207 207
-0.062500 0.457031 -0.105296 208 204 205
-0.058594 0.457031 -0.105875 207 202 205
-0.054688 0.457031 -0.106233 206 198 202
-0.050781 0.457031 -0.106498 206 198 201
-0.046875 0.457031 -0.106725 205 196 200
-0.042969 0.457031 -0.106830 204 193 197
-0.039062 0.457031 -0.106780 199 185 188
-0.035156 0.457031 -0.106702 197 182 182
-0.031250 0.457031 -0.106487 195 178 181
-0.027344 0.457031 -0.106201 192 173 174
-0.023438 0.457031 -0.105783 192 171 169
-0.019531 0.457031 -0.105320 192 169 166
-0.015625 0.457031 -0.104791 192 169 164
-0.011719 0.457031 -0.104144 192 169 161
-0.007812 0.457031 -0.103464 193 168 158
-0.003906 0.457031 -0.102676 194 169 156
0.000000 0.457031 -0.101840 196 169 153
0.003906 0.457031 -0.100937 197 170 152
0.007812 0.457031 -0.100016 199 172 152
0.011719 0.457031 -0.099014 200 171 149
0.015625 0.457031 -0.097913 196 168 143
0.019531 0.457031 -0.096771 201 175 151
0.023438 0.457031 -0.095471 205 180 160
0.027344 0.457031 -0.094094 207 184 166
0.031250 0.457031 -0.092592 209 187 173
0.035156 0.457031 -0.090799 208 188 178
0.039062 0.457031 -0.088705 201 182 177
0.042969 0.457031 -0.086404 196 176 179
0.046875 0.457031 -0.083698 204 191 197
0.050781 0.457031 -0.080735 209 200 204
0.054688 0.457031 -0.077464 203 195 199
0.058594 0.457031 -0.073807 196 186 191
0.062500 0.457031 -0.069970 194 180 187
0.066406 0.457031 -0.065487 209 192 201
0.070312 0.457031 -0.059853 223 207 216
0.074219 0.457031 -0.053534 175 157 167
0.078125 0.457031 -0.032189 52 46 48
-0.171875 0.453125 -0.042641 184 177 180
-0.167969 0.453125 -0.048577 179 175 176
-0.164062 0.453125 -0.053387 180 177 178
-0.160156 0.453125 -0.059436 97 94 109
-0.156250 0.453125 -0.065184 128 121 131
-0.152344 0.453125 -0.069302 163 156 162
-0.148438 0.453125 -0.072296 181 176 179
-0.144531 0.453125 -0.074962 187 183 185
-0.140625 0.453125 -0.077406 190 187 188
-0.136719 0.453125 -0.079719 189 187 187
-0.132812 0.453125 -0.081505 186 184 185
-0.128906 0.453125 -0.083071 187 185 185
-0.125000 0.453125 -0.084714 188 187 187
-0.121094 0.453125 -0.086327 191 190 190
-0.117188 0.453125 -0.087997 195 194 194
-0.113281 0.453125 -0.089592 197 196 196
-0.109375 0.453125 -0.091181 197 197 197
-0.105469 0.453125 -0.092761 198 198 197
-0.101562 0.453125 -0.094314 200 199 198
-0.097656 0.453125 -0.095905 192 188 188
-0.093750 0.453125 -0.097437 199 196 196
-0.089844 0.453125 -0.099024 202 200 200
-0.085938 0.453125 -0.100591 204 202 202
-0.082031 0.453125 -0.102027 206 204 204
-0.078125 0.453125 -0.103326 208 206 206
-0.074219 0.453125 -0.104540 210 208 207
-0.070312 0.453125 -0.105630 211 208 208
-0.066406 0.453125 -0.106564 210 208 208
-0.062500 0.453125 -0.107390 209 204 206
-0.058594 0.453125 -0.107958 207 200 204
-0.054688 0.453125 -0.108326 205 197 202
-0.050781 0.453125 -0.108587 206 198 202
-0.046875 0.453125 -0.108794 205 196 201
-0.042969 0.453125 -0.108873 205 194 198
-0.039062 0.453125 -0.108798 199 186 188
-0.035156 0.453125 -0.108692 195 179 182
-0.031250 0.453125 -0.108441 195 178 180
-0.027344 0.453125 -0.108154 192 173 174
-0.023438 0.453125 -0.107748 191 171 169
-0.019531 0.453125 -0.107299 190 170 167
-0.015625 0.453125 -0.106807 192 170 165
-0.011719 0.453125 -0.106218 192 168 162
-0.007812 0.453125 -0.105632 192 169 160
-0.003906 0.453125 -0.104957 192 169 157
0.000000 0.453125 -0.104254 194 168 154
0.003906 0.453125 -0.103497 195 169 154
0.007812 0.453125 -0.102726 197 171 153
0.011719 0.453125 -0.101886 198 169 145
0.015625 0.453125 -0.100928 202 176 153
0.019531 0.453125 -0.099900 202 176 157
0.023438 0.453125 -0.098703 201 176 159
0.027344 0.453125 -0.097443 199 176 166
0.031250 0.453125 -0.096034 198 176 171
0.035156 0.453125 -0.094279 197 177 176
0.039062 0.453125 -0.092238 200 184 188
0.042969 0.453125 -0.090059 210 199 203
0.046875 0.453125 -0.087663 215 209 211
0.050781 0.453125 -0.084983 211 207 208
0.054688 0.453125 -0.081802 201 197 198
0.058594 0.453125 -0.078267 194 188 190
0.062500 0.453125 -0.074641 194 186 189
0.066406 0.453125 -0.070677 204 194 198
0.070312 0.453125 -0.065909 212 199 205
0.074219 0.453125 -0.060074 202 185 194
0.078125 0.453125 -0.053272 193 166 179
0.082031 0.453125 -0.042478 190 168 165
-0.179688 0.449219 -0.036873 182 171 177
-0.175781 0.449219 -0.045623 179 171 174
-0.171875 0.449219 -0.051560 177 173 175
-0.167969 0.449219 -0.057849 127 119 140
-0.164062 0.449219 -0.062718 195 185 195
-0.160156 0.449219 -0.066003 203 194 199
-0.156250 0.449219 -0.069342 201 195 197
-0.152344 0.449219 -0.072607 197 193 195
-0.148438 0.449219 -0.075521 193 190 191
-0.144531 0.449219 -0.078413 190 188 189
-0.140625 0.449219 -0.080826 190 189 190
-0.136719 0.449219 -0.082833 191 190 190
-0.132812 0.449219 -0.084604 192 190 191
-0.128906 0.449219 -0.086269 193 191 192
-0.125000 0.449219 -0.087968 193 192 192
-0.121094 0.449219 -0.089603 194 193 193
-0.117188 0.449219 -0.091203 194 193 193
-0.113281 0.449219 -0.092712 193 193 193
-0.109375 0.449219 -0.094188 193 193 193
-0.105469 0.449219 -0.095621 196 195 195
-0.101562 0.449219 -0.097084 202 202 201
-0.097656 0.449219 -0.098576 202 201 201
-0.093750 0.449219 -0.100048 194 191 191
-0.089844 0.449219 -0.101564 204 203 203
-0.085938 0.449219 -0.103034 206 205 205
-0.082031 0.449219 -0.104404 209 207 207
-0.078125 0.449219 -0.105587 209 207 207
-0.074219 0.449219 -0.106725 210 209 208
-0.070312 0.449219 -0.107748 211 209 209
-0.066406 0.449219 -0.108604 211 208 208
-0.062500 0.449219 -0.109375 208 204 206
-0.058594 0.449219 -0.109872 205 198 203
-0.054688 0.449219 -0.110193 204 196 201
-0.050781 0.449219 -0.110414 205 197 202
-0.046875 0.449219 -0.110580 205 197 201
-0.042969 0.449219 -0.110605 206 196 200
-0.039062 0.449219 -0.110461 200 187 189
-0.035156 0.449219 -0.110297 197 180 182
-0.031250 0.449219 -0.109995 194 177 180
-0.027344 0.449219 -0.109683 191 172 174
-0.023438 0.449219 -0.109286 191 170 172
-0.019531 0.449219 -0.108855 191 169 167
-0.015625 0.449219 -0.108414 190 168 165
-0.011719 0.449219 -0.107895 190 168 163
-0.007812 0.449219 -0.107402 190 167 161
-0.003906 0.449219 -0.106819 190 167 159
0.000000 0.449219 -0.106231 191 167 156
0.003906 0.449219 -0.105613 193 168 154
0.007812 0.449219 -0.104959 195 168 149
0.011719 0.449219 -0.104266 201 177 161
0.015625 0.449219 -0.103429 205 182 171
0.019531 0.449219 -0.102547 200 177 170
0.023438 0.449219 -0.101511 193 170 166
0.027344 0.449219 -0.100413 189 169 172
0.031250 0.449219 -0.099200 193 178 183
0.035156 0.449219 -0.097602 202 191 195
0.039062 0.449219 -0.095716 212 204 208
0.042969 0.449219 -0.093651 219 214 217
0.046875 0.449219 -0.091399 220 216 218
0.050781 0.449219 -0.088875 214 211 212
0.054688 0.449219 -0.085863 205 203 203
0.058594 0.449219 -0.082468 202 198 199
0.062500 0.449219 -0.078853 203 199 200
0.066406 0.449219 -0.075018 209 203 204
0.070312 0.449219 -0.071271 213 205 208
0.074219 0.449219 -0.067136 214 204 208
0.078125 0.449219 -0.060875 221 208 214
0.082031 0.449219 -0.054796 227 211 219
0.085938 0.449219 -0.049340 214 194 202
0.089844 0.449219 -0.035217 77 69 66
-0.183594 0.445312 -0.040466 197 190 191
-0.179688 0.445312 -0.046326 182 177 176
-0.175781 0.445312 -0.052223 115 107 126
-0.171875 0.445312 -0.057353 139 130 140
-0.167969 0.445312 -0.062245 164 156 161
-0.164062 0.445312 -0.066336 177 171 174
-0.160156 0.445312 -0.069766 183 179 181
-0.156250 0.445312 -0.072994 189 186 187
-0.152344 0.445312 -0.076158 193 191 192
-0.148438 0.445312 -0.078770 195 194 194
-0.144531 0.445312 -0.081160 195 194 194
-0.140625 0.445312 -0.083463 196 195 195
-0.136719 0.445312 -0.085518 196 196 196
-0.132812 0.445312 -0.087314 197 196 196
-0.128906 0.445312 -0.088971 196 195 196
-0.125000 0.445312 -0.090602 195 194 194
-0.121094 0.445312 -0.092158 194 192 193
-0.117188 0.445312 -0.093706 192 191 191
-0.113281 0.445312 -0.095238 191 190 190
-0.109375 0.445312 -0.096735 192 191 191
-0.105469 0.445312 -0.098130 195 194 194
-0.101562 0.445312 -0.099541 200 200 200
-0.097656 0.445312 -0.100974 205 205 205
-0.093750 0.445312 -0.102401 209 208 208
-0.089844 0.445312 -0.103845 207 206 206
-0.085938 0.445312 -0.105204 207 206 206
-0.082031 0.445312 -0.106466 208 206 206
-0.078125 0.445312 -0.107537 210 209 209
-0.074219 0.445312 -0.108594 212 210 209
-0.070312 0.445312 -0.109541 212 210 209
-0.066406 0.445312 -0.110324 211 208 208
-0.062500 0.445312 -0.111041 207 202 205
-0.058594 0.445312 -0.111505 204 196 201
-0.054688 0.445312 -0.111799 203 195 200
-0.050781 0.445312 -0.111973 205 196 201
-0.046875 0.445312 -0.112086 206 197 202
-0.042969 0.445312 -0.112041 208 199 202
-0.039062 0.445312 -0.111820 200 188 190
-0.035156 0.445312 -0.111592 194 179 181
-0.031250 0.445312 -0.111238 193 176 179
-0.027344 0.445312 -0.110900 189 171 173
-0.023438 0.445312 -0.110511 189 169 170
-0.019531 0.445312 -0.110102 190 169 168
-0.015625 0.445312 -0.109714 191 170 167
-0.011719 0.445312 -0.109290 192 169 165
-0.007812 0.445312 -0.108929 190 169 163
-0.003906 0.445312 -0.108461 189 168 161
0.000000 0.445312 -0.107983 188 167 158
0.003906 0.445312 -0.107485 194 167 149
0.007812 0.445312 -0.106953 191 164 150
0.011719 0.445312 -0.106399 193 169 161
0.015625 0.445312 -0.105688 194 170 168
0.019531 0.445312 -0.104944 190 166 168
0.023438 0.445312 -0.104018 190 171 177
0.027344 0.445312 -0.103031 199 187 194
0.031250 0.445312 -0.101929 209 201 206
0.035156 0.445312 -0.100455 216 211 214
0.039062 0.445312 -0.098720 220 216 218
0.042969 0.445312 -0.096744 220 218 219
0.046875 0.445312 -0.094604 217 214 215
0.050781 0.445312 -0.092210 211 209 210
0.054688 0.445312 -0.089508 209 206 207
0.058594 0.445312 -0.086567 209 206 207
0.062500 0.445312 -0.083122 210 207 208
0.066406 0.445312 -0.079364 211 208 209
0.070312 0.445312 -0.075260 211 207 208
0.074219 0.445312 -0.071033 213 208 210
0.078125 0.445312 -0.066714 218 211 214
0.082031 0.445312 -0.061259 220 210 214
0.085938 0.445312 -0.054797 218 198 208
0.089844 0.445312 -0.048909 205 173 187
0.093750 0.445312 -0.041557 133 113 113
-0.187500 0.441406 -0.041040 185 180 181
-0.183594 0.441406 -0.047952 41 38 56
-0.179688 0.441406 -0.053163 169 157 170
-0.175781 0.441406 -0.057066 193 182 188
-0.171875 0.441406 -0.061211 184 177 180
-0.167969 0.441406 -0.065231 179 175 176
-0.164062 0.441406 -0.069083 180 177 178
-0.160156 0.441406 -0.072730 185 183 184
-0.156250 0.441406 -0.075985 191 191 191
-0.152344 0.441406 -0.078891 196 196 196
-0.148438 0.441406 -0.081411 199 199 199
-0.144531 0.441406 -0.083778 200 199 199
-0.140625 0.441406 -0.086115 199 199 199
-0.136719 0.441406 -0.088168 198 198 198
-0.132812 0.441406 -0.089956 197 197 197
-0.128906 0.441406 -0.091608 196 195 195
-0.125000 0.441406 -0.093177 194 193 193
-0.121094 0.441406 -0.094699 191 191 191
-0.117188 0.441406 -0.096190 189 189 189
-0.113281 0.441406 -0.097683 189 188 188
-0.109375 0.441406 -0.099154 190 190 190
-0.105469 0.441406 -0.100511 193 192 192
-0.101562 0.441406 -0.101869 197 197 197
-0.097656 0.441406 -0.103238 203 203 203
-0.093750 0.441406 -0.104601 209 208 208
-0.089844 0.441406 -0.105944 211 211 211
-0.085938 0.441406 -0.107200 208 207 207
-0.082031 0.441406 -0.108386 200 198 198
-0.078125 0.441406 -0.109416 211 210 209
-0.074219 0.441406 -0.110422 213 210 210
-0.070312 0.441406 -0.111285 213 211 210
-0.066406 0.441406 -0.112020 212 209 209
-0.062500 0.441406 -0.112661 207 202 205
-0.058594 0.441406 -0.113074 202 194 200
-0.054688 0.441406 -0.113325 202 193 199
-0.050781 0.441406 -0.113414 204 195 201
-0.046875 0.441406 -0.113436 207 198 203
-0.042969 0.441406 -0.113281 210 203 206
-0.039062 0.441406 -0.112964 202 190 193
-0.035156 0.441406 -0.112656 195 179 182
-0.031250 0.441406 -0.112243 192 175 178
-0.027344 0.441406 -0.111865 188 169 172
-0.023438 0.441406 -0.111471 189 169 171
-0.019531 0.441406 -0.111058 192 171 171
-0.015625 0.441406 -0.110686 192 171 168
-0.011719 0.441406 -0.110329 190 167 164
-0.007812 0.441406 -0.110067 190 169 165
-0.003906 0.441406 -0.109730 196 172 162
0.000000 0.441406 -0.109388 191 169 161
0.003906 0.441406 -0.109030 185 161 157
0.007812 0.441406 -0.108647 180 157 155
0.011719 0.441406 -0.108233 182 163 165
0.015625 0.441406 -0.107679 185 169 174
0.019531 0.441406 -0.107055 188 176 180
0.023438 0.441406 -0.106213 196 189 193
0.027344 0.441406 -0.105335 206 201 204
0.031250 0.441406 -0.104324 212 209 210
0.035156 0.441406 -0.102959 215 213 214
0.039062 0.441406 -0.101349 217 215 216
0.042969 0.441406 -0.099515 216 214 214
0.046875 0.441406 -0.097523 212 210 211
0.050781 0.441406 -0.095317 210 208 209
0.054688 0.441406 -0.092854 211 209 210
0.058594 0.441406 -0.090175 215 212 213
0.062500 0.441406 -0.087157 217 214 215
0.066406 0.441406 -0.083572 217 215 215
0.070312 0.441406 -0.079524 217 214 214
0.074219 0.441406 -0.075258 218 215 216
0.078125 0.441406 -0.070889 221 216 218
0.082031 0.441406 -0.066710 221 215 217
0.085938 0.441406 -0.062084 218 208 212
0.089844 0.441406 -0.056544 219 202 210
0.093750 0.441406 -0.050474 212 188 202
0.097656 0.441406 -0.043948 99 78 92
0.101562 0.441406 -0.036272 6 5 5
-0.195312 0.437500 -0.025441 189 186 188
-0.191406 0.437500 -0.038886 80 99 136
-0.187500 0.437500 -0.046729 143 140 161
-0.183594 0.437500 -0.052534 170 159 170
-0.179688 0.437500 -0.056796 182 171 177
-0.175781 0.437500 -0.061138 179 171 174
-0.171875 0.437500 -0.065304 177 173 175
-0.167969 0.437500 -0.069049 182 180 180
-0.164062 0.437500 -0.072382 188 187 188
-0.160156 0.437500 -0.075570 195 194 195
-0.156250 0.437500 -0.078623 200 200 200
-0.152344 0.437500 -0.081437 203 202 203
-0.148438 0.437500 -0.084060 204 203 204
-0.144531 0.437500 -0.086472 203 202 202
-0.140625 0.437500 -0.088711 201 200 200
-0.136719 0.437500 -0.090703 198 198 198
-0.132812 0.437500 -0.092463 196 195 196
-0.128906 0.437500 -0.094116 194 194 194
-0.125000 0.437500 -0.095677 193 192 192
-0.121094 0.437500 -0.097183 190 190 190
-0.117188 0.437500 -0.098636 188 188 188
-0.113281 0.437500 -0.100074 188 188 188
-0.109375 0.437500 -0.101495 189 189 189
-0.105469 0.437500 -0.102806 191 191 191
-0.101562 0.437500 -0.104116 194 194 194
-0.097656 0.437500 -0.105405 199 198 198
-0.093750 0.437500 -0.106680 204 204 204
-0.089844 0.437500 -0.107916 208 208 208
-0.085938 0.437500 -0.109086 211 210 210
-0.082031 0.437500 -0.110226 213 213 213
-0.078125 0.437500 -0.111196 215 213 214
-0.074219 0.437500 -0.112120 209 206 208
-0.070312 0.437500 -0.112879 214 212 211
-0.066406 0.437500 -0.113526 212 209 210
-0.062500 0.437500 -0.114061 205 200 204
-0.058594 0.437500 -0.114362 200 192 198
-0.054688 0.437500 -0.114523 198 187 194
-0.050781 0.437500 -0.114516 204 195 200
-0.046875 0.437500 -0.114453 209 201 205
-0.042969 0.437500 -0.114210 213 208 210
-0.039062 0.437500 -0.113806 206 196 198
-0.035156 0.437500 -0.113428 195 180 183
-0.031250 0.437500 -0.112967 187 169 172
-0.027344 0.437500 -0.112555 186 168 170
-0.023438 0.437500 -0.112170 187 168 170
-0.019531 0.437500 -0.111774 192 172 173
-0.015625 0.437500 -0.111462 194 174 172
-0.011719 0.437500 -0.111204 185 157 152
-0.007812 0.437500 -0.111052 184 158 156
-0.003906 0.437500 -0.110853 180 158 158
0.000000 0.437500 -0.110639 172 153 155
0.003906 0.437500 -0.110429 169 155 156
0.007812 0.437500 -0.110182 180 171 172
0.011719 0.437500 -0.109896 192 185 187
0.015625 0.437500 -0.109459 196 190 193
0.019531 0.437500 -0.108899 198 194 196
0.023438 0.437500 -0.108142 203 201 202
0.027344 0.437500 -0.107357 208 206 207
0.031250 0.437500 -0.106430 209 207 208
0.035156 0.437500 -0.105166 210 208 209
0.039062 0.437500 -0.103639 210 209 210
0.042969 0.437500 -0.101921 210 208 209
0.046875 0.437500 -0.100051 209 208 208
0.050781 0.437500 -0.097981 211 209 209
0.054688 0.437500 -0.095706 213 212 212
0.058594 0.437500 -0.093203 217 215 215
0.062500 0.437500 -0.090470 219 217 217
0.066406 0.437500 -0.087314 219 217 218
0.070312 0.437500 -0.083608 218 216 216
0.074219 0.437500 -0.079678 217 214 215
0.078125 0.437500 -0.075392 215 212 213
0.082031 0.437500 -0.071093 214 211 212
0.085938 0.437500 -0.066830 213 208 210
0.089844 0.437500 -0.062263 212 206 209
0.093750 0.437500 -0.057345 214 203 209
0.097656 0.437500 -0.051577 216 200 210
0.101562 0.437500 -0.044936 221 205 211
0.105469 0.437500 -0.038943 178 167 157
0.109375 0.437500 -0.029803 21 21 15
-0.203125 0.433594 -0.018656 196 191 196
-0.199219 0.433594 -0.031963 194 191 193
-0.195312 0.433594 -0.039723 104 103 136
-0.191406 0.433594 -0.046616 208 204 214
-0.187500 0.433594 -0.051737 211 205 209
-0.183594 0.433594 -0.055563 197 190 191
-0.179688 0.433594 -0.059972 182 177 176
-0.175781 0.433594 -0.064425 176 173 173
-0.171875 0.433594 -0.068264 180 178 177
-0.167969 0.433594 -0.071681 187 186 185
-0.164062 0.433594 -0.074974 194 194 194
-0.160156 0.433594 -0.078195 200 200 200
-0.156250 0.433594 -0.081264 204 204 204
-0.152344 0.433594 -0.084077 205 204 205
-0.148438 0.433594 -0.086662 204 203 204
-0.144531 0.433594 -0.089007 202 201 202
-0.140625 0.433594 -0.091164 199 198 199
-0.136719 0.433594 -0.093092 197 195 196
-0.132812 0.433594 -0.094805 194 193 194
-0.128906 0.433594 -0.096446 192 192 192
-0.125000 0.433594 -0.097992 191 191 191
-0.121094 0.433594 -0.099482 188 188 190
-0.117188 0.433594 -0.100925 188 186 189
-0.113281 0.433594 -0.102324 189 188 189
-0.109375 0.433594 -0.103705 190 189 190
-0.105469 0.433594 -0.104969 190 189 190
-0.101562 0.433594 -0.106213 191 189 191
-0.097656 0.433594 -0.107410 194 190 193
-0.093750 0.433594 -0.108574 197 194 197
-0.089844 0.433594 -0.109720 201 200 201
-0.085938 0.433594 -0.110824 206 205 204
-0.082031 0.433594 -0.111870 213 209 208
-0.078125 0.433594 -0.112746 214 210 208
-0.074219 0.433594 -0.113596 216 215 210
-0.070312 0.433594 -0.114269 215 213 210
-0.066406 0.433594 -0.114851 207 203 206
-0.062500 0.433594 -0.115314 199 193 198
-0.058594 0.433594 -0.115539 193 183 191
-0.054688 0.433594 -0.115648 185 170 180
-0.050781 0.433594 -0.115567 205 197 202
-0.046875 0.433594 -0.115431 212 206 209
-0.042969 0.433594 -0.115128 215 210 212
-0.039062 0.433594 -0.114674 212 206 207
-0.035156 0.433594 -0.114255 199 187 189
-0.031250 0.433594 -0.113764 172 150 154
-0.027344 0.433594 -0.113326 174 151 154
-0.023438 0.433594 -0.112949 178 154 157
-0.019531 0.433594 -0.112576 183 159 160
-0.015625 0.433594 -0.112312 190 169 169
-0.011719 0.433594 -0.112149 197 181 181
-0.007812 0.433594 -0.112092 202 192 190
-0.003906 0.433594 -0.112002 201 194 194
0.000000 0.433594 -0.111875 191 188 186
0.003906 0.433594 -0.111780 189 187 186
0.007812 0.433594 -0.111646 196 195 195
0.011719 0.433594 -0.111465 202 200 201
0.015625 0.433594 -0.111164 203 201 202
0.019531 0.433594 -0.110693 203 202 203
0.023438 0.433594 -0.110075 205 202 204
0.027344 0.433594 -0.109402 205 203 204
0.031250 0.433594 -0.108548 203 201 203
0.035156 0.433594 -0.107460 202 200 202
0.039062 0.433594 -0.106137 203 201 203
0.042969 0.433594 -0.104601 204 201 203
0.046875 0.433594 -0.102837 206 203 205
0.050781 0.433594 -0.100864 209 206 208
0.054688 0.433594 -0.098678 213 209 212
0.058594 0.433594 -0.096317 216 215 215
0.062500 0.433594 -0.093733 218 217 217
0.066406 0.433594 -0.090688 219 218 218
0.070312 0.433594 -0.087321 219 217 217
0.074219 0.433594 -0.083671 218 216 216
0.078125 0.433594 -0.079698 216 214 215
0.082031 0.433594 -0.075740 216 214 214
0.085938 0.433594 -0.071526 217 215 215
0.089844 0.433594 -0.067087 219 216 217
0.093750 0.433594 -0.062738 221 216 218
0.097656 0.433594 -0.058319 229 224 226
0.101562 0.433594 -0.053251 243 236 239
0.105469 0.433594 -0.047400 243 236 240
0.109375 0.433594 -0.041363 189 176 182
0.113281 0.433594 -0.034764 14 13 14
0.117188 0.433594 -0.022183 213 204 207
-0.207031 0.429688 -0.027020 210 203 210
-0.203125 0.429688 -0.033393 25 32 60
-0.199219 0.429688 -0.040047 103 100 122
-0.195312 0.429688 -0.046331 164 158 168
-0.191406 0.429688 -0.051190 180 175 178
-0.187500 0.429688 -0.055327 185 180 181
-0.183594 0.429688 -0.059464 184 180 181
-0.179688 0.429688 -0.063378 181 179 178
-0.175781 0.429688 -0.067095 183 181 181
-0.171875 0.429688 -0.070606 188 187 186
-0.167969 0.429688 -0.073907 194 193 194
-0.164062 0.429688 -0.077102 199 199 199
-0.160156 0.429688 -0.080209 203 202 202
-0.156250 0.429688 -0.083165 205 204 204
-0.152344 0.429688 -0.085907 204 204 204
-0.148438 0.429688 -0.088455 202 201 202
-0.144531 0.429688 -0.090830 200 198 199
-0.140625 0.429688 -0.093051 197 196 197
-0.136719 0.429688 -0.095037 195 194 195
-0.132812 0.429688 -0.096781 193 192 193
-0.128906 0.429688 -0.098453 188 191 192
-0.125000 0.429688 -0.100008 187 190 191
-0.121094 0.429688 -0.101499 188 189 190
-0.117188 0.429688 -0.102941 189 189 190
-0.113281 0.429688 -0.104321 190 189 191
-0.109375 0.429688 -0.105664 190 189 191
-0.105469 0.429688 -0.106872 190 188 190
-0.101562 0.429688 -0.108047 189 187 189
-0.097656 0.429688 -0.109171 192 191 192
-0.093750 0.429688 -0.110264 196 195 195
-0.089844 0.429688 -0.111349 200 199 200
-0.085938 0.429688 -0.112391 206 205 204
-0.082031 0.429688 -0.113339 213 213 209
-0.078125 0.429688 -0.114143 219 219 215
-0.074219 0.429688 -0.114932 222 221 217
-0.070312 0.429688 -0.115541 221 220 216
-0.066406 0.429688 -0.116076 218 217 218
-0.062500 0.429688 -0.116477 216 213 215
-0.058594 0.429688 -0.116648 215 211 213
-0.054688 0.429688 -0.116704 213 207 210
-0.050781 0.429688 -0.116553 211 205 208
-0.046875 0.429688 -0.116350 213 207 210
-0.042969 0.429688 -0.115986 214 208 210
-0.039062 0.429688 -0.115485 213 207 209
-0.035156 0.429688 -0.115019 212 205 207
-0.031250 0.429688 -0.114490 209 202 202
-0.027344 0.429688 -0.114037 208 200 200
-0.023438 0.429688 -0.113669 207 200 200
-0.019531 0.429688 -0.113304 209 202 201
-0.015625 0.429688 -0.113060 212 205 203
-0.011719 0.429688 -0.112964 215 210 207
-0.007812 0.429688 -0.112988 217 214 211
-0.003906 0.429688 -0.113008 215 212 213
0.000000 0.429688 -0.112992 208 206 206
0.003906 0.429688 -0.113011 204 202 203
0.007812 0.429688 -0.112955 204 203 204
0.011719 0.429688 -0.112823 205 204 204
0.015625 0.429688 -0.112594 204 203 204
0.019531 0.429688 -0.112218 203 202 203
0.023438 0.429688 -0.111742 203 202 203
0.027344 0.429688 -0.111128 202 201 202
0.031250 0.429688 -0.110361 202 200 202
0.035156 0.429688 -0.109462 203 201 202
0.039062 0.429688 -0.108313 204 202 204
0.042969 0.429688 -0.106962 206 204 206
0.046875 0.429688 -0.105366 209 206 208
0.050781 0.429688 -0.103579 212 209 211
0.054688 0.429688 -0.101542 215 212 214
0.058594 0.429688 -0.099271 217 216 216
0.062500 0.429688 -0.096747 219 218 218
0.066406 0.429688 -0.093789 220 219 219
0.070312 0.429688 -0.090642 220 219 219
0.074219 0.429688 -0.087176 220 218 219
0.078125 0.429688 -0.083424 220 218 218
0.082031 0.429688 -0.079704 219 217 218
0.085938 0.429688 -0.075717 219 217 218
0.089844 0.429688 -0.071771 219 217 218
0.093750 0.429688 -0.067691 218 216 217
0.097656 0.429688 -0.063244 219 216 217
0.101562 0.429688 -0.058699 223 219 221
0.105469 0.429688 -0.053919 225 217 221
0.109375 0.429688 -0.048505 215 200 208
0.113281 0.429688 -0.043280 170 147 158
0.117188 0.429688 -0.036981 65 53 58
0.121094 0.429688 -0.026393 222 217 218
-0.214844 0.425781 -0.013490 175 168 186
-0.210938 0.425781 -0.028343 192 185 192
-0.207031 0.425781 -0.035770 45 50 81
-0.203125 0.425781 -0.041543 163 160 177
-0.199219 0.425781 -0.046252 191 186 192
-0.195312 0.425781 -0.050439 189 186 188
-0.191406 0.425781 -0.054572 185 183 183
-0.187500 0.425781 -0.058721 185 184 183
-0.183594 0.425781 -0.062745 185 184 183
-0.179688 0.425781 -0.066334 185 184 183
-0.175781 0.425781 -0.069719 188 187 186
-0.171875 0.425781 -0.073120 193 192 192
-0.167969 0.425781 -0.076287 197 196 196
-0.164062 0.425781 -0.079330 199 199 199
-0.160156 0.425781 -0.082279 201 200 201
-0.156250 0.425781 -0.085082 201 201 201
-0.152344 0.425781 -0.087744 200 200 200
-0.148438 0.425781 -0.090249 199 197 198
-0.144531 0.425781 -0.092627 197 196 197
-0.140625 0.425781 -0.094862 196 195 196
-0.136719 0.425781 -0.096866 195 194 195
-0.132812 0.425781 -0.098620 194 192 193
-0.128906 0.425781 -0.100307 190 192 192
-0.125000 0.425781 -0.101868 188 191 191
-0.121094 0.425781 -0.103348 188 191 191
-0.117188 0.425781 -0.104783 189 191 191
-0.113281 0.425781 -0.106138 190 192 192
-0.109375 0.425781 -0.107437 191 192 192
-0.105469 0.425781 -0.108596 191 191 192
-0.101562 0.425781 -0.109714 193 192 193
-0.097656 0.425781 -0.110777 196 195 195
-0.093750 0.425781 -0.111799 198 197 197
-0.089844 0.425781 -0.112800 198 198 196
-0.085938 0.425781 -0.113748 200 201 199
-0.082031 0.425781 -0.114627 207 208 204
-0.078125 0.425781 -0.115361 214 215 211
-0.074219 0.425781 -0.116062 211 215 210
-0.070312 0.425781 -0.116598 206 210 204
-0.066406 0.425781 -0.117039 213 212 213
-0.062500 0.425781 -0.117355 210 209 210
-0.058594 0.425781 -0.117459 210 208 209
-0.054688 0.425781 -0.117432 211 209 210
-0.050781 0.425781 -0.117221 214 211 213
-0.046875 0.425781 -0.116976 218 217 217
-0.042969 0.425781 -0.116551 220 219 219
-0.039062 0.425781 -0.115994 220 219 219
-0.035156 0.425781 -0.115474 219 218 216
-0.031250 0.425781 -0.114911 217 215 214
-0.027344 0.425781 -0.114455 215 214 212
-0.023438 0.425781 -0.114119 214 214 212
-0.019531 0.425781 -0.113786 215 214 213
-0.015625 0.425781 -0.113571 216 215 214
-0.011719 0.425781 -0.113542 216 216 214
-0.007812 0.425781 -0.113620 215 216 214
-0.003906 0.425781 -0.113727 213 212 212
0.000000 0.425781 -0.113835 206 206 206
0.003906 0.425781 -0.113985 202 202 202
0.007812 0.425781 -0.114062 200 200 200
0.011719 0.425781 -0.114038 200 199 199
0.015625 0.425781 -0.113957 199 198 199
0.019531 0.425781 -0.113722 198 197 198
0.023438 0.425781 -0.113354 199 198 199
0.027344 0.425781 -0.112915 201 200 201
0.031250 0.425781 -0.112511 203 202 203
0.035156 0.425781 -0.111849 205 204 204
0.039062 0.425781 -0.110660 207 205 206
0.042969 0.425781 -0.109382 208 206 208
0.046875 0.425781 -0.107922 210 208 210
0.050781 0.425781 -0.106248 213 210 212
0.054688 0.425781 -0.104427 215 212 214
0.058594 0.425781 -0.102327 217 216 216
0.062500 0.425781 -0.099907 219 217 217
0.066406 0.425781 -0.097105 220 218 219
0.070312 0.425781 -0.093962 221 219 219
0.074219 0.425781 -0.090523 222 220 220
0.078125 0.425781 -0.086987 222 220 221
0.082031 0.425781 -0.083425 222 220 221
0.085938 0.425781 -0.079662 222 220 221
0.089844 0.425781 -0.075891 221 219 220
0.093750 0.425781 -0.072097 218 217 217
0.097656 0.425781 -0.068086 215 213 214
0.101562 0.425781 -0.063660 213 211 211
0.105469 0.425781 -0.059227 213 208 210
0.109375 0.425781 -0.054980 214 206 209
0.113281 0.425781 -0.050665 215 202 208
0.117188 0.425781 -0.045085 204 184 193
0.121094 0.425781 -0.039243 92 71 83
0.125000 0.425781 -0.030205 8 4 7
-0.214844 0.421875 -0.026708 191 187 191
-0.210938 0.421875 -0.034645 124 139 170
-0.207031 0.421875 -0.040718 185 179 195
-0.203125 0.421875 -0.045891 196 191 196
-0.199219 0.421875 -0.050101 194 191 193
-0.195312 0.421875 -0.054342 189 188 188
-0.191406 0.421875 -0.058354 185 185 185
-0.187500 0.421875 -0.062006 184 184 184
-0.183594 0.421875 -0.065560 187 186 186
-0.179688 0.421875 -0.069010 189 188 189
-0.175781 0.421875 -0.072304 192 191 192
-0.171875 0.421875 -0.075505 195 194 195
-0.167969 0.421875 -0.078539 197 196 196
-0.164062 0.421875 -0.081484 197 197 197
-0.160156 0.421875 -0.084327 197 197 197
-0.156250 0.421875 -0.087046 197 197 197
-0.152344 0.421875 -0.089640 196 196 196
-0.148438 0.421875 -0.092075 196 195 195
-0.144531 0.421875 -0.094384 196 195 195
-0.140625 0.421875 -0.096567 196 195 196
-0.136719 0.421875 -0.098529 196 194 195
-0.132812 0.421875 -0.100252 195 193 194
-0.128906 0.421875 -0.101922 189 193 193
-0.125000 0.421875 -0.103473 187 192 192
-0.121094 0.421875 -0.104943 188 192 192
-0.117188 0.421875 -0.106370 189 191 191
-0.113281 0.421875 -0.107708 186 189 188
-0.109375 0.421875 -0.108975 183 185 185
-0.105469 0.421875 -0.110101 182 183 183
-0.101562 0.421875 -0.111171 184 185 184
-0.097656 0.421875 -0.112175 185 186 184
-0.093750 0.421875 -0.113133 190 191 189
-0.089844 0.421875 -0.114066 194 194 193
-0.085938 0.421875 -0.114958 197 198 197
-0.082031 0.421875 -0.115792 202 204 201
-0.078125 0.421875 -0.116486 206 208 205
-0.074219 0.421875 -0.117127 205 209 206
-0.070312 0.421875 -0.117611 203 207 204
-0.066406 0.421875 -0.118001 204 204 202
-0.062500 0.421875 -0.118267 201 200 199
-0.058594 0.421875 -0.118329 201 201 199
-0.054688 0.421875 -0.118257 204 204 202
-0.050781 0.421875 -0.118014 209 208 207
-0.046875 0.421875 -0.117730 213 213 211
-0.042969 0.421875 -0.117250 216 215 213
-0.039062 0.421875 -0.116652 216 216 214
-0.035156 0.421875 -0.116106 216 215 214
-0.031250 0.421875 -0.115540 215 215 213
-0.027344 0.421875 -0.115079 214 214 212
-0.023438 0.421875 -0.114763 214 214 212
-0.019531 0.421875 -0.114438 215 214 213
-0.015625 0.421875 -0.114210 215 215 213
-0.011719 0.421875 -0.114224 214 215 213
-0.007812 0.421875 -0.114345 213 213 212
-0.003906 0.421875 -0.114515 210 210 210
0.000000 0.421875 -0.114695 205 205 205
0.003906 0.421875 -0.114917 202 202 202
0.007812 0.421875 -0.115089 200 200 200
0.011719 0.421875 -0.115193 198 198 198
0.015625 0.421875 -0.115290 197 197 197
0.019531 0.421875 -0.115147 196 196 196
0.023438 0.421875 -0.114859 197 197 197
0.027344 0.421875 -0.114599 200 200 200
0.031250 0.421875 -0.114339 203 203 203
0.035156 0.421875 -0.113799 206 205 206
0.039062 0.421875 -0.112696 209 207 208
0.042969 0.421875 -0.111589 210 209 210
0.046875 0.421875 -0.110314 211 210 211
0.050781 0.421875 -0.108635 213 212 213
0.054688 0.421875 -0.106867 215 213 214
0.058594 0.421875 -0.104885 216 214 215
0.062500 0.421875 -0.102571 218 215 216
0.066406 0.421875 -0.099947 220 217 217
0.070312 0.421875 -0.096899 222 219 219
0.074219 0.421875 -0.093663 223 221 221
0.078125 0.421875 -0.090379 224 222 223
0.082031 0.421875 -0.086984 224 222 223
0.085938 0.421875 -0.083451 223 221 222
0.089844 0.421875 -0.079929 221 220 220
0.093750 0.421875 -0.076362 216 215 216
0.097656 0.421875 -0.072597 211 210 210
0.101562 0.421875 -0.068486 205 204 204
0.105469 0.421875 -0.064323 203 201 202
0.109375 0.421875 -0.060151 204 201 202
0.113281 0.421875 -0.055963 210 205 206
0.117188 0.421875 -0.051347 213 204 207
0.121094 0.421875 -0.046605 197 181 188
0.125000 0.421875 -0.040760 178 146 159
0.128906 0.421875 -0.031513 116 77 83
-0.218750 0.417969 -0.025162 202 200 204
-0.214844 0.417969 -0.033141 79 83 131
-0.210938 0.417969 -0.039280 206 199 214
-0.207031 0.417969 -0.044534 210 203 210
-0.203125 0.417969 -0.049241 204 200 202
-0.199219 0.417969 -0.053499 198 197 197
-0.195312 0.417969 -0.057573 192 191 192
-0.191406 0.417969 -0.061364 187 186 186
-0.187500 0.417969 -0.064989 184 184 184
-0.183594 0.417969 -0.068361 187 186 187
-0.179688 0.417969 -0.071620 190 190 190
-0.175781 0.417969 -0.074784 193 192 193
-0.171875 0.417969 -0.077813 195 194 195
-0.167969 0.417969 -0.080719 195 194 195
-0.164062 0.417969 -0.083533 195 194 194
-0.160156 0.417969 -0.086236 194 194 194
-0.156250 0.417969 -0.088838 195 194 194
