ply
    format ascii 1.0
    element vertex 59756
    property float x
    property float y
    property float z
    property uchar red
    property uchar green
    property uchar blue
    end_header
-0.011719 -0.367188 -0.131594 150 153 153
-0.007812 -0.367188 -0.130965 145 149 146
-0.003906 -0.367188 -0.130044 144 148 144
0.000000 -0.367188 -0.129139 128 132 130
0.003906 -0.367188 -0.128269 97 103 107
0.007812 -0.367188 -0.127353 113 119 124
0.011719 -0.367188 -0.126175 176 175 178
0.015625 -0.367188 -0.124562 206 207 210
0.019531 -0.367188 -0.122991 214 217 221
0.023438 -0.367188 -0.120832 221 224 227
0.027344 -0.367188 -0.118199 231 232 235
0.031250 -0.367188 -0.115961 234 236 238
0.035156 -0.367188 -0.113282 231 233 237
0.039062 -0.367188 -0.110557 227 230 236
0.042969 -0.367188 -0.106433 221 224 232
0.046875 -0.367188 -0.101115 212 215 226
0.050781 -0.367188 -0.094928 211 214 225
0.054688 -0.367188 -0.087359 209 212 223
0.058594 -0.367188 -0.076982 207 209 221
0.062500 -0.367188 -0.065436 219 220 228
0.066406 -0.367188 -0.058162 225 226 232
0.070312 -0.367188 -0.056936 228 230 235
0.074219 -0.367188 -0.056779 233 234 238
0.078125 -0.367188 -0.057168 232 234 238
0.082031 -0.367188 -0.057846 232 235 238
0.085938 -0.367188 -0.058941 231 234 238
0.089844 -0.367188 -0.059940 228 232 237
0.093750 -0.367188 -0.060860 229 233 238
0.097656 -0.367188 -0.061552 232 235 240
0.101562 -0.367188 -0.062156 235 238 241
0.105469 -0.367188 -0.062684 237 239 242
0.109375 -0.367188 -0.063178 237 239 242
0.113281 -0.367188 -0.063538 236 239 242
0.117188 -0.367188 -0.063761 237 238 241
0.121094 -0.367188 -0.063905 236 238 241
0.125000 -0.367188 -0.063915 237 238 241
0.128906 -0.367188 -0.063407 241 241 244
0.132812 -0.367188 -0.062410 242 243 244
0.136719 -0.367188 -0.061329 242 243 245
0.140625 -0.367188 -0.060113 241 243 245
0.144531 -0.367188 -0.058673 224 229 236
0.148438 -0.367188 -0.056905 218 225 232
0.152344 -0.367188 -0.055069 236 237 241
0.156250 -0.367188 -0.052864 238 238 242
0.160156 -0.367188 -0.049896 241 240 243
0.164062 -0.367188 -0.046066 242 241 243
0.167969 -0.367188 -0.041969 242 240 243
0.171875 -0.367188 -0.037559 243 241 244
0.175781 -0.367188 -0.032235 244 242 244
0.179688 -0.367188 -0.025212 245 243 245
0.183594 -0.367188 -0.016952 240 236 241
0.187500 -0.367188 -0.005482 243 239 241
0.191406 -0.367188 0.012884 232 229 231
-0.144531 -0.371094 -0.008739 215 174 114
-0.140625 -0.371094 -0.043368 207 150 104
-0.136719 -0.371094 -0.057671 221 166 127
-0.132812 -0.371094 -0.067247 229 174 135
-0.128906 -0.371094 -0.075347 230 173 134
-0.125000 -0.371094 -0.081774 232 173 134
-0.121094 -0.371094 -0.087189 236 177 139
-0.117188 -0.371094 -0.092463 239 183 147
-0.113281 -0.371094 -0.097284 242 192 156
-0.109375 -0.371094 -0.102265 241 192 155
-0.105469 -0.371094 -0.106409 239 192 157
-0.101562 -0.371094 -0.109429 233 193 164
-0.097656 -0.371094 -0.112932 209 184 172
-0.093750 -0.371094 -0.115873 194 186 190
-0.089844 -0.371094 -0.118557 193 195 202
-0.085938 -0.371094 -0.120902 194 198 205
-0.082031 -0.371094 -0.122958 194 196 206
-0.078125 -0.371094 -0.124799 197 200 211
-0.074219 -0.371094 -0.126300 202 206 216
-0.070312 -0.371094 -0.127528 206 210 220
-0.066406 -0.371094 -0.128475 209 214 223
-0.062500 -0.371094 -0.129239 211 215 225
-0.058594 -0.371094 -0.129855 212 217 226
-0.054688 -0.371094 -0.130312 211 216 225
-0.050781 -0.371094 -0.130775 209 215 224
-0.046875 -0.371094 -0.131177 208 214 223
-0.042969 -0.371094 -0.131362 206 211 221
-0.039062 -0.371094 -0.131335 205 209 218
-0.035156 -0.371094 -0.131344 203 206 215
-0.031250 -0.371094 -0.131256 200 203 211
-0.027344 -0.371094 -0.131011 195 198 206
-0.023438 -0.371094 -0.130602 186 190 197
-0.019531 -0.371094 -0.130120 175 180 186
-0.015625 -0.371094 -0.129529 162 167 172
-0.011719 -0.371094 -0.128708 147 153 156
-0.007812 -0.371094 -0.127883 143 150 152
-0.003906 -0.371094 -0.126772 153 158 157
0.000000 -0.371094 -0.125825 152 153 149
0.003906 -0.371094 -0.124602 120 126 122
0.007812 -0.371094 -0.123358 104 111 111
0.011719 -0.371094 -0.122057 139 137 140
0.015625 -0.371094 -0.120493 187 183 186
0.019531 -0.371094 -0.119172 200 202 205
0.023438 -0.371094 -0.116989 194 198 206
0.027344 -0.371094 -0.114090 204 206 214
0.031250 -0.371094 -0.111830 215 216 223
0.035156 -0.371094 -0.109025 217 219 226
0.039062 -0.371094 -0.105778 221 223 230
0.042969 -0.371094 -0.100003 226 228 233
0.046875 -0.371094 -0.094791 227 229 234
0.050781 -0.371094 -0.085654 229 231 235
0.054688 -0.371094 -0.071017 223 225 230
0.058594 -0.371094 -0.056334 206 209 219
0.062500 -0.371094 -0.049686 202 204 215
0.066406 -0.371094 -0.048709 206 207 218
0.070312 -0.371094 -0.049896 212 213 223
0.074219 -0.371094 -0.050910 218 220 228
0.078125 -0.371094 -0.051805 217 220 228
0.082031 -0.371094 -0.053032 220 223 230
0.085938 -0.371094 -0.054388 223 227 233
0.089844 -0.371094 -0.055591 225 229 235
0.093750 -0.371094 -0.056755 229 233 238
0.097656 -0.371094 -0.057649 231 235 239
0.101562 -0.371094 -0.058381 233 236 240
0.105469 -0.371094 -0.059047 234 236 240
0.109375 -0.371094 -0.059691 235 237 241
0.113281 -0.371094 -0.060167 235 238 241
0.117188 -0.371094 -0.060475 236 237 241
0.121094 -0.371094 -0.060716 237 238 241
0.125000 -0.371094 -0.060820 239 240 242
0.128906 -0.371094 -0.060400 243 243 245
0.132812 -0.371094 -0.059480 243 244 245
0.136719 -0.371094 -0.058466 242 243 245
0.140625 -0.371094 -0.057292 240 242 244
0.144531 -0.371094 -0.055886 221 227 234
0.148438 -0.371094 -0.054156 215 222 231
0.152344 -0.371094 -0.052340 236 238 241
0.156250 -0.371094 -0.050176 239 239 242
0.160156 -0.371094 -0.047271 242 241 243
0.164062 -0.371094 -0.043502 243 242 244
0.167969 -0.371094 -0.039470 242 241 244
0.171875 -0.371094 -0.035123 244 242 245
0.175781 -0.371094 -0.029855 245 243 246
0.179688 -0.371094 -0.022956 246 244 246
0.183594 -0.371094 -0.014495 242 239 242
0.187500 -0.371094 -0.003324 239 234 237
0.191406 -0.371094 0.013265 246 244 246
-0.144531 -0.375000 -0.028525 201 156 108
-0.140625 -0.375000 -0.046804 208 150 107
-0.136719 -0.375000 -0.060936 224 170 131
-0.132812 -0.375000 -0.069154 231 179 140
-0.128906 -0.375000 -0.076734 233 179 140
-0.125000 -0.375000 -0.082920 233 176 139
-0.121094 -0.375000 -0.088218 236 179 142
-0.117188 -0.375000 -0.093235 237 180 144
-0.113281 -0.375000 -0.097876 242 190 155
-0.109375 -0.375000 -0.102485 243 197 163
-0.105469 -0.375000 -0.106641 231 168 135
-0.101562 -0.375000 -0.109703 213 154 126
-0.097656 -0.375000 -0.112773 203 177 164
-0.093750 -0.375000 -0.115599 193 187 189
-0.089844 -0.375000 -0.118152 191 194 198
-0.085938 -0.375000 -0.120363 194 198 202
-0.082031 -0.375000 -0.122249 193 195 203
-0.078125 -0.375000 -0.123974 196 198 208
-0.074219 -0.375000 -0.125360 197 201 212
-0.070312 -0.375000 -0.126470 200 204 215
-0.066406 -0.375000 -0.127320 206 210 220
-0.062500 -0.375000 -0.127985 209 213 223
-0.058594 -0.375000 -0.128500 212 216 225
-0.054688 -0.375000 -0.128849 213 218 227
-0.050781 -0.375000 -0.129205 215 220 228
-0.046875 -0.375000 -0.129489 215 220 227
-0.042969 -0.375000 -0.129549 210 215 224
-0.039062 -0.375000 -0.129402 207 211 220
-0.035156 -0.375000 -0.129294 206 209 217
-0.031250 -0.375000 -0.129108 204 208 215
-0.027344 -0.375000 -0.128758 201 204 211
-0.023438 -0.375000 -0.128217 198 201 207
-0.019531 -0.375000 -0.127598 194 197 202
-0.015625 -0.375000 -0.126862 182 186 190
-0.011719 -0.375000 -0.125893 169 174 178
-0.007812 -0.375000 -0.124901 163 169 172
-0.003906 -0.375000 -0.123711 158 163 163
0.000000 -0.375000 -0.122815 144 146 145
0.003906 -0.375000 -0.121408 126 130 126
0.007812 -0.375000 -0.119734 111 116 113
0.011719 -0.375000 -0.118481 110 110 113
0.015625 -0.375000 -0.116935 159 158 161
0.019531 -0.375000 -0.115214 205 205 207
0.023438 -0.375000 -0.113106 203 205 210
0.027344 -0.375000 -0.110302 192 195 204
0.031250 -0.375000 -0.108408 189 191 203
0.035156 -0.375000 -0.104998 186 188 201
0.039062 -0.375000 -0.098701 192 195 207
0.042969 -0.375000 -0.091641 205 207 216
0.046875 -0.375000 -0.084276 218 220 226
0.050781 -0.375000 -0.065362 228 229 233
0.054688 -0.375000 -0.047342 227 228 232
0.058594 -0.375000 -0.042364 215 218 224
0.062500 -0.375000 -0.043026 211 214 221
0.066406 -0.375000 -0.043654 211 214 222
0.070312 -0.375000 -0.045326 214 216 224
0.074219 -0.375000 -0.046824 221 222 229
0.078125 -0.375000 -0.048012 222 224 231
0.082031 -0.375000 -0.049367 224 227 233
0.085938 -0.375000 -0.050870 227 230 235
0.089844 -0.375000 -0.052248 228 231 236
0.093750 -0.375000 -0.053451 229 232 237
0.097656 -0.375000 -0.054418 228 232 237
0.101562 -0.375000 -0.055201 229 233 237
0.105469 -0.375000 -0.055904 231 234 238
0.109375 -0.375000 -0.056608 235 237 240
0.113281 -0.375000 -0.057142 236 239 241
0.117188 -0.375000 -0.057486 237 239 242
0.121094 -0.375000 -0.057760 239 240 243
0.125000 -0.375000 -0.057910 241 241 243
0.128906 -0.375000 -0.057546 243 243 245
0.132812 -0.375000 -0.056672 244 244 245
0.136719 -0.375000 -0.055694 241 242 244
0.140625 -0.375000 -0.054546 239 241 244
0.144531 -0.375000 -0.053154 224 229 236
0.148438 -0.375000 -0.051447 220 226 233
0.152344 -0.375000 -0.049634 237 239 242
0.156250 -0.375000 -0.047495 238 238 242
0.160156 -0.375000 -0.044643 241 240 243
0.164062 -0.375000 -0.040916 243 241 244
0.167969 -0.375000 -0.036946 242 240 244
0.171875 -0.375000 -0.032704 244 241 244
0.175781 -0.375000 -0.027365 246 244 246
0.179688 -0.375000 -0.020423 247 245 247
0.183594 -0.375000 -0.012208 241 239 241
0.187500 -0.375000 -0.000931 224 221 224
0.191406 -0.375000 0.014752 247 245 247
-0.144531 -0.378906 -0.040347 182 130 94
-0.140625 -0.378906 -0.051050 216 159 118
-0.136719 -0.378906 -0.062349 229 178 138
-0.132812 -0.378906 -0.071066 235 184 146
-0.128906 -0.378906 -0.078009 237 186 149
-0.125000 -0.378906 -0.083998 236 183 146
-0.121094 -0.378906 -0.089146 237 183 146
-0.117188 -0.378906 -0.093834 238 182 146
-0.113281 -0.378906 -0.098271 241 189 154
-0.109375 -0.378906 -0.102620 243 202 169
-0.105469 -0.378906 -0.106610 237 186 153
-0.101562 -0.378906 -0.109717 237 200 171
-0.097656 -0.378906 -0.112640 239 224 210
-0.093750 -0.378906 -0.115279 218 213 209
-0.089844 -0.378906 -0.117680 197 203 203
-0.085938 -0.378906 -0.119781 198 202 205
-0.082031 -0.378906 -0.121544 190 192 201
-0.078125 -0.378906 -0.123111 193 195 205
-0.074219 -0.378906 -0.124360 195 198 209
-0.070312 -0.378906 -0.125367 197 201 212
-0.066406 -0.378906 -0.126125 202 206 217
-0.062500 -0.378906 -0.126713 204 208 219
-0.058594 -0.378906 -0.127145 206 211 221
-0.054688 -0.378906 -0.127380 208 214 223
-0.050781 -0.378906 -0.127625 212 218 226
-0.046875 -0.378906 -0.127797 213 219 226
-0.042969 -0.378906 -0.127740 210 215 223
-0.039062 -0.378906 -0.127472 206 211 219
-0.035156 -0.378906 -0.127242 204 208 216
-0.031250 -0.378906 -0.126963 203 207 214
-0.027344 -0.378906 -0.126495 199 203 210
-0.023438 -0.378906 -0.125792 195 199 206
-0.019531 -0.378906 -0.125030 190 194 201
-0.015625 -0.378906 -0.124191 180 185 191
-0.011719 -0.378906 -0.123067 174 179 184
-0.007812 -0.378906 -0.121915 168 172 176
-0.003906 -0.378906 -0.120641 147 152 155
0.000000 -0.378906 -0.119471 123 129 132
0.003906 -0.378906 -0.117883 122 127 127
0.007812 -0.378906 -0.116480 128 131 128
0.011719 -0.378906 -0.114725 102 105 107
0.015625 -0.378906 -0.113219 123 128 133
0.019531 -0.378906 -0.111289 199 199 202
0.023438 -0.378906 -0.109266 216 216 219
0.027344 -0.378906 -0.106063 213 214 217
0.031250 -0.378906 -0.104057 210 211 216
0.035156 -0.378906 -0.099519 203 204 210
0.039062 -0.378906 -0.093261 199 201 209
0.042969 -0.378906 -0.083717 199 200 209
0.046875 -0.378906 -0.055539 204 206 213
0.050781 -0.378906 -0.037142 214 216 222
0.054688 -0.378906 -0.038089 217 219 225
0.058594 -0.378906 -0.038958 214 217 223
0.062500 -0.378906 -0.040033 222 223 228
0.066406 -0.378906 -0.041197 225 226 231
0.070312 -0.378906 -0.042742 224 226 231
0.074219 -0.378906 -0.044299 228 229 234
0.078125 -0.378906 -0.045623 228 230 234
0.082031 -0.378906 -0.046971 227 228 233
0.085938 -0.378906 -0.048348 226 228 233
0.089844 -0.378906 -0.049723 225 227 232
0.093750 -0.378906 -0.050911 223 226 231
0.097656 -0.378906 -0.051784 222 226 232
0.101562 -0.378906 -0.052506 223 227 233
0.105469 -0.378906 -0.053179 224 228 234
0.109375 -0.378906 -0.053849 228 232 236
0.113281 -0.378906 -0.054383 232 235 239
0.117188 -0.378906 -0.054759 236 237 241
0.121094 -0.378906 -0.055048 239 240 242
0.125000 -0.378906 -0.055210 240 240 243
0.128906 -0.378906 -0.054871 242 242 244
0.132812 -0.378906 -0.054024 243 243 244
0.136719 -0.378906 -0.053058 239 241 243
0.140625 -0.378906 -0.051922 236 239 242
0.144531 -0.378906 -0.050531 221 226 234
0.148438 -0.378906 -0.048828 218 224 232
0.152344 -0.378906 -0.047018 236 238 241
0.156250 -0.378906 -0.044921 237 238 241
0.160156 -0.378906 -0.042101 242 240 243
0.164062 -0.378906 -0.038391 244 242 244
0.167969 -0.378906 -0.034498 243 241 244
0.171875 -0.378906 -0.030242 244 241 244
0.175781 -0.378906 -0.024846 246 243 245
0.179688 -0.378906 -0.018405 247 244 246
0.183594 -0.378906 -0.009880 242 240 242
0.187500 -0.378906 0.002943 234 233 233
0.191406 -0.378906 0.013814 247 244 246
-0.144531 -0.382812 -0.045662 184 135 101
-0.140625 -0.382812 -0.056124 220 164 125
-0.136719 -0.382812 -0.064220 232 180 140
-0.132812 -0.382812 -0.073002 237 187 149
-0.128906 -0.382812 -0.079164 239 191 154
-0.125000 -0.382812 -0.084943 238 187 150
-0.121094 -0.382812 -0.089962 237 184 147
-0.117188 -0.382812 -0.094407 237 180 145
-0.113281 -0.382812 -0.098637 236 178 145
-0.109375 -0.382812 -0.102775 240 192 160
-0.105469 -0.382812 -0.106522 235 183 149
-0.101562 -0.382812 -0.109843 230 186 152
-0.097656 -0.382812 -0.112473 228 202 180
-0.093750 -0.382812 -0.114991 204 195 187
-0.089844 -0.382812 -0.117156 197 203 201
-0.085938 -0.382812 -0.119155 201 205 207
-0.082031 -0.382812 -0.120824 191 192 201
-0.078125 -0.382812 -0.122229 196 197 206
-0.074219 -0.382812 -0.123309 199 202 211
-0.070312 -0.382812 -0.124215 200 204 214
-0.066406 -0.382812 -0.124894 205 208 218
-0.062500 -0.382812 -0.125401 205 209 219
-0.058594 -0.382812 -0.125751 206 210 220
-0.054688 -0.382812 -0.125888 207 213 222
-0.050781 -0.382812 -0.126036 210 215 224
-0.046875 -0.382812 -0.126106 209 215 224
-0.042969 -0.382812 -0.125954 206 212 221
-0.039062 -0.382812 -0.125586 203 208 217
-0.035156 -0.382812 -0.125254 201 206 214
-0.031250 -0.382812 -0.124886 201 206 213
-0.027344 -0.382812 -0.124293 200 203 211
-0.023438 -0.382812 -0.123445 195 199 206
-0.019531 -0.382812 -0.122564 188 193 200
-0.015625 -0.382812 -0.121609 179 185 191
-0.011719 -0.382812 -0.120352 175 180 185
-0.007812 -0.382812 -0.119058 160 165 170
-0.003906 -0.382812 -0.117788 136 142 148
0.000000 -0.382812 -0.116641 124 130 135
0.003906 -0.382812 -0.114761 132 137 138
0.007812 -0.382812 -0.113233 149 150 147
0.011719 -0.382812 -0.111403 115 117 118
0.015625 -0.382812 -0.109913 111 116 119
0.019531 -0.382812 -0.107394 187 188 190
0.023438 -0.382812 -0.105567 212 212 215
0.027344 -0.382812 -0.102286 213 214 217
0.031250 -0.382812 -0.099262 215 216 219
0.035156 -0.382812 -0.092299 209 211 215
0.039062 -0.382812 -0.087085 210 211 215
0.042969 -0.382812 -0.058821 212 213 218
0.046875 -0.382812 -0.028777 211 213 219
0.050781 -0.382812 -0.029944 214 217 222
0.054688 -0.382812 -0.034194 213 215 222
0.058594 -0.382812 -0.035401 207 210 218
0.062500 -0.382812 -0.037402 216 217 224
0.066406 -0.382812 -0.039136 221 222 228
0.070312 -0.382812 -0.040728 219 221 227
0.074219 -0.382812 -0.042351 221 222 228
0.078125 -0.382812 -0.043783 218 219 226
0.082031 -0.382812 -0.045171 213 215 222
0.085938 -0.382812 -0.046460 213 214 222
0.089844 -0.382812 -0.047708 211 214 221
0.093750 -0.382812 -0.048896 209 213 221
0.097656 -0.382812 -0.049708 212 216 224
0.101562 -0.382812 -0.050312 218 222 228
0.105469 -0.382812 -0.050928 221 226 231
0.109375 -0.382812 -0.051545 228 231 236
0.113281 -0.382812 -0.052022 234 236 239
0.117188 -0.382812 -0.052362 237 238 241
0.121094 -0.382812 -0.052644 239 239 242
0.125000 -0.382812 -0.052789 239 239 241
0.128906 -0.382812 -0.052433 240 240 242
0.132812 -0.382812 -0.051579 240 241 242
0.136719 -0.382812 -0.050597 236 238 241
0.140625 -0.382812 -0.049444 231 235 239
0.144531 -0.382812 -0.048049 211 218 228
0.148438 -0.382812 -0.046348 211 217 227
0.152344 -0.382812 -0.044531 235 236 240
0.156250 -0.382812 -0.042479 238 238 241
0.160156 -0.382812 -0.039708 243 241 243
0.164062 -0.382812 -0.036001 245 243 245
0.167969 -0.382812 -0.032177 245 243 245
0.171875 -0.382812 -0.027973 245 243 245
0.175781 -0.382812 -0.022466 247 243 246
0.179688 -0.382812 -0.015911 247 244 246
0.183594 -0.382812 -0.006828 243 242 242
0.187500 -0.382812 0.005427 236 235 233
0.191406 -0.382812 0.002574 247 244 246
-0.144531 -0.386719 -0.050216 179 129 104
-0.140625 -0.386719 -0.059569 220 163 126
-0.136719 -0.386719 -0.066165 233 181 141
-0.132812 -0.386719 -0.074541 237 188 150
-0.128906 -0.386719 -0.080328 239 193 157
-0.125000 -0.386719 -0.085822 237 187 150
-0.121094 -0.386719 -0.090604 236 183 146
-0.117188 -0.386719 -0.094887 237 182 147
-0.113281 -0.386719 -0.098947 235 175 141
-0.109375 -0.386719 -0.102872 239 189 155
-0.105469 -0.386719 -0.106341 235 187 151
-0.101562 -0.386719 -0.109762 216 169 131
-0.097656 -0.386719 -0.112225 196 164 137
-0.093750 -0.386719 -0.114590 192 180 170
-0.089844 -0.386719 -0.116674 210 212 208
-0.085938 -0.386719 -0.118588 206 209 210
-0.082031 -0.386719 -0.120051 186 187 197
-0.078125 -0.386719 -0.121337 192 194 203
-0.074219 -0.386719 -0.122279 198 202 210
-0.070312 -0.386719 -0.123039 203 207 215
-0.066406 -0.386719 -0.123637 208 212 220
-0.062500 -0.386719 -0.124079 206 210 220
-0.058594 -0.386719 -0.124353 204 208 219
-0.054688 -0.386719 -0.124406 208 212 222
-0.050781 -0.386719 -0.124454 212 216 225
-0.046875 -0.386719 -0.124406 210 215 224
-0.042969 -0.386719 -0.124156 208 213 222
-0.039062 -0.386719 -0.123696 207 212 219
-0.035156 -0.386719 -0.123266 204 209 217
-0.031250 -0.386719 -0.122828 204 208 215
-0.027344 -0.386719 -0.122127 203 206 213
-0.023438 -0.386719 -0.121146 197 201 207
-0.019531 -0.386719 -0.120153 190 194 201
-0.015625 -0.386719 -0.119063 185 189 195
-0.011719 -0.386719 -0.117700 175 180 186
-0.007812 -0.386719 -0.116361 153 159 165
-0.003906 -0.386719 -0.115076 137 143 149
0.000000 -0.386719 -0.113811 136 141 145
0.003906 -0.386719 -0.111685 136 142 142
0.007812 -0.386719 -0.109926 148 150 147
0.011719 -0.386719 -0.108012 115 117 117
0.015625 -0.386719 -0.106519 105 109 110
0.019531 -0.386719 -0.103448 184 185 185
0.023438 -0.386719 -0.101589 213 213 215
0.027344 -0.386719 -0.097672 214 215 218
0.031250 -0.386719 -0.093453 218 219 222
0.035156 -0.386719 -0.087620 208 210 215
0.039062 -0.386719 -0.071453 204 206 212
0.042969 -0.386719 -0.025733 209 211 217
0.046875 -0.386719 -0.026455 211 213 220
0.050781 -0.386719 -0.029988 217 219 224
0.054688 -0.386719 -0.032467 217 219 225
0.058594 -0.386719 -0.034196 209 211 218
0.062500 -0.386719 -0.036037 213 215 221
0.066406 -0.386719 -0.037926 219 221 226
0.070312 -0.386719 -0.039596 221 222 227
0.074219 -0.386719 -0.041221 222 224 228
0.078125 -0.386719 -0.042734 218 219 225
0.082031 -0.386719 -0.044096 211 212 219
0.085938 -0.386719 -0.045255 207 208 216
0.089844 -0.386719 -0.046359 202 205 213
0.093750 -0.386719 -0.047438 201 205 214
0.097656 -0.386719 -0.048167 207 212 220
0.101562 -0.386719 -0.048664 219 223 228
0.105469 -0.386719 -0.049151 226 230 234
0.109375 -0.386719 -0.049668 232 234 237
0.113281 -0.386719 -0.050031 233 235 238
0.117188 -0.386719 -0.050259 231 232 237
0.121094 -0.386719 -0.050498 230 231 235
0.125000 -0.386719 -0.050631 230 231 235
0.128906 -0.386719 -0.050225 235 235 239
0.132812 -0.386719 -0.049343 238 238 240
0.136719 -0.386719 -0.048340 236 238 240
0.140625 -0.386719 -0.047146 233 236 240
0.144531 -0.386719 -0.045741 214 221 230
0.148438 -0.386719 -0.044054 216 221 229
0.152344 -0.386719 -0.042251 237 238 241
0.156250 -0.386719 -0.040249 239 239 242
0.160156 -0.386719 -0.037543 242 241 243
0.164062 -0.386719 -0.033889 244 242 244
0.167969 -0.386719 -0.030100 244 242 244
0.171875 -0.386719 -0.025946 245 242 244
0.175781 -0.386719 -0.020481 245 242 244
0.179688 -0.386719 -0.013267 246 243 244
0.183594 -0.386719 -0.004294 246 246 243
0.187500 -0.386719 0.010389 242 242 239
-0.148438 -0.390625 -0.024090 235 184 144
-0.144531 -0.390625 -0.053488 202 157 128
-0.140625 -0.390625 -0.061640 223 169 132
-0.136719 -0.390625 -0.067747 235 184 144
-0.132812 -0.390625 -0.075640 237 189 151
-0.128906 -0.390625 -0.081438 239 194 158
-0.125000 -0.390625 -0.086679 237 186 151
-0.121094 -0.390625 -0.091260 236 182 147
-0.117188 -0.390625 -0.095316 236 181 146
-0.113281 -0.390625 -0.099296 234 174 139
-0.109375 -0.390625 -0.103131 236 183 147
-0.105469 -0.390625 -0.106248 235 186 149
-0.101562 -0.390625 -0.109411 227 187 151
-0.097656 -0.390625 -0.112131 202 174 145
-0.093750 -0.390625 -0.114189 183 172 163
-0.089844 -0.390625 -0.116229 212 212 210
-0.085938 -0.390625 -0.117967 207 208 210
-0.082031 -0.390625 -0.119271 176 177 188
-0.078125 -0.390625 -0.120417 185 187 197
-0.074219 -0.390625 -0.121200 197 200 208
-0.070312 -0.390625 -0.121850 205 208 215
-0.066406 -0.390625 -0.122370 210 213 220
-0.062500 -0.390625 -0.122743 207 210 219
-0.058594 -0.390625 -0.122947 205 209 219
-0.054688 -0.390625 -0.122920 207 211 221
-0.050781 -0.390625 -0.122875 210 214 223
-0.046875 -0.390625 -0.122726 208 212 221
-0.042969 -0.390625 -0.122398 207 211 220
-0.039062 -0.390625 -0.121870 209 213 221
-0.035156 -0.390625 -0.121367 208 211 219
-0.031250 -0.390625 -0.120865 206 209 216
-0.027344 -0.390625 -0.120078 201 204 212
-0.023438 -0.390625 -0.118990 193 197 204
-0.019531 -0.390625 -0.117894 187 191 199
-0.015625 -0.390625 -0.116684 183 187 195
-0.011719 -0.390625 -0.115205 172 177 183
-0.007812 -0.390625 -0.113796 156 163 168
-0.003906 -0.390625 -0.112472 151 157 161
0.000000 -0.390625 -0.111040 149 153 156
0.003906 -0.390625 -0.108796 141 146 146
0.007812 -0.390625 -0.106967 143 146 144
0.011719 -0.390625 -0.104954 111 113 113
0.015625 -0.390625 -0.103257 93 98 98
0.019531 -0.390625 -0.099868 171 171 170
0.023438 -0.390625 -0.098113 212 212 212
0.027344 -0.390625 -0.093187 213 215 217
0.031250 -0.390625 -0.087558 219 221 223
0.035156 -0.390625 -0.082535 215 216 220
0.039062 -0.390625 -0.034282 209 211 217
0.042969 -0.390625 -0.018597 211 213 219
0.046875 -0.390625 -0.024910 208 211 219
0.050781 -0.390625 -0.027846 212 215 221
0.054688 -0.390625 -0.031232 213 215 222
0.058594 -0.390625 -0.033197 203 205 214
0.062500 -0.390625 -0.035059 202 205 213
0.066406 -0.390625 -0.037065 207 210 218
0.070312 -0.390625 -0.038833 212 214 221
0.074219 -0.390625 -0.040546 219 220 225
0.078125 -0.390625 -0.042117 219 220 225
0.082031 -0.390625 -0.043431 215 216 223
0.085938 -0.390625 -0.044467 212 214 220
0.089844 -0.390625 -0.045453 211 214 220
0.093750 -0.390625 -0.046391 216 219 224
0.097656 -0.390625 -0.047028 223 226 229
0.101562 -0.390625 -0.047403 227 230 233
0.105469 -0.390625 -0.047803 229 232 235
0.109375 -0.390625 -0.048184 228 230 234
0.113281 -0.390625 -0.048428 223 225 232
0.117188 -0.390625 -0.048552 218 221 229
0.121094 -0.390625 -0.048715 219 221 229
0.125000 -0.390625 -0.048787 224 226 232
0.128906 -0.390625 -0.048331 233 234 237
0.132812 -0.390625 -0.047389 236 237 239
0.136719 -0.390625 -0.046341 234 237 239
0.140625 -0.390625 -0.045107 231 235 239
0.144531 -0.390625 -0.043682 214 220 229
0.148438 -0.390625 -0.042007 220 225 231
0.152344 -0.390625 -0.040220 238 239 241
0.156250 -0.390625 -0.038249 239 239 242
0.160156 -0.390625 -0.035573 243 242 243
0.164062 -0.390625 -0.031992 244 242 244
0.167969 -0.390625 -0.028214 244 242 244
0.171875 -0.390625 -0.023880 245 243 245
0.175781 -0.390625 -0.018564 244 241 243
0.179688 -0.390625 -0.011425 244 243 243
0.183594 -0.390625 -0.001859 248 248 246
0.187500 -0.390625 0.012753 234 233 233
-0.148438 -0.394531 -0.038127 176 141 116
-0.144531 -0.394531 -0.055346 208 164 124
-0.140625 -0.394531 -0.063318 223 170 130
-0.136719 -0.394531 -0.069503 235 184 145
-0.132812 -0.394531 -0.076701 237 188 152
-0.128906 -0.394531 -0.082387 239 193 158
-0.125000 -0.394531 -0.087441 236 185 150
-0.121094 -0.394531 -0.091879 234 182 147
-0.117188 -0.394531 -0.095752 232 174 140
-0.113281 -0.394531 -0.099678 230 168 134
-0.109375 -0.394531 -0.103431 231 172 136
-0.105469 -0.394531 -0.106297 231 174 138
-0.101562 -0.394531 -0.109409 235 196 163
-0.097656 -0.394531 -0.112080 196 160 130
-0.093750 -0.394531 -0.113807 125 115 106
-0.089844 -0.394531 -0.115742 190 191 190
-0.085938 -0.394531 -0.117339 205 206 207
-0.082031 -0.394531 -0.118501 172 173 183
-0.078125 -0.394531 -0.119487 183 184 194
-0.074219 -0.394531 -0.120144 198 199 207
-0.070312 -0.394531 -0.120697 203 206 213
-0.066406 -0.394531 -0.121142 205 208 215
-0.062500 -0.394531 -0.121456 205 208 217
-0.058594 -0.394531 -0.121596 207 211 219
-0.054688 -0.394531 -0.121484 209 212 221
-0.050781 -0.394531 -0.121351 209 212 221
-0.046875 -0.394531 -0.121110 206 210 219
-0.042969 -0.394531 -0.120693 206 209 218
-0.039062 -0.394531 -0.120097 209 211 220
-0.035156 -0.394531 -0.119539 209 211 219
-0.031250 -0.394531 -0.118980 206 208 215
-0.027344 -0.394531 -0.118119 201 204 211
-0.023438 -0.394531 -0.116941 194 198 206
-0.019531 -0.394531 -0.115744 190 194 202
-0.015625 -0.394531 -0.114434 182 187 194
-0.011719 -0.394531 -0.112867 168 173 180
-0.007812 -0.394531 -0.111373 162 166 173
-0.003906 -0.394531 -0.110019 157 161 166
0.000000 -0.394531 -0.108494 148 153 156
0.003906 -0.394531 -0.106161 142 148 148
0.007812 -0.394531 -0.104112 142 144 142
0.011719 -0.394531 -0.102132 117 120 116
0.015625 -0.394531 -0.100249 92 95 94
0.019531 -0.394531 -0.096312 151 150 150
0.023438 -0.394531 -0.094130 209 208 207
0.027344 -0.394531 -0.088399 211 212 213
0.031250 -0.394531 -0.084624 211 212 215
0.035156 -0.394531 -0.060021 214 215 218
0.039062 -0.394531 -0.013197 215 215 220
0.042969 -0.394531 -0.019770 218 219 224
0.046875 -0.394531 -0.024308 213 216 222
0.050781 -0.394531 -0.027574 211 214 221
0.054688 -0.394531 -0.030199 212 214 221
0.058594 -0.394531 -0.032444 206 208 216
0.062500 -0.394531 -0.034457 205 208 216
0.066406 -0.394531 -0.036545 206 210 218
0.070312 -0.394531 -0.038457 211 214 221
0.074219 -0.394531 -0.040253 219 221 227
0.078125 -0.394531 -0.041865 222 224 229
0.082031 -0.394531 -0.043120 224 226 230
0.085938 -0.394531 -0.044054 225 227 230
0.089844 -0.394531 -0.044943 224 226 229
0.093750 -0.394531 -0.045762 225 227 230
0.097656 -0.394531 -0.046273 227 229 232
0.101562 -0.394531 -0.046518 226 229 233
0.105469 -0.394531 -0.046827 227 230 234
0.109375 -0.394531 -0.047110 227 230 234
0.113281 -0.394531 -0.047236 227 229 234
0.117188 -0.394531 -0.047264 229 231 235
0.121094 -0.394531 -0.047322 232 233 237
0.125000 -0.394531 -0.047300 234 235 238
0.128906 -0.394531 -0.046776 236 237 240
0.132812 -0.394531 -0.045772 235 236 239
0.136719 -0.394531 -0.044655 232 235 238
0.140625 -0.394531 -0.043373 228 232 237
0.144531 -0.394531 -0.041923 213 219 228
0.148438 -0.394531 -0.040251 223 227 233
0.152344 -0.394531 -0.038478 239 239 242
0.156250 -0.394531 -0.036544 239 239 242
0.160156 -0.394531 -0.033898 243 241 243
0.164062 -0.394531 -0.030312 244 242 244
0.167969 -0.394531 -0.026487 244 242 244
0.171875 -0.394531 -0.022039 245 244 245
0.175781 -0.394531 -0.016680 243 241 243
0.179688 -0.394531 -0.009306 245 244 244
0.183594 -0.394531 0.002469 245 246 244
0.187500 -0.394531 0.015812 236 235 233
-0.148438 -0.398438 -0.048224 189 152 128
-0.144531 -0.398438 -0.056708 208 160 118
-0.140625 -0.398438 -0.064703 224 170 128
-0.136719 -0.398438 -0.070728 233 180 142
-0.132812 -0.398438 -0.077566 236 186 150
-0.128906 -0.398438 -0.083316 237 191 156
-0.125000 -0.398438 -0.088212 234 183 147
-0.121094 -0.398438 -0.092381 230 177 142
-0.117188 -0.398438 -0.096050 224 161 128
-0.113281 -0.398438 -0.099938 224 158 125
-0.109375 -0.398438 -0.103755 228 168 132
-0.105469 -0.398438 -0.106457 230 170 135
-0.101562 -0.398438 -0.109359 239 202 169
-0.097656 -0.398438 -0.111961 195 152 121
-0.093750 -0.398438 -0.113443 93 85 78
-0.089844 -0.398438 -0.115231 179 180 177
-0.085938 -0.398438 -0.116739 208 207 206
-0.082031 -0.398438 -0.117778 173 173 182
-0.078125 -0.398438 -0.118579 180 181 191
-0.074219 -0.398438 -0.119126 195 196 203
-0.070312 -0.398438 -0.119564 200 202 209
-0.066406 -0.398438 -0.119914 201 203 212
-0.062500 -0.398438 -0.120186 201 204 213
-0.058594 -0.398438 -0.120279 207 210 219
-0.054688 -0.398438 -0.120088 209 212 221
-0.050781 -0.398438 -0.119872 209 212 221
-0.046875 -0.398438 -0.119540 208 211 220
-0.042969 -0.398438 -0.119040 208 211 219
-0.039062 -0.398438 -0.118383 209 211 219
-0.035156 -0.398438 -0.117769 208 210 217
-0.031250 -0.398438 -0.117159 204 206 214
-0.027344 -0.398438 -0.116237 201 204 211
-0.023438 -0.398438 -0.114972 199 202 209
-0.019531 -0.398438 -0.113677 194 198 204
-0.015625 -0.398438 -0.112275 179 184 192
-0.011719 -0.398438 -0.110626 162 167 175
-0.007812 -0.398438 -0.109058 160 163 170
-0.003906 -0.398438 -0.107682 150 154 160
0.000000 -0.398438 -0.106018 143 149 151
0.003906 -0.398438 -0.103620 144 149 149
0.007812 -0.398438 -0.101365 137 140 137
0.011719 -0.398438 -0.099350 121 124 118
0.015625 -0.398438 -0.097304 93 95 91
0.019531 -0.398438 -0.093054 127 125 124
0.023438 -0.398438 -0.090141 204 203 199
0.027344 -0.398438 -0.082910 215 216 215
0.031250 -0.398438 -0.080119 207 209 211
0.035156 -0.398438 -0.020291 209 210 213
0.039062 -0.398438 -0.010308 209 209 215
0.042969 -0.398438 -0.017860 215 215 221
0.046875 -0.398438 -0.023363 214 216 222
0.050781 -0.398438 -0.027033 209 213 220
0.054688 -0.398438 -0.029546 210 213 220
0.058594 -0.398438 -0.031989 210 212 219
0.062500 -0.398438 -0.034186 215 217 222
0.066406 -0.398438 -0.036425 220 222 226
0.070312 -0.398438 -0.038399 224 226 230
0.074219 -0.398438 -0.040230 229 230 233
0.078125 -0.398438 -0.041843 228 230 233
0.082031 -0.398438 -0.043037 228 230 233
0.085938 -0.398438 -0.043887 228 229 232
0.089844 -0.398438 -0.044708 222 225 229
0.093750 -0.398438 -0.045452 219 222 227
0.097656 -0.398438 -0.045845 219 221 227
0.101562 -0.398438 -0.045982 220 223 229
0.105469 -0.398438 -0.046187 225 227 232
0.109375 -0.398438 -0.046390 229 231 235
0.113281 -0.398438 -0.046405 232 233 237
0.117188 -0.398438 -0.046311 235 236 239
0.121094 -0.398438 -0.046267 237 238 240
0.125000 -0.398438 -0.046157 237 238 240
0.128906 -0.398438 -0.045543 238 238 241
0.132812 -0.398438 -0.044474 236 237 239
0.136719 -0.398438 -0.043291 235 237 240
0.140625 -0.398438 -0.041946 232 235 239
0.144531 -0.398438 -0.040465 217 223 231
0.148438 -0.398438 -0.038785 226 229 235
0.152344 -0.398438 -0.037022 239 239 242
0.156250 -0.398438 -0.035128 239 238 241
0.160156 -0.398438 -0.032489 242 241 243
0.164062 -0.398438 -0.028893 243 240 243
0.167969 -0.398438 -0.025057 242 240 243
0.171875 -0.398438 -0.020470 245 243 245
0.175781 -0.398438 -0.015040 241 239 242
0.179688 -0.398438 -0.007094 246 246 246
0.183594 -0.398438 0.005790 236 240 240
0.187500 -0.398438 0.015139 242 242 239
-0.148438 -0.402344 -0.048221 190 153 129
-0.144531 -0.402344 -0.057222 214 166 124
-0.140625 -0.402344 -0.066038 225 170 130
-0.136719 -0.402344 -0.071807 231 174 137
-0.132812 -0.402344 -0.078431 235 183 147
-0.128906 -0.402344 -0.084125 237 190 155
-0.125000 -0.402344 -0.088950 230 180 144
-0.121094 -0.402344 -0.092944 221 166 131
-0.117188 -0.402344 -0.096380 206 140 109
-0.113281 -0.402344 -0.100166 210 144 112
-0.109375 -0.402344 -0.104091 222 163 129
-0.105469 -0.402344 -0.106702 224 161 125
-0.101562 -0.402344 -0.109369 234 189 151
-0.097656 -0.402344 -0.111777 194 148 119
-0.093750 -0.402344 -0.113327 104 92 91
-0.089844 -0.402344 -0.114783 173 172 174
-0.085938 -0.402344 -0.116067 199 197 198
-0.082031 -0.402344 -0.117008 173 172 180
-0.078125 -0.402344 -0.117703 184 184 193
-0.074219 -0.402344 -0.118142 197 198 205
-0.070312 -0.402344 -0.118470 203 203 211
-0.066406 -0.402344 -0.118741 203 204 212
-0.062500 -0.402344 -0.118972 203 205 214
-0.058594 -0.402344 -0.119016 209 212 219
-0.054688 -0.402344 -0.118755 211 214 222
-0.050781 -0.402344 -0.118460 211 214 221
-0.046875 -0.402344 -0.118047 211 214 221
-0.042969 -0.402344 -0.117484 210 212 220
-0.039062 -0.402344 -0.116782 207 209 217
-0.035156 -0.402344 -0.116111 204 206 214
-0.031250 -0.402344 -0.115436 199 202 209
-0.027344 -0.402344 -0.114445 198 201 208
-0.023438 -0.402344 -0.113098 199 202 209
-0.019531 -0.402344 -0.111723 192 197 203
-0.015625 -0.402344 -0.110253 176 182 189
-0.011719 -0.402344 -0.108540 162 168 174
-0.007812 -0.402344 -0.106891 158 163 167
-0.003906 -0.402344 -0.105502 148 153 157
0.000000 -0.402344 -0.103716 147 152 154
0.003906 -0.402344 -0.101222 149 152 151
0.007812 -0.402344 -0.098835 130 134 132
0.011719 -0.402344 -0.096867 123 126 118
0.015625 -0.402344 -0.094487 97 97 92
0.019531 -0.402344 -0.090429 101 101 99
0.023438 -0.402344 -0.086029 186 187 181
0.027344 -0.402344 -0.080704 214 214 213
0.031250 -0.402344 -0.061415 209 209 211
0.035156 -0.402344 -0.001706 210 210 213
0.039062 -0.402344 -0.011884 205 206 212
0.042969 -0.402344 -0.017406 210 211 217
0.046875 -0.402344 -0.023008 214 215 221
0.050781 -0.402344 -0.026662 210 213 219
0.054688 -0.402344 -0.029406 208 211 218
0.058594 -0.402344 -0.032010 203 207 214
0.062500 -0.402344 -0.034265 207 210 216
0.066406 -0.402344 -0.036543 213 215 221
0.070312 -0.402344 -0.038560 218 219 225
0.074219 -0.402344 -0.040381 221 223 228
0.078125 -0.402344 -0.041971 221 223 228
0.082031 -0.402344 -0.043125 222 223 229
0.085938 -0.402344 -0.043926 222 224 229
0.089844 -0.402344 -0.044704 220 222 228
0.093750 -0.402344 -0.045392 221 224 228
0.097656 -0.402344 -0.045703 222 225 229
0.101562 -0.402344 -0.045750 223 226 231
0.105469 -0.402344 -0.045869 226 229 233
0.109375 -0.402344 -0.045993 227 229 234
0.113281 -0.402344 -0.045920 228 230 234
0.117188 -0.402344 -0.045689 231 232 236
0.121094 -0.402344 -0.045549 232 233 237
0.125000 -0.402344 -0.045346 234 234 238
0.128906 -0.402344 -0.044648 237 238 240
0.132812 -0.402344 -0.043513 238 238 241
0.136719 -0.402344 -0.042252 238 240 242
0.140625 -0.402344 -0.040836 234 237 240
0.144531 -0.402344 -0.039325 218 223 231
0.148438 -0.402344 -0.037632 226 229 235
0.152344 -0.402344 -0.035863 238 238 241
0.156250 -0.402344 -0.033980 239 238 241
0.160156 -0.402344 -0.031329 244 243 245
0.164062 -0.402344 -0.027738 244 242 244
0.167969 -0.402344 -0.023903 242 241 244
0.171875 -0.402344 -0.018967 245 243 245
0.175781 -0.402344 -0.013608 239 237 241
0.179688 -0.402344 -0.005889 246 245 246
0.183594 -0.402344 0.006397 230 236 237
0.187500 -0.402344 0.004997 239 237 241
-0.148438 -0.406250 -0.048728 176 141 116
-0.144531 -0.406250 -0.058457 209 155 115
-0.140625 -0.406250 -0.067354 224 167 128
-0.136719 -0.406250 -0.072911 230 170 134
-0.132812 -0.406250 -0.079382 234 181 145
-0.128906 -0.406250 -0.084974 236 189 154
-0.125000 -0.406250 -0.089757 229 180 143
-0.121094 -0.406250 -0.093641 208 153 118
-0.117188 -0.406250 -0.096937 174 112 85
-0.113281 -0.406250 -0.100504 183 119 91
-0.109375 -0.406250 -0.104347 210 152 118
-0.105469 -0.406250 -0.106954 214 150 115
-0.101562 -0.406250 -0.109517 218 157 117
-0.097656 -0.406250 -0.111656 201 150 120
-0.093750 -0.406250 -0.113019 174 149 140
-0.089844 -0.406250 -0.114216 197 191 188
-0.085938 -0.406250 -0.115257 201 198 198
-0.082031 -0.406250 -0.116126 184 183 189
-0.078125 -0.406250 -0.116783 188 188 197
-0.074219 -0.406250 -0.117148 200 200 207
-0.070312 -0.406250 -0.117407 204 204 212
-0.066406 -0.406250 -0.117621 203 204 213
-0.062500 -0.406250 -0.117815 205 207 216
-0.058594 -0.406250 -0.117812 211 214 221
-0.054688 -0.406250 -0.117485 213 216 222
-0.050781 -0.406250 -0.117114 211 214 221
-0.046875 -0.406250 -0.116623 211 214 221
-0.042969 -0.406250 -0.115994 209 212 219
-0.039062 -0.406250 -0.115231 205 208 215
-0.035156 -0.406250 -0.114503 202 205 212
-0.031250 -0.406250 -0.113761 199 202 209
-0.027344 -0.406250 -0.112700 201 204 211
-0.023438 -0.406250 -0.111293 204 206 212
-0.019531 -0.406250 -0.109839 194 198 204
-0.015625 -0.406250 -0.108298 179 184 190
-0.011719 -0.406250 -0.106544 165 171 176
-0.007812 -0.406250 -0.104820 155 161 164
-0.003906 -0.406250 -0.103407 148 154 157
0.000000 -0.406250 -0.101511 150 155 155
0.003906 -0.406250 -0.098963 148 152 150
0.007812 -0.406250 -0.096544 131 135 130
0.011719 -0.406250 -0.094363 133 134 125
0.015625 -0.406250 -0.091482 111 108 102
0.019531 -0.406250 -0.087759 93 93 90
0.023438 -0.406250 -0.081148 169 173 164
0.027344 -0.406250 -0.077549 211 212 209
0.031250 -0.406250 -0.023893 210 209 212
0.035156 -0.406250 0.001371 214 212 217
0.039062 -0.406250 -0.010641 207 207 213
0.042969 -0.406250 -0.017072 205 206 212
0.046875 -0.406250 -0.022766 210 212 217
0.050781 -0.406250 -0.026568 210 213 219
0.054688 -0.406250 -0.029370 212 215 220
0.058594 -0.406250 -0.032075 210 213 218
0.062500 -0.406250 -0.034409 212 215 219
0.066406 -0.406250 -0.036744 217 219 223
0.070312 -0.406250 -0.038773 221 223 226
0.074219 -0.406250 -0.040581 224 226 229
0.078125 -0.406250 -0.042157 224 226 230
0.082031 -0.406250 -0.043286 225 226 230
0.085938 -0.406250 -0.044061 225 226 230
0.089844 -0.406250 -0.044818 223 225 230
0.093750 -0.406250 -0.045465 224 226 230
0.097656 -0.406250 -0.045718 224 226 230
0.101562 -0.406250 -0.045684 224 227 231
0.105469 -0.406250 -0.045737 226 229 233
0.109375 -0.406250 -0.045791 227 229 234
0.113281 -0.406250 -0.045646 229 231 235
0.117188 -0.406250 -0.045315 232 232 237
0.121094 -0.406250 -0.045081 233 233 237
0.125000 -0.406250 -0.044779 235 235 238
0.128906 -0.406250 -0.044018 239 239 241
0.132812 -0.406250 -0.042813 239 239 241
0.136719 -0.406250 -0.041466 238 239 241
0.140625 -0.406250 -0.039997 233 235 239
0.144531 -0.406250 -0.038447 219 223 230
0.148438 -0.406250 -0.036724 229 232 236
0.152344 -0.406250 -0.034929 239 239 242
0.156250 -0.406250 -0.033029 238 237 241
0.160156 -0.406250 -0.030336 243 242 244
0.164062 -0.406250 -0.026631 243 242 244
0.167969 -0.406250 -0.022793 242 241 244
0.171875 -0.406250 -0.017804 245 245 246
0.175781 -0.406250 -0.012028 238 237 240
0.179688 -0.406250 -0.003830 243 243 244
0.183594 -0.406250 0.011459 233 236 238
-0.148438 -0.410156 -0.049178 189 152 128
-0.144531 -0.410156 -0.059905 214 161 123
-0.140625 -0.410156 -0.068677 223 166 129
-0.136719 -0.410156 -0.074041 228 167 132
-0.132812 -0.410156 -0.080260 232 176 140
-0.128906 -0.410156 -0.085753 233 180 145
-0.125000 -0.410156 -0.090573 228 176 139
-0.121094 -0.410156 -0.094341 204 148 114
-0.117188 -0.410156 -0.097580 148 91 70
-0.113281 -0.410156 -0.101070 144 85 64
-0.109375 -0.410156 -0.104740 188 127 95
-0.105469 -0.410156 -0.107211 202 138 103
-0.101562 -0.410156 -0.109682 192 123 87
-0.097656 -0.410156 -0.111620 199 145 113
-0.093750 -0.410156 -0.112655 204 171 155
-0.089844 -0.410156 -0.113524 192 174 170
-0.085938 -0.410156 -0.114404 200 194 193
-0.082031 -0.410156 -0.115258 196 194 199
-0.078125 -0.410156 -0.115827 187 187 196
-0.074219 -0.410156 -0.116131 201 202 209
-0.070312 -0.410156 -0.116377 206 207 214
-0.066406 -0.410156 -0.116537 204 206 214
-0.062500 -0.410156 -0.116709 206 209 217
-0.058594 -0.410156 -0.116684 211 214 221
-0.054688 -0.410156 -0.116307 212 215 222
-0.050781 -0.410156 -0.115870 210 213 220
-0.046875 -0.410156 -0.115314 210 213 219
-0.042969 -0.410156 -0.114633 209 212 219
-0.039062 -0.410156 -0.113818 207 209 216
-0.035156 -0.410156 -0.113038 204 207 214
-0.031250 -0.410156 -0.112234 203 206 212
-0.027344 -0.410156 -0.111099 205 208 214
-0.023438 -0.410156 -0.109627 204 205 211
-0.019531 -0.410156 -0.108111 186 189 195
-0.015625 -0.410156 -0.106513 171 175 182
-0.011719 -0.410156 -0.104698 162 167 173
-0.007812 -0.410156 -0.102880 153 159 164
-0.003906 -0.410156 -0.101430 154 159 161
0.000000 -0.410156 -0.099450 152 157 157
0.003906 -0.410156 -0.096899 142 147 144
0.007812 -0.410156 -0.094370 123 127 122
0.011719 -0.410156 -0.092113 119 121 114
0.015625 -0.410156 -0.089260 101 101 96
0.019531 -0.410156 -0.084621 91 93 89
0.023438 -0.410156 -0.078685 170 174 165
0.027344 -0.410156 -0.069502 215 216 212
0.031250 -0.410156 0.000996 211 211 213
0.035156 -0.410156 -0.000505 216 215 218
0.039062 -0.410156 -0.009422 212 212 216
0.042969 -0.410156 -0.016883 204 206 211
0.046875 -0.410156 -0.022331 204 207 213
0.050781 -0.410156 -0.026345 204 207 213
0.054688 -0.410156 -0.029300 206 209 215
0.058594 -0.410156 -0.032011 203 206 213
0.062500 -0.410156 -0.034461 201 205 211
0.066406 -0.410156 -0.036882 205 207 214
0.070312 -0.410156 -0.038937 213 214 220
0.074219 -0.410156 -0.040756 220 221 225
0.078125 -0.410156 -0.042335 220 220 225
0.082031 -0.410156 -0.043472 219 219 225
0.085938 -0.410156 -0.044250 218 219 224
0.089844 -0.410156 -0.044998 216 217 223
0.093750 -0.410156 -0.045631 216 217 223
0.097656 -0.410156 -0.045854 215 217 223
0.101562 -0.410156 -0.045765 217 220 225
0.105469 -0.410156 -0.045765 220 224 229
0.109375 -0.410156 -0.045756 224 227 232
0.113281 -0.410156 -0.045541 229 230 235
0.117188 -0.410156 -0.045138 233 233 237
0.121094 -0.410156 -0.044821 234 234 238
0.125000 -0.410156 -0.044430 236 236 239
0.128906 -0.410156 -0.043586 239 239 241
0.132812 -0.410156 -0.042304 239 239 241
0.136719 -0.410156 -0.040896 237 238 241
0.140625 -0.410156 -0.039391 230 233 237
0.144531 -0.410156 -0.037778 218 223 230
0.148438 -0.410156 -0.036008 233 235 239
0.152344 -0.410156 -0.034172 240 240 243
0.156250 -0.410156 -0.032221 239 238 241
0.160156 -0.410156 -0.029444 243 242 244
0.164062 -0.410156 -0.025698 243 242 244
0.167969 -0.410156 -0.021709 242 241 244
0.171875 -0.410156 -0.016449 245 245 247
0.175781 -0.410156 -0.010356 237 237 241
0.179688 -0.410156 -0.002055 241 242 244
0.183594 -0.410156 0.011916 244 246 245
-0.148438 -0.414062 -0.050774 190 153 129
-0.144531 -0.414062 -0.060913 210 157 120
-0.140625 -0.414062 -0.069680 220 161 127
-0.136719 -0.414062 -0.075281 228 169 135
-0.132812 -0.414062 -0.081244 232 175 140
-0.128906 -0.414062 -0.086645 230 172 136
-0.125000 -0.414062 -0.091411 227 172 135
-0.121094 -0.414062 -0.095100 210 158 122
-0.117188 -0.414062 -0.098298 154 100 76
-0.113281 -0.414062 -0.101639 119 71 53
-0.109375 -0.414062 -0.105128 160 101 75
-0.105469 -0.414062 -0.107544 197 131 98
-0.101562 -0.414062 -0.109941 188 119 85
-0.097656 -0.414062 -0.111592 199 149 113
-0.093750 -0.414062 -0.112434 170 129 113
-0.089844 -0.414062 -0.113049 103 80 84
-0.085938 -0.414062 -0.113726 178 168 168
-0.082031 -0.414062 -0.114409 204 203 203
-0.078125 -0.414062 -0.114883 184 185 193
-0.074219 -0.414062 -0.115193 204 204 210
-0.070312 -0.414062 -0.115393 208 208 215
-0.066406 -0.414062 -0.115490 206 207 215
-0.062500 -0.414062 -0.115657 210 212 219
-0.058594 -0.414062 -0.115620 211 214 221
-0.054688 -0.414062 -0.115207 212 214 221
-0.050781 -0.414062 -0.114714 210 213 219
-0.046875 -0.414062 -0.114107 209 211 218
-0.042969 -0.414062 -0.113384 208 211 218
-0.039062 -0.414062 -0.112519 207 210 217
-0.035156 -0.414062 -0.111690 205 208 215
-0.031250 -0.414062 -0.110821 205 208 214
-0.027344 -0.414062 -0.109611 205 208 213
-0.023438 -0.414062 -0.108067 194 197 203
-0.019531 -0.414062 -0.106473 170 175 183
-0.015625 -0.414062 -0.104810 161 166 174
-0.011719 -0.414062 -0.102942 162 167 173
-0.007812 -0.414062 -0.101048 161 166 169
-0.003906 -0.414062 -0.099543 161 166 167
0.000000 -0.414062 -0.097445 152 158 157
0.003906 -0.414062 -0.094857 135 141 138
0.007812 -0.414062 -0.092302 117 121 116
0.011719 -0.414062 -0.089789 110 114 111
0.015625 -0.414062 -0.087132 112 115 111
0.019531 -0.414062 -0.081535 113 113 109
0.023438 -0.414062 -0.076861 173 172 166
0.027344 -0.414062 -0.050378 217 217 214
0.031250 -0.414062 0.014818 212 213 214
0.035156 -0.414062 0.000485 212 212 215
0.039062 -0.414062 -0.008160 215 214 217
0.042969 -0.414062 -0.016322 209 210 213
0.046875 -0.414062 -0.021948 208 210 214
0.050781 -0.414062 -0.026070 206 209 214
0.054688 -0.414062 -0.029141 205 209 214
0.058594 -0.414062 -0.031970 199 203 210
0.062500 -0.414062 -0.034490 194 198 206
0.066406 -0.414062 -0.036938 193 196 206
0.070312 -0.414062 -0.039009 197 199 209
0.074219 -0.414062 -0.040837 206 206 215
0.078125 -0.414062 -0.042438 207 207 216
0.082031 -0.414062 -0.043607 207 208 217
0.085938 -0.414062 -0.044399 210 211 219
0.089844 -0.414062 -0.045159 212 213 221
0.093750 -0.414062 -0.045796 215 216 223
0.097656 -0.414062 -0.046004 216 218 224
0.101562 -0.414062 -0.045886 219 222 227
0.105469 -0.414062 -0.045848 224 227 231
0.109375 -0.414062 -0.045787 228 230 234
0.113281 -0.414062 -0.045507 231 232 236
0.117188 -0.414062 -0.045031 233 233 237
0.121094 -0.414062 -0.044644 233 233 237
0.125000 -0.414062 -0.044189 234 233 237
0.128906 -0.414062 -0.043264 236 236 239
0.132812 -0.414062 -0.041925 237 237 240
0.136719 -0.414062 -0.040479 236 238 240
0.140625 -0.414062 -0.038934 229 232 236
0.144531 -0.414062 -0.037265 220 224 231
0.148438 -0.414062 -0.035437 236 237 240
0.152344 -0.414062 -0.033546 242 241 243
0.156250 -0.414062 -0.031544 241 240 242
0.160156 -0.414062 -0.028705 244 244 245
0.164062 -0.414062 -0.024975 243 243 245
0.167969 -0.414062 -0.020784 243 243 245
0.171875 -0.414062 -0.015300 245 245 247
0.175781 -0.414062 -0.009509 236 237 241
0.179688 -0.414062 -0.000614 240 241 243
0.183594 -0.414062 0.013678 230 236 237
-0.152344 -0.417969 -0.025504 214 154 121
-0.148438 -0.417969 -0.053281 187 150 126
-0.144531 -0.417969 -0.062847 201 145 109
-0.140625 -0.417969 -0.070870 214 154 121
-0.136719 -0.417969 -0.076644 230 173 141
-0.132812 -0.417969 -0.082326 234 180 146
-0.128906 -0.417969 -0.087673 232 173 137
-0.125000 -0.417969 -0.092324 229 176 139
-0.121094 -0.417969 -0.095956 217 171 137
-0.117188 -0.417969 -0.099141 182 135 110
-0.113281 -0.417969 -0.102345 137 94 75
-0.109375 -0.417969 -0.105497 149 96 73
-0.105469 -0.417969 -0.107789 195 128 98
-0.101562 -0.417969 -0.110101 201 135 98
-0.097656 -0.417969 -0.111492 219 182 138
-0.093750 -0.417969 -0.112135 169 135 106
-0.089844 -0.417969 -0.112616 68 54 54
-0.085938 -0.417969 -0.113036 181 171 167
-0.082031 -0.417969 -0.113597 215 213 212
-0.078125 -0.417969 -0.114026 184 184 192
-0.074219 -0.417969 -0.114317 204 203 209
-0.070312 -0.417969 -0.114482 204 205 211
-0.066406 -0.417969 -0.114556 203 205 213
-0.062500 -0.417969 -0.114716 210 212 219
-0.058594 -0.417969 -0.114664 210 212 219
-0.054688 -0.417969 -0.114226 210 213 219
-0.050781 -0.417969 -0.113691 210 212 218
-0.046875 -0.417969 -0.113042 208 210 217
-0.042969 -0.417969 -0.112272 207 210 217
-0.039062 -0.417969 -0.111349 206 210 217
-0.035156 -0.417969 -0.110464 207 210 217
-0.031250 -0.417969 -0.109515 210 212 218
-0.027344 -0.417969 -0.108230 204 208 213
-0.023438 -0.417969 -0.106635 190 194 200
-0.019531 -0.417969 -0.104959 171 177 184
-0.015625 -0.417969 -0.103201 163 169 175
-0.011719 -0.417969 -0.101288 167 172 176
-0.007812 -0.417969 -0.099326 166 171 174
-0.003906 -0.417969 -0.097735 161 166 166
0.000000 -0.417969 -0.095615 147 154 152
0.003906 -0.417969 -0.093100 132 139 133
0.007812 -0.417969 -0.090471 120 124 117
0.011719 -0.417969 -0.087223 113 118 114
0.015625 -0.417969 -0.084420 117 119 117
0.019531 -0.417969 -0.078102 77 78 79
0.023438 -0.417969 -0.075211 86 90 90
0.027344 -0.417969 -0.017120 197 198 193
0.031250 -0.417969 0.018521 220 221 219
0.035156 -0.417969 0.001486 211 212 213
0.039062 -0.417969 -0.007236 214 213 215
0.042969 -0.417969 -0.015634 211 211 214
0.046875 -0.417969 -0.021460 212 213 216
0.050781 -0.417969 -0.025706 212 214 217
0.054688 -0.417969 -0.028863 211 214 218
0.058594 -0.417969 -0.031786 208 211 215
0.062500 -0.417969 -0.034432 210 214 217
0.066406 -0.417969 -0.036913 216 219 222
0.070312 -0.417969 -0.038991 218 220 223
0.074219 -0.417969 -0.040848 222 224 226
0.078125 -0.417969 -0.042472 223 225 228
0.082031 -0.417969 -0.043669 224 226 229
0.085938 -0.417969 -0.044489 225 227 230
