ply
    format ascii 1.0
    element vertex 40050
    property float x
    property float y
    property float z
    property uchar red
    property uchar green
    property uchar blue
    end_header
0.113281 0.308594 -0.114693 163 172 201
0.117188 0.308594 -0.113294 194 203 234
0.121094 0.308594 -0.111874 206 205 206
0.125000 0.308594 -0.110421 210 210 212
0.128906 0.308594 -0.109096 216 218 219
0.132812 0.308594 -0.107886 215 218 218
0.136719 0.308594 -0.106619 217 219 218
0.140625 0.308594 -0.105381 218 219 219
0.144531 0.308594 -0.104081 215 215 215
0.148438 0.308594 -0.102652 216 216 215
0.152344 0.308594 -0.101246 213 213 212
0.156250 0.308594 -0.099784 211 211 210
0.160156 0.308594 -0.098074 212 211 210
0.164062 0.308594 -0.096241 213 213 212
0.167969 0.308594 -0.094312 215 215 213
0.171875 0.308594 -0.092168 217 216 215
0.175781 0.308594 -0.090597 218 217 216
0.179688 0.308594 -0.089015 219 216 216
0.183594 0.308594 -0.087327 219 215 215
0.187500 0.308594 -0.085751 217 212 213
0.191406 0.308594 -0.083336 215 209 211
0.195312 0.308594 -0.080686 215 208 211
0.199219 0.308594 -0.077866 210 205 207
0.203125 0.308594 -0.074886 201 198 200
0.207031 0.308594 -0.072175 185 184 184
0.210938 0.308594 -0.069158 152 151 152
0.214844 0.308594 -0.066114 135 132 133
0.218750 0.308594 -0.062906 147 140 132
0.222656 0.308594 -0.058753 154 124 115
0.226562 0.308594 -0.054310 178 128 111
0.230469 0.308594 -0.049904 204 146 120
0.234375 0.308594 -0.045204 215 152 119
0.238281 0.308594 -0.040578 216 150 112
0.242188 0.308594 -0.035857 214 151 114
0.246094 0.308594 -0.030683 206 149 115
0.250000 0.308594 -0.024629 189 138 114
0.253906 0.308594 -0.016877 127 98 94
0.257812 0.308594 -0.006970 121 113 115
0.261719 0.308594 0.004597 190 188 189
0.265625 0.308594 0.018007 207 207 207
0.269531 0.308594 0.027852 189 188 189
0.273438 0.308594 0.037673 131 127 132
0.277344 0.308594 0.050107 78 69 93
-0.074219 0.304688 -0.026298 191 195 201
-0.070312 0.304688 -0.035656 212 211 211
-0.066406 0.304688 -0.042678 178 153 125
-0.062500 0.304688 -0.049346 184 145 104
-0.058594 0.304688 -0.054593 193 147 98
-0.054688 0.304688 -0.059685 199 145 90
-0.050781 0.304688 -0.064677 204 145 90
-0.046875 0.304688 -0.069996 208 147 94
-0.042969 0.304688 -0.074070 213 151 98
-0.039062 0.304688 -0.077610 218 155 102
-0.035156 0.304688 -0.081002 220 157 105
-0.031250 0.304688 -0.084370 220 157 105
-0.027344 0.304688 -0.087184 219 156 103
-0.023438 0.304688 -0.089692 216 151 99
-0.019531 0.304688 -0.092021 209 144 93
-0.015625 0.304688 -0.094107 200 138 86
-0.011719 0.304688 -0.096096 194 144 87
-0.007812 0.304688 -0.098064 187 143 84
-0.003906 0.304688 -0.100740 156 113 65
0.000000 0.304688 -0.103774 110 67 43
0.003906 0.304688 -0.106218 107 93 97
0.007812 0.304688 -0.108359 133 140 154
0.011719 0.304688 -0.110138 142 154 169
0.015625 0.304688 -0.111727 156 169 184
0.019531 0.304688 -0.113549 164 176 192
0.023438 0.304688 -0.115392 168 179 195
0.027344 0.304688 -0.117157 172 184 200
0.031250 0.304688 -0.118699 163 175 190
0.035156 0.304688 -0.119823 166 178 191
0.039062 0.304688 -0.120685 160 169 181
0.042969 0.304688 -0.121591 165 173 184
0.046875 0.304688 -0.122348 172 178 190
0.050781 0.304688 -0.122817 170 174 185
0.054688 0.304688 -0.123108 194 198 209
0.058594 0.304688 -0.123321 158 161 179
0.062500 0.304688 -0.123421 148 151 167
0.066406 0.304688 -0.123461 173 175 189
0.070312 0.304688 -0.123392 161 164 175
0.074219 0.304688 -0.123215 176 180 190
0.078125 0.304688 -0.122940 160 163 171
0.082031 0.304688 -0.122493 188 191 197
0.085938 0.304688 -0.121971 185 188 195
0.089844 0.304688 -0.121288 191 194 201
0.093750 0.304688 -0.120480 183 187 198
0.097656 0.304688 -0.119585 183 187 199
0.101562 0.304688 -0.118606 186 192 208
0.105469 0.304688 -0.117531 177 182 202
0.109375 0.304688 -0.116282 163 169 193
0.113281 0.304688 -0.114972 171 177 203
0.117188 0.304688 -0.113626 191 198 226
0.121094 0.304688 -0.112240 202 201 202
0.125000 0.304688 -0.110831 209 209 211
0.128906 0.304688 -0.109550 211 214 214
0.132812 0.304688 -0.108390 213 216 215
0.136719 0.304688 -0.107151 215 217 216
0.140625 0.304688 -0.105931 217 218 217
0.144531 0.304688 -0.104639 214 214 214
0.148438 0.304688 -0.103194 215 216 215
0.152344 0.304688 -0.101804 213 213 212
0.156250 0.304688 -0.100329 211 211 210
0.160156 0.304688 -0.098651 211 211 210
0.164062 0.304688 -0.096861 212 212 211
0.167969 0.304688 -0.094959 214 213 212
0.171875 0.304688 -0.092826 215 214 213
0.175781 0.304688 -0.091088 216 214 213
0.179688 0.304688 -0.089404 216 214 213
0.183594 0.304688 -0.087655 216 212 212
0.187500 0.304688 -0.086020 214 209 210
0.191406 0.304688 -0.083686 212 205 207
0.195312 0.304688 -0.081163 210 203 205
0.199219 0.304688 -0.078484 206 200 202
0.203125 0.304688 -0.075668 200 197 198
0.207031 0.304688 -0.073057 188 186 187
0.210938 0.304688 -0.070181 170 169 170
0.214844 0.304688 -0.067209 176 174 174
0.218750 0.304688 -0.064062 174 170 169
0.222656 0.304688 -0.059984 139 118 122
0.226562 0.304688 -0.055466 164 121 115
0.230469 0.304688 -0.050975 195 147 126
0.234375 0.304688 -0.046172 210 159 130
0.238281 0.304688 -0.041360 214 158 123
0.242188 0.304688 -0.036384 204 142 112
0.246094 0.304688 -0.031016 187 132 109
0.250000 0.304688 -0.024848 170 125 113
0.253906 0.304688 -0.016790 142 126 130
0.257812 0.304688 -0.006502 186 185 186
0.261719 0.304688 0.005521 216 215 215
0.265625 0.304688 0.019176 215 215 215
0.269531 0.304688 0.028843 191 190 191
0.273438 0.304688 0.036591 138 134 140
0.277344 0.304688 0.052814 95 87 108
-0.074219 0.300781 -0.027256 229 230 232
-0.070312 0.300781 -0.034571 218 215 214
-0.066406 0.300781 -0.041403 169 146 116
-0.062500 0.300781 -0.048176 182 148 103
-0.058594 0.300781 -0.053460 191 150 99
-0.054688 0.300781 -0.058212 198 145 91
-0.050781 0.300781 -0.063022 203 145 90
-0.046875 0.300781 -0.068204 207 147 94
-0.042969 0.300781 -0.072479 213 150 97
-0.039062 0.300781 -0.076154 218 155 102
-0.035156 0.300781 -0.079675 220 157 104
-0.031250 0.300781 -0.083179 220 157 104
-0.027344 0.300781 -0.086156 219 155 102
-0.023438 0.300781 -0.088799 215 150 97
-0.019531 0.300781 -0.091254 208 142 91
-0.015625 0.300781 -0.093445 197 135 84
-0.011719 0.300781 -0.095540 190 139 85
-0.007812 0.300781 -0.097634 184 138 83
-0.003906 0.300781 -0.100433 152 109 63
0.000000 0.300781 -0.103626 108 64 42
0.003906 0.300781 -0.106154 124 108 112
0.007812 0.300781 -0.108369 150 157 171
0.011719 0.300781 -0.110241 144 152 169
0.015625 0.300781 -0.111940 152 162 180
0.019531 0.300781 -0.113736 160 173 189
0.023438 0.300781 -0.115616 163 175 191
0.027344 0.300781 -0.117378 168 181 197
0.031250 0.300781 -0.118908 157 169 186
0.035156 0.300781 -0.120034 166 177 193
0.039062 0.300781 -0.120908 162 171 186
0.042969 0.300781 -0.121805 153 160 176
0.046875 0.300781 -0.122547 158 166 179
0.050781 0.300781 -0.122996 166 172 183
0.054688 0.300781 -0.123255 181 187 198
0.058594 0.300781 -0.123464 174 176 190
0.062500 0.300781 -0.123555 166 168 180
0.066406 0.300781 -0.123579 188 188 199
0.070312 0.300781 -0.123501 173 173 183
0.074219 0.300781 -0.123296 179 178 186
0.078125 0.300781 -0.123036 162 161 167
0.082031 0.300781 -0.122604 190 189 194
0.085938 0.300781 -0.122067 193 192 197
0.089844 0.300781 -0.121384 188 187 192
0.093750 0.300781 -0.120574 187 186 192
0.097656 0.300781 -0.119695 189 189 198
0.101562 0.300781 -0.118750 190 192 205
0.105469 0.300781 -0.117725 188 189 207
0.109375 0.300781 -0.116528 183 185 206
0.113281 0.300781 -0.115281 188 190 213
0.117188 0.300781 -0.114009 198 200 225
0.121094 0.300781 -0.112675 195 195 196
0.125000 0.300781 -0.111323 209 210 211
0.128906 0.300781 -0.110074 209 212 212
0.132812 0.300781 -0.108949 210 213 212
0.136719 0.300781 -0.107754 214 216 214
0.140625 0.300781 -0.106548 213 215 214
0.144531 0.300781 -0.105270 214 214 213
0.148438 0.300781 -0.103818 215 216 215
0.152344 0.300781 -0.102424 213 213 212
0.156250 0.300781 -0.100913 211 211 210
0.160156 0.300781 -0.099237 211 211 210
0.164062 0.300781 -0.097419 212 211 210
0.167969 0.300781 -0.095440 213 212 211
0.171875 0.300781 -0.093303 214 212 211
0.175781 0.300781 -0.091458 214 212 211
0.179688 0.300781 -0.089689 214 212 211
0.183594 0.300781 -0.087867 213 210 210
0.187500 0.300781 -0.086166 211 207 208
0.191406 0.300781 -0.083890 208 203 204
0.195312 0.300781 -0.081499 205 198 200
0.199219 0.300781 -0.079004 201 195 196
0.203125 0.300781 -0.076352 198 194 195
0.207031 0.300781 -0.073777 188 187 187
0.210938 0.300781 -0.070989 177 176 176
0.214844 0.300781 -0.068100 186 185 185
0.218750 0.300781 -0.065059 190 188 189
0.222656 0.300781 -0.061075 165 159 162
0.226562 0.300781 -0.056495 155 135 136
0.230469 0.300781 -0.051963 172 138 130
0.234375 0.300781 -0.047062 191 150 136
0.238281 0.300781 -0.042021 198 152 134
0.242188 0.300781 -0.036750 184 136 119
0.246094 0.300781 -0.031103 167 128 119
0.250000 0.300781 -0.024719 173 147 145
0.253906 0.300781 -0.016267 185 180 181
0.257812 0.300781 -0.005657 206 206 206
0.261719 0.300781 0.006726 213 213 213
0.265625 0.300781 0.019523 207 207 207
0.269531 0.300781 0.029267 180 179 180
0.273438 0.300781 0.036741 127 123 129
0.277344 0.300781 0.045979 87 83 95
0.281250 0.300781 0.007953 180 179 180
-0.074219 0.296875 -0.027003 238 238 239
-0.070312 0.296875 -0.034154 220 219 216
-0.066406 0.296875 -0.040303 170 154 121
-0.062500 0.296875 -0.046751 183 153 107
-0.058594 0.296875 -0.051978 191 150 101
-0.054688 0.296875 -0.056929 197 144 91
-0.050781 0.296875 -0.061275 201 144 90
-0.046875 0.296875 -0.066268 207 146 94
-0.042969 0.296875 -0.070469 213 150 97
-0.039062 0.296875 -0.074426 218 155 101
-0.035156 0.296875 -0.078144 220 156 103
-0.031250 0.296875 -0.081789 221 156 103
-0.027344 0.296875 -0.084898 220 155 101
-0.023438 0.296875 -0.087681 216 150 96
-0.019531 0.296875 -0.090290 209 144 91
-0.015625 0.296875 -0.092629 198 138 86
-0.011719 0.296875 -0.094898 190 140 87
-0.007812 0.296875 -0.097157 183 138 84
-0.003906 0.296875 -0.100095 150 107 62
0.000000 0.296875 -0.103445 109 64 41
0.003906 0.296875 -0.106052 133 116 121
0.007812 0.296875 -0.108371 181 186 201
0.011719 0.296875 -0.110308 165 174 190
0.015625 0.296875 -0.112080 133 140 159
0.019531 0.296875 -0.113890 110 121 138
0.023438 0.296875 -0.115796 107 120 138
0.027344 0.296875 -0.117578 121 134 153
0.031250 0.296875 -0.119126 118 131 150
0.035156 0.296875 -0.120267 144 155 173
0.039062 0.296875 -0.121139 160 171 189
0.042969 0.296875 -0.122022 157 166 182
0.046875 0.296875 -0.122755 167 174 189
0.050781 0.296875 -0.123206 181 188 203
0.054688 0.296875 -0.123455 185 192 207
0.058594 0.296875 -0.123660 177 175 187
0.062500 0.296875 -0.123736 167 165 175
0.066406 0.296875 -0.123727 181 180 188
0.070312 0.296875 -0.123637 171 168 175
0.074219 0.296875 -0.123416 177 172 176
0.078125 0.296875 -0.123152 167 163 164
0.082031 0.296875 -0.122727 191 185 185
0.085938 0.296875 -0.122184 192 187 187
0.089844 0.296875 -0.121498 185 179 181
0.093750 0.296875 -0.120689 190 186 190
0.097656 0.296875 -0.119831 194 190 195
0.101562 0.296875 -0.118905 188 185 194
0.105469 0.296875 -0.117911 180 178 191
0.109375 0.296875 -0.116782 179 176 193
0.113281 0.296875 -0.115607 187 186 204
0.117188 0.296875 -0.114399 196 194 215
0.121094 0.296875 -0.113122 185 185 186
0.125000 0.296875 -0.111843 210 211 212
0.128906 0.296875 -0.110643 205 209 208
0.132812 0.296875 -0.109557 207 211 209
0.136719 0.296875 -0.108405 212 214 213
0.140625 0.296875 -0.107210 211 212 211
0.144531 0.296875 -0.105946 214 215 214
0.148438 0.296875 -0.104481 215 215 214
0.152344 0.296875 -0.103051 214 214 213
0.156250 0.296875 -0.101500 212 211 210
0.160156 0.296875 -0.099757 211 211 210
0.164062 0.296875 -0.097865 212 211 210
0.167969 0.296875 -0.095802 213 212 210
0.171875 0.296875 -0.093644 213 212 211
0.175781 0.296875 -0.091717 213 211 210
0.179688 0.296875 -0.089883 213 211 210
0.183594 0.296875 -0.088029 212 209 209
0.187500 0.296875 -0.086289 210 207 206
0.191406 0.296875 -0.084126 206 202 202
0.195312 0.296875 -0.081860 201 196 196
0.199219 0.296875 -0.079489 196 191 192
0.203125 0.296875 -0.077002 194 191 190
0.207031 0.296875 -0.074462 183 182 182
0.210938 0.296875 -0.071748 171 171 171
0.214844 0.296875 -0.068926 178 177 177
0.218750 0.296875 -0.065912 188 188 188
0.222656 0.296875 -0.061959 190 189 190
0.226562 0.296875 -0.057355 184 181 183
0.230469 0.296875 -0.052760 170 161 165
0.234375 0.296875 -0.047768 163 144 150
0.238281 0.296875 -0.042601 165 139 144
0.242188 0.296875 -0.037090 165 140 144
0.246094 0.296875 -0.031117 168 150 155
0.250000 0.296875 -0.024376 187 178 181
0.253906 0.296875 -0.015515 200 199 199
0.257812 0.296875 -0.004794 203 202 203
0.261719 0.296875 0.008314 199 198 199
0.265625 0.296875 0.019915 193 193 193
0.269531 0.296875 0.029196 173 172 173
0.273438 0.296875 0.036480 133 130 135
0.277344 0.296875 0.044358 115 111 122
0.281250 0.296875 0.026179 164 158 172
-0.078125 0.292969 -0.016712 216 217 221
-0.074219 0.292969 -0.026781 231 232 232
-0.070312 0.292969 -0.033374 208 208 205
-0.066406 0.292969 -0.039079 151 143 112
-0.062500 0.292969 -0.045196 178 153 107
-0.058594 0.292969 -0.050403 187 150 100
-0.054688 0.292969 -0.055261 193 142 89
-0.050781 0.292969 -0.059418 200 142 90
-0.046875 0.292969 -0.064203 206 145 94
-0.042969 0.292969 -0.068353 213 149 96
-0.039062 0.292969 -0.072550 218 154 101
-0.035156 0.292969 -0.076478 220 156 102
-0.031250 0.292969 -0.080293 221 157 103
-0.027344 0.292969 -0.083520 221 156 102
-0.023438 0.292969 -0.086448 217 152 97
-0.019531 0.292969 -0.089239 212 148 94
-0.015625 0.292969 -0.091745 202 142 89
-0.011719 0.292969 -0.094176 190 139 88
-0.007812 0.292969 -0.096595 177 132 81
-0.003906 0.292969 -0.099678 142 100 58
0.000000 0.292969 -0.103123 104 60 41
0.003906 0.292969 -0.105793 134 117 124
0.007812 0.292969 -0.108251 184 186 200
0.011719 0.292969 -0.110304 184 190 206
0.015625 0.292969 -0.112106 156 163 182
0.019531 0.292969 -0.114020 131 141 160
0.023438 0.292969 -0.115944 127 138 157
0.027344 0.292969 -0.117735 117 129 150
0.031250 0.292969 -0.119303 120 132 154
0.035156 0.292969 -0.120471 146 158 179
0.039062 0.292969 -0.121368 172 183 202
0.042969 0.292969 -0.122256 172 182 202
0.046875 0.292969 -0.122971 180 188 206
0.050781 0.292969 -0.123422 193 201 219
0.054688 0.292969 -0.123663 188 195 213
0.058594 0.292969 -0.123846 200 198 206
0.062500 0.292969 -0.123903 164 161 170
0.066406 0.292969 -0.123865 147 144 151
0.070312 0.292969 -0.123782 141 136 140
0.074219 0.292969 -0.123548 162 156 158
0.078125 0.292969 -0.123261 175 166 167
0.082031 0.292969 -0.122841 190 182 180
0.085938 0.292969 -0.122297 182 172 171
0.089844 0.292969 -0.121604 185 175 174
0.093750 0.292969 -0.120797 191 182 183
0.097656 0.292969 -0.119967 189 180 183
0.101562 0.292969 -0.119065 169 162 169
0.105469 0.292969 -0.118116 149 143 153
0.109375 0.292969 -0.117057 149 145 159
0.113281 0.292969 -0.115921 170 166 181
0.117188 0.292969 -0.114761 188 185 202
0.121094 0.292969 -0.113530 176 176 177
0.125000 0.292969 -0.112306 212 214 215
0.128906 0.292969 -0.111154 202 207 205
0.132812 0.292969 -0.110085 204 208 205
0.136719 0.292969 -0.108960 210 212 210
0.140625 0.292969 -0.107775 208 210 208
0.144531 0.292969 -0.106517 213 214 213
0.148438 0.292969 -0.105057 214 214 213
0.152344 0.292969 -0.103626 214 214 213
0.156250 0.292969 -0.102019 212 212 211
0.160156 0.292969 -0.100208 212 211 210
0.164062 0.292969 -0.098248 212 211 210
0.167969 0.292969 -0.096112 213 212 211
0.171875 0.292969 -0.093919 213 212 211
0.175781 0.292969 -0.091911 213 212 211
0.179688 0.292969 -0.090000 213 211 211
0.183594 0.292969 -0.088105 213 210 210
0.187500 0.292969 -0.086346 211 208 208
0.191406 0.292969 -0.084313 208 204 204
0.195312 0.292969 -0.082181 202 198 198
0.199219 0.292969 -0.079897 198 194 193
0.203125 0.292969 -0.077478 194 191 190
0.207031 0.292969 -0.074997 182 181 180
0.210938 0.292969 -0.072367 170 169 169
0.214844 0.292969 -0.069567 171 171 171
0.218750 0.292969 -0.066506 181 181 181
0.222656 0.292969 -0.062703 191 191 191
0.226562 0.292969 -0.058345 196 196 196
0.230469 0.292969 -0.053776 190 191 192
0.234375 0.292969 -0.048696 179 178 181
0.238281 0.292969 -0.043344 175 171 174
0.242188 0.292969 -0.037425 178 173 176
0.246094 0.292969 -0.030957 181 177 179
0.250000 0.292969 -0.023776 189 186 187
0.253906 0.292969 -0.014563 192 192 192
0.257812 0.292969 -0.003607 187 186 187
0.261719 0.292969 0.010183 180 179 180
0.265625 0.292969 0.020061 177 176 177
0.269531 0.292969 0.028578 163 161 163
0.273438 0.292969 0.035857 132 129 134
0.277344 0.292969 0.043557 121 118 126
0.281250 0.292969 0.042782 127 118 135
-0.078125 0.289062 -0.017849 193 195 200
-0.074219 0.289062 -0.025725 220 221 220
-0.070312 0.289062 -0.032059 200 202 199
-0.066406 0.289062 -0.037755 137 135 109
-0.062500 0.289062 -0.043777 173 153 107
-0.058594 0.289062 -0.048962 185 150 101
-0.054688 0.289062 -0.053635 190 138 87
-0.050781 0.289062 -0.057829 199 140 88
-0.046875 0.289062 -0.062338 206 144 93
-0.042969 0.289062 -0.066299 213 149 96
-0.039062 0.289062 -0.070599 218 154 100
-0.035156 0.289062 -0.074673 220 156 102
-0.031250 0.289062 -0.078631 221 156 102
-0.027344 0.289062 -0.082020 220 154 99
-0.023438 0.289062 -0.085079 215 147 93
-0.019531 0.289062 -0.088009 209 143 90
-0.015625 0.289062 -0.090692 199 138 87
-0.011719 0.289062 -0.093311 186 135 86
-0.007812 0.289062 -0.095944 172 128 80
-0.003906 0.289062 -0.099242 144 104 63
0.000000 0.289062 -0.102708 116 70 52
0.003906 0.289062 -0.105417 160 148 158
0.007812 0.289062 -0.107974 180 181 196
0.011719 0.289062 -0.110192 175 180 196
0.015625 0.289062 -0.112085 174 181 200
0.019531 0.289062 -0.114148 180 187 208
0.023438 0.289062 -0.116053 185 195 217
0.027344 0.289062 -0.117849 159 171 192
0.031250 0.289062 -0.119431 169 180 204
0.035156 0.289062 -0.120650 172 184 208
0.039062 0.289062 -0.121605 183 195 218
0.042969 0.289062 -0.122510 178 188 210
0.046875 0.289062 -0.123213 169 180 200
0.050781 0.289062 -0.123672 175 185 204
0.054688 0.289062 -0.123905 166 176 194
0.058594 0.289062 -0.124067 192 191 199
0.062500 0.289062 -0.124107 165 164 171
0.066406 0.289062 -0.124046 151 148 154
0.070312 0.289062 -0.123953 147 143 146
0.074219 0.289062 -0.123705 155 149 151
0.078125 0.289062 -0.123409 166 158 156
0.082031 0.289062 -0.122993 177 167 166
0.085938 0.289062 -0.122450 171 161 159
0.089844 0.289062 -0.121757 181 171 169
0.093750 0.289062 -0.120952 182 172 171
0.097656 0.289062 -0.120129 174 165 168
0.101562 0.289062 -0.119237 156 150 154
0.105469 0.289062 -0.118307 142 137 144
0.109375 0.289062 -0.117274 148 145 156
0.113281 0.289062 -0.116167 175 172 185
0.117188 0.289062 -0.115056 199 197 210
0.121094 0.289062 -0.113876 168 168 169
0.125000 0.289062 -0.112710 215 217 217
0.128906 0.289062 -0.111598 201 206 204
0.132812 0.289062 -0.110543 202 206 203
0.136719 0.289062 -0.109453 209 212 209
0.140625 0.289062 -0.108286 206 207 206
0.144531 0.289062 -0.107050 212 213 212
0.148438 0.289062 -0.105622 213 213 213
0.152344 0.289062 -0.104163 214 214 213
0.156250 0.289062 -0.102499 213 212 211
0.160156 0.289062 -0.100620 212 212 211
0.164062 0.289062 -0.098590 213 212 211
0.167969 0.289062 -0.096380 213 212 211
0.171875 0.289062 -0.094138 214 213 212
0.175781 0.289062 -0.092036 214 212 212
0.179688 0.289062 -0.090040 214 212 212
0.183594 0.289062 -0.088112 213 212 211
0.187500 0.289062 -0.086305 212 210 209
0.191406 0.289062 -0.084316 209 207 206
0.195312 0.289062 -0.082285 205 202 202
0.199219 0.289062 -0.080155 200 197 197
0.203125 0.289062 -0.077788 197 194 193
0.207031 0.289062 -0.075412 188 187 186
0.210938 0.289062 -0.072895 179 178 177
0.214844 0.289062 -0.070109 176 176 175
0.218750 0.289062 -0.067042 178 179 178
0.222656 0.289062 -0.063355 185 185 185
0.226562 0.289062 -0.059060 190 191 191
0.230469 0.289062 -0.054451 190 191 191
0.234375 0.289062 -0.049307 184 185 186
0.238281 0.289062 -0.043733 180 180 181
0.242188 0.289062 -0.037513 179 178 179
0.246094 0.289062 -0.030735 178 176 177
0.250000 0.289062 -0.022866 176 175 175
0.253906 0.289062 -0.013215 172 171 171
0.257812 0.289062 -0.001512 165 165 165
0.261719 0.289062 0.011405 162 161 161
0.265625 0.289062 0.019919 162 160 161
0.269531 0.289062 0.027819 153 150 153
0.273438 0.289062 0.035099 132 129 134
0.277344 0.289062 0.041206 123 121 128
0.281250 0.289062 0.049000 125 113 131
-0.078125 0.285156 -0.018305 204 208 213
-0.074219 0.285156 -0.025148 226 228 226
-0.070312 0.285156 -0.031132 212 215 211
-0.066406 0.285156 -0.036564 143 144 124
-0.062500 0.285156 -0.042306 165 144 103
-0.058594 0.285156 -0.047536 183 147 101
-0.054688 0.285156 -0.052003 189 136 87
-0.050781 0.285156 -0.056128 198 138 86
-0.046875 0.285156 -0.060498 206 143 92
-0.042969 0.285156 -0.064320 214 148 95
-0.039062 0.285156 -0.068692 218 154 100
-0.035156 0.285156 -0.072881 221 157 102
-0.031250 0.285156 -0.076938 221 157 101
-0.027344 0.285156 -0.080456 219 152 97
-0.023438 0.285156 -0.083626 212 143 90
-0.019531 0.285156 -0.086689 206 139 87
-0.015625 0.285156 -0.089574 197 135 85
-0.011719 0.285156 -0.092366 182 128 82
-0.007812 0.285156 -0.095111 163 118 75
-0.003906 0.285156 -0.098588 136 99 61
0.000000 0.285156 -0.102117 125 89 78
0.003906 0.285156 -0.104913 187 181 192
0.007812 0.285156 -0.107542 181 179 193
0.011719 0.285156 -0.109891 160 163 180
0.015625 0.285156 -0.111970 157 162 180
0.019531 0.285156 -0.114164 159 164 186
0.023438 0.285156 -0.116134 155 166 187
0.027344 0.285156 -0.117929 152 162 186
0.031250 0.285156 -0.119529 175 187 211
0.035156 0.285156 -0.120801 173 184 208
0.039062 0.285156 -0.121819 179 190 214
0.042969 0.285156 -0.122735 177 188 212
0.046875 0.285156 -0.123446 161 173 195
0.050781 0.285156 -0.123920 170 179 202
0.054688 0.285156 -0.124149 167 177 196
0.058594 0.285156 -0.124301 162 166 175
0.062500 0.285156 -0.124316 161 163 171
0.066406 0.285156 -0.124233 172 172 179
0.070312 0.285156 -0.124123 179 178 184
0.074219 0.285156 -0.123871 170 165 169
0.078125 0.285156 -0.123582 164 158 160
0.082031 0.285156 -0.123164 171 162 163
0.085938 0.285156 -0.122607 172 162 161
0.089844 0.285156 -0.121895 181 171 170
0.093750 0.285156 -0.121068 173 164 165
0.097656 0.285156 -0.120239 171 162 165
0.101562 0.285156 -0.119348 175 168 175
0.105469 0.285156 -0.118422 178 175 184
0.109375 0.285156 -0.117414 182 180 191
0.113281 0.285156 -0.116353 194 192 206
0.117188 0.285156 -0.115276 203 202 215
0.121094 0.285156 -0.114122 162 162 162
0.125000 0.285156 -0.113002 217 219 219
0.128906 0.285156 -0.111902 202 207 204
0.132812 0.285156 -0.110833 203 208 205
0.136719 0.285156 -0.109764 210 213 211
0.140625 0.285156 -0.108613 205 207 205
0.144531 0.285156 -0.107387 212 213 212
0.148438 0.285156 -0.105963 213 213 212
0.152344 0.285156 -0.104476 214 214 213
0.156250 0.285156 -0.102785 213 213 212
0.160156 0.285156 -0.100854 213 213 212
0.164062 0.285156 -0.098755 214 213 212
0.167969 0.285156 -0.096463 214 213 213
0.171875 0.285156 -0.094158 215 214 213
0.175781 0.285156 -0.091972 215 214 213
0.179688 0.285156 -0.089902 216 214 214
0.183594 0.285156 -0.087995 215 214 213
0.187500 0.285156 -0.086168 215 213 212
0.191406 0.285156 -0.084189 213 211 211
0.195312 0.285156 -0.082286 210 208 207
0.199219 0.285156 -0.080189 206 204 204
0.203125 0.285156 -0.077931 203 201 200
0.207031 0.285156 -0.075712 196 194 194
0.210938 0.285156 -0.073317 189 187 187
0.214844 0.285156 -0.070640 184 182 182
0.218750 0.285156 -0.067667 181 181 181
0.222656 0.285156 -0.064043 182 182 182
0.226562 0.285156 -0.059695 183 183 184
0.230469 0.285156 -0.055057 182 182 182
0.234375 0.285156 -0.049789 177 176 177
0.238281 0.285156 -0.043901 171 170 172
0.242188 0.285156 -0.037389 166 165 166
0.246094 0.285156 -0.030162 161 160 161
0.250000 0.285156 -0.021328 156 154 155
0.253906 0.285156 -0.011519 151 150 150
0.257812 0.285156 0.001665 149 148 149
0.261719 0.285156 0.012077 151 150 150
0.265625 0.285156 0.019813 155 152 154
0.269531 0.285156 0.026895 152 149 151
0.273438 0.285156 0.033366 143 139 144
0.277344 0.285156 0.037704 146 141 150
0.281250 0.285156 0.046271 164 158 172
-0.082031 0.281250 -0.007622 44 51 97
-0.078125 0.281250 -0.017957 191 195 199
-0.074219 0.281250 -0.024014 221 224 222
-0.070312 0.281250 -0.030117 212 215 212
-0.066406 0.281250 -0.035469 142 142 127
-0.062500 0.281250 -0.041017 153 128 90
-0.058594 0.281250 -0.046271 181 139 96
-0.054688 0.281250 -0.050606 191 137 88
-0.050781 0.281250 -0.054513 198 138 86
-0.046875 0.281250 -0.058693 206 142 90
-0.042969 0.281250 -0.062482 214 147 94
-0.039062 0.281250 -0.066864 218 154 99
-0.035156 0.281250 -0.071031 221 157 101
-0.031250 0.281250 -0.075164 221 156 100
-0.027344 0.281250 -0.078788 217 151 95
-0.023438 0.281250 -0.082087 211 143 89
-0.019531 0.281250 -0.085325 205 139 87
-0.015625 0.281250 -0.088379 196 134 86
-0.011719 0.281250 -0.091341 180 125 82
-0.007812 0.281250 -0.094250 158 113 75
-0.003906 0.281250 -0.097800 127 93 59
0.000000 0.281250 -0.101325 142 121 121
0.003906 0.281250 -0.104250 184 179 192
0.007812 0.281250 -0.107021 187 186 200
0.011719 0.281250 -0.109546 190 190 208
0.015625 0.281250 -0.111803 182 187 205
0.019531 0.281250 -0.114066 159 165 186
0.023438 0.281250 -0.116182 135 143 165
0.027344 0.281250 -0.117944 132 142 167
0.031250 0.281250 -0.119575 171 183 207
0.035156 0.281250 -0.120904 169 180 206
0.039062 0.281250 -0.121977 175 187 212
0.042969 0.281250 -0.122921 174 186 211
0.046875 0.281250 -0.123656 154 165 188
0.050781 0.281250 -0.124149 160 169 192
0.054688 0.281250 -0.124385 161 170 192
0.058594 0.281250 -0.124542 156 164 174
0.062500 0.281250 -0.124550 149 156 167
0.066406 0.281250 -0.124461 157 162 172
0.070312 0.281250 -0.124342 174 177 185
0.074219 0.281250 -0.124081 176 177 182
0.078125 0.281250 -0.123782 180 178 183
0.082031 0.281250 -0.123344 179 174 178
0.085938 0.281250 -0.122780 175 169 171
0.089844 0.281250 -0.122053 183 178 179
0.093750 0.281250 -0.121210 174 168 172
0.097656 0.281250 -0.120397 177 172 178
0.101562 0.281250 -0.119511 199 196 205
0.105469 0.281250 -0.118580 213 213 223
0.109375 0.281250 -0.117586 207 209 222
0.113281 0.281250 -0.116552 191 194 208
0.117188 0.281250 -0.115507 179 182 199
0.121094 0.281250 -0.114374 156 156 157
0.125000 0.281250 -0.113277 213 214 214
0.128906 0.281250 -0.112189 201 205 203
0.132812 0.281250 -0.111111 202 206 203
0.136719 0.281250 -0.110049 210 212 210
0.140625 0.281250 -0.108900 205 206 204
0.144531 0.281250 -0.107676 211 212 211
0.148438 0.281250 -0.106261 212 212 211
0.152344 0.281250 -0.104758 214 214 213
0.156250 0.281250 -0.103052 214 214 213
0.160156 0.281250 -0.101069 214 214 213
0.164062 0.281250 -0.098916 215 214 214
0.167969 0.281250 -0.096572 216 215 215
0.171875 0.281250 -0.094229 217 216 215
0.175781 0.281250 -0.092006 218 217 216
0.179688 0.281250 -0.089883 219 218 217
0.183594 0.281250 -0.087950 219 218 218
0.187500 0.281250 -0.086072 219 218 218
0.191406 0.281250 -0.084151 218 217 216
0.195312 0.281250 -0.082327 216 215 214
0.199219 0.281250 -0.080206 213 212 211
0.203125 0.281250 -0.078065 208 207 206
0.207031 0.281250 -0.075933 201 200 200
0.210938 0.281250 -0.073623 194 192 192
0.214844 0.281250 -0.071069 187 185 186
0.218750 0.281250 -0.068233 183 182 183
0.222656 0.281250 -0.064674 181 180 181
0.226562 0.281250 -0.060256 180 180 181
0.230469 0.281250 -0.055520 178 178 179
0.234375 0.281250 -0.050114 174 173 174
0.238281 0.281250 -0.043991 168 166 168
0.242188 0.281250 -0.037019 161 159 160
0.246094 0.281250 -0.028903 153 151 152
0.250000 0.281250 -0.019291 145 142 144
0.253906 0.281250 -0.008619 139 137 138
0.257812 0.281250 0.004110 140 138 139
0.261719 0.281250 0.012681 143 141 142
0.265625 0.281250 0.019816 147 144 146
0.269531 0.281250 0.026309 143 139 142
0.273438 0.281250 0.032443 130 126 130
0.277344 0.281250 0.036675 123 118 126
0.281250 0.281250 0.042065 127 118 135
0.285156 0.281250 -0.006302 202 194 195
-0.082031 0.277344 -0.008009 30 33 59
-0.078125 0.277344 -0.016719 166 168 173
-0.074219 0.277344 -0.022788 207 210 207
-0.070312 0.277344 -0.029010 200 203 200
-0.066406 0.277344 -0.034481 130 130 114
-0.062500 0.277344 -0.040045 155 126 88
-0.058594 0.277344 -0.045004 182 138 93
-0.054688 0.277344 -0.049081 192 137 87
-0.050781 0.277344 -0.052937 198 137 85
-0.046875 0.277344 -0.056800 205 141 89
-0.042969 0.277344 -0.060469 214 147 94
-0.039062 0.277344 -0.064899 218 153 98
-0.035156 0.277344 -0.069123 220 156 100
-0.031250 0.277344 -0.073287 220 155 98
-0.027344 0.277344 -0.077051 216 150 94
-0.023438 0.277344 -0.080474 210 142 89
-0.019531 0.277344 -0.083803 203 137 87
-0.015625 0.277344 -0.087007 195 135 87
-0.011719 0.277344 -0.090138 182 130 90
-0.007812 0.277344 -0.093222 160 117 85
-0.003906 0.277344 -0.096828 127 99 73
0.000000 0.277344 -0.100395 153 139 145
0.003906 0.277344 -0.103449 197 193 206
0.007812 0.277344 -0.106328 203 201 215
0.011719 0.277344 -0.109068 174 176 190
0.015625 0.277344 -0.111530 178 181 200
0.019531 0.277344 -0.113885 173 179 198
0.023438 0.277344 -0.116107 173 180 202
0.027344 0.277344 -0.117900 178 188 210
0.031250 0.277344 -0.119540 163 173 197
0.035156 0.277344 -0.120941 166 178 202
0.039062 0.277344 -0.122077 171 183 206
0.042969 0.277344 -0.123070 159 171 194
0.046875 0.277344 -0.123843 163 173 197
0.050781 0.277344 -0.124365 171 180 203
0.054688 0.277344 -0.124618 161 170 193
0.058594 0.277344 -0.124767 163 178 192
0.062500 0.277344 -0.124765 148 161 174
0.066406 0.277344 -0.124671 157 168 179
0.070312 0.277344 -0.124543 157 166 176
0.074219 0.277344 -0.124265 162 168 177
0.078125 0.277344 -0.123946 179 182 191
0.082031 0.277344 -0.123472 179 178 184
0.085938 0.277344 -0.122895 181 178 185
0.089844 0.277344 -0.122181 174 171 178
0.093750 0.277344 -0.121356 152 149 156
0.097656 0.277344 -0.120543 161 160 168
0.101562 0.277344 -0.119622 182 184 196
0.105469 0.277344 -0.118679 206 210 222
0.109375 0.277344 -0.117676 201 208 224
0.113281 0.277344 -0.116633 176 185 201
0.117188 0.277344 -0.115617 185 193 211
0.121094 0.277344 -0.114498 188 188 189
0.125000 0.277344 -0.113401 195 197 197
0.128906 0.277344 -0.112338 202 205 203
0.132812 0.277344 -0.111276 206 210 207
0.136719 0.277344 -0.110226 207 209 207
0.140625 0.277344 -0.109085 207 208 207
0.144531 0.277344 -0.107876 208 209 208
0.148438 0.277344 -0.106471 213 213 212
0.152344 0.277344 -0.104938 214 213 213
0.156250 0.277344 -0.103215 214 214 213
0.160156 0.277344 -0.101185 215 214 214
0.164062 0.277344 -0.098984 216 215 215
0.167969 0.277344 -0.096610 217 216 216
0.171875 0.277344 -0.094247 218 217 217
0.175781 0.277344 -0.092015 219 218 218
0.179688 0.277344 -0.089833 220 219 219
0.183594 0.277344 -0.087855 220 219 219
0.187500 0.277344 -0.085929 220 219 219
0.191406 0.277344 -0.084040 219 218 218
0.195312 0.277344 -0.082167 218 217 217
0.199219 0.277344 -0.080143 215 214 214
0.203125 0.277344 -0.078125 210 209 210
0.207031 0.277344 -0.076077 203 202 203
0.210938 0.277344 -0.073823 194 193 194
0.214844 0.277344 -0.071345 186 184 186
0.218750 0.277344 -0.068582 180 179 181
0.222656 0.277344 -0.065046 176 175 177
0.226562 0.277344 -0.060536 173 172 174
0.230469 0.277344 -0.055652 170 168 171
0.234375 0.277344 -0.050019 164 163 165
0.238281 0.277344 -0.043567 159 156 159
0.242188 0.277344 -0.036146 152 149 152
0.246094 0.277344 -0.027096 146 143 145
0.250000 0.277344 -0.017071 140 136 139
0.253906 0.277344 -0.004217 136 133 134
0.257812 0.277344 0.005605 137 134 136
0.261719 0.277344 0.013227 141 138 139
0.265625 0.277344 0.019643 145 141 143
0.269531 0.277344 0.025787 142 137 141
0.273438 0.277344 0.031921 129 124 128
0.277344 0.277344 0.036738 119 113 122
0.281250 0.277344 0.039302 125 113 131
0.285156 0.277344 0.005369 204 195 196
-0.082031 0.273438 -0.006467 52 61 109
-0.078125 0.273438 -0.015021 204 208 213
-0.074219 0.273438 -0.021352 198 201 198
-0.070312 0.273438 -0.027734 186 191 186
-0.066406 0.273438 -0.033361 126 127 109
-0.062500 0.273438 -0.039012 162 134 98
-0.058594 0.273438 -0.043621 183 140 93
-0.054688 0.273438 -0.047390 189 133 84
-0.050781 0.273438 -0.051037 195 131 82
-0.046875 0.273438 -0.054851 204 138 88
-0.042969 0.273438 -0.058545 213 146 93
-0.039062 0.273438 -0.062921 218 152 97
-0.035156 0.273438 -0.067153 219 155 98
-0.031250 0.273438 -0.071340 218 153 96
-0.027344 0.273438 -0.075180 214 149 93
-0.023438 0.273438 -0.078773 209 143 90
-0.019531 0.273438 -0.082256 200 135 86
-0.015625 0.273438 -0.085568 192 133 88
-0.011719 0.273438 -0.088871 181 131 96
-0.007812 0.273438 -0.092102 147 107 85
-0.003906 0.273438 -0.095643 103 82 71
0.000000 0.273438 -0.099197 158 149 156
0.003906 0.273438 -0.102395 201 198 209
0.007812 0.273438 -0.105469 185 183 196
0.011719 0.273438 -0.108429 181 183 197
0.015625 0.273438 -0.111110 163 166 182
0.019531 0.273438 -0.113623 180 187 205
0.023438 0.273438 -0.115906 176 184 204
0.027344 0.273438 -0.117782 194 205 226
0.031250 0.273438 -0.119431 178 189 210
0.035156 0.273438 -0.120903 169 179 203
0.039062 0.273438 -0.122110 166 177 198
0.042969 0.273438 -0.123163 161 172 193
0.046875 0.273438 -0.123972 162 173 194
0.050781 0.273438 -0.124520 169 176 198
0.054688 0.273438 -0.124789 167 174 193
0.058594 0.273438 -0.124941 164 184 203
0.062500 0.273438 -0.124945 152 172 188
0.066406 0.273438 -0.124858 164 181 195
0.070312 0.273438 -0.124730 163 176 189
0.074219 0.273438 -0.124455 165 175 188
0.078125 0.273438 -0.124131 179 185 196
0.082031 0.273438 -0.123627 176 178 189
0.085938 0.273438 -0.123021 175 175 185
0.089844 0.273438 -0.122295 184 184 194
0.093750 0.273438 -0.121468 176 176 186
0.097656 0.273438 -0.120641 166 168 180
0.101562 0.273438 -0.119707 184 187 202
0.105469 0.273438 -0.118769 187 194 209
0.109375 0.273438 -0.117759 172 183 201
0.113281 0.273438 -0.116712 182 195 214
0.117188 0.273438 -0.115704 184 199 217
0.121094 0.273438 -0.114591 192 193 193
0.125000 0.273438 -0.113493 198 200 200
0.128906 0.273438 -0.112440 205 208 206
0.132812 0.273438 -0.111387 206 209 207
0.136719 0.273438 -0.110337 207 208 207
0.140625 0.273438 -0.109191 206 207 206
0.144531 0.273438 -0.107981 207 207 207
0.148438 0.273438 -0.106586 211 211 211
0.152344 0.273438 -0.105052 212 212 212
0.156250 0.273438 -0.103347 213 212 212
0.160156 0.273438 -0.101303 214 213 213
0.164062 0.273438 -0.099086 214 214 214
0.167969 0.273438 -0.096714 216 215 215
0.171875 0.273438 -0.094340 217 216 216
0.175781 0.273438 -0.092091 218 217 217
0.179688 0.273438 -0.089904 218 217 218
0.183594 0.273438 -0.087962 217 216 217
0.187500 0.273438 -0.085972 216 215 216
0.191406 0.273438 -0.083981 215 215 215
0.195312 0.273438 -0.082169 216 215 216
0.199219 0.273438 -0.080182 216 216 216
0.203125 0.273438 -0.078206 214 213 214
0.207031 0.273438 -0.076206 208 207 208
0.210938 0.273438 -0.074016 199 198 200
0.214844 0.273438 -0.071610 190 189 192
0.218750 0.273438 -0.068844 184 182 187
0.222656 0.273438 -0.065277 180 178 182
0.226562 0.273438 -0.060698 176 174 179
0.230469 0.273438 -0.055640 172 170 176
0.234375 0.273438 -0.049758 167 165 170
0.238281 0.273438 -0.042937 162 159 164
0.242188 0.273438 -0.034632 157 153 158
0.246094 0.273438 -0.024443 153 147 152
0.250000 0.273438 -0.013400 148 142 147
0.253906 0.273438 -0.000705 144 139 142
0.257812 0.273438 0.006961 144 140 142
0.261719 0.273438 0.014003 147 143 145
0.265625 0.273438 0.019849 151 146 148
0.269531 0.273438 0.025657 151 144 147
0.273438 0.273438 0.031384 143 137 141
0.277344 0.273438 0.036551 142 135 143
0.281250 0.273438 0.041474 164 150 163
0.285156 0.273438 0.025763 191 181 185
-0.078125 0.269531 -0.013495 191 195 199
-0.074219 0.269531 -0.019687 221 224 222
-0.070312 0.269531 -0.026212 170 175 171
-0.066406 0.269531 -0.032084 122 120 102
-0.062500 0.269531 -0.037575 162 133 98
-0.058594 0.269531 -0.041941 180 135 91
-0.054688 0.269531 -0.045461 185 128 81
-0.050781 0.269531 -0.049052 193 128 80
-0.046875 0.269531 -0.052470 204 137 87
-0.042969 0.269531 -0.056444 213 146 93
-0.039062 0.269531 -0.060834 218 152 96
-0.035156 0.269531 -0.065061 218 154 97
-0.031250 0.269531 -0.069331 216 152 94
-0.027344 0.269531 -0.073309 212 148 92
-0.023438 0.269531 -0.077095 206 143 90
-0.019531 0.269531 -0.080716 196 132 86
-0.015625 0.269531 -0.084053 183 124 86
-0.011719 0.269531 -0.087474 169 121 93
-0.007812 0.269531 -0.090812 122 90 75
-0.003906 0.269531 -0.094281 99 88 83
0.000000 0.269531 -0.097706 173 169 176
0.003906 0.269531 -0.101037 189 187 197
0.007812 0.269531 -0.104404 182 182 193
0.011719 0.269531 -0.107617 181 183 197
0.015625 0.269531 -0.110555 164 167 183
0.019531 0.269531 -0.113236 178 185 202
0.023438 0.269531 -0.115583 178 185 204
0.027344 0.269531 -0.117553 192 199 220
0.031250 0.269531 -0.119253 182 193 212
0.035156 0.269531 -0.120792 168 178 198
0.039062 0.269531 -0.122081 165 173 193
0.042969 0.269531 -0.123197 171 179 199
0.046875 0.269531 -0.124057 170 177 196
0.050781 0.269531 -0.124637 169 175 193
0.054688 0.269531 -0.124916 174 180 198
0.058594 0.269531 -0.125084 156 182 202
0.062500 0.269531 -0.125107 148 172 192
0.066406 0.269531 -0.125026 164 184 200
0.070312 0.269531 -0.124897 164 181 196
0.074219 0.269531 -0.124629 165 177 191
0.078125 0.269531 -0.124307 177 185 197
0.082031 0.269531 -0.123786 172 176 188
0.085938 0.269531 -0.123164 169 171 183
0.089844 0.269531 -0.122414 190 190 202
0.093750 0.269531 -0.121551 182 183 195
0.097656 0.269531 -0.120711 161 165 177
0.101562 0.269531 -0.119782 185 191 205
0.105469 0.269531 -0.118833 189 198 215
0.109375 0.269531 -0.117826 174 187 204
0.113281 0.269531 -0.116786 189 204 223
0.117188 0.269531 -0.115771 165 181 201
0.121094 0.269531 -0.114675 202 202 202
0.125000 0.269531 -0.113582 205 207 206
0.128906 0.269531 -0.112526 210 212 211
0.132812 0.269531 -0.111480 206 208 207
0.136719 0.269531 -0.110425 207 208 207
0.140625 0.269531 -0.109277 207 207 206
0.144531 0.269531 -0.108077 207 207 207
0.148438 0.269531 -0.106698 211 210 210
0.152344 0.269531 -0.105174 211 211 211
0.156250 0.269531 -0.103493 212 211 211
0.160156 0.269531 -0.101449 212 212 212
0.164062 0.269531 -0.099230 213 212 212
0.167969 0.269531 -0.096879 214 213 214
0.171875 0.269531 -0.094516 216 215 215
0.175781 0.269531 -0.092285 217 216 217
0.179688 0.269531 -0.090156 217 216 217
0.183594 0.269531 -0.088078 215 214 215
0.187500 0.269531 -0.085948 212 211 212
0.191406 0.269531 -0.083999 211 210 211
0.195312 0.269531 -0.082267 212 212 213
0.199219 0.269531 -0.080327 214 214 215
0.203125 0.269531 -0.078345 212 212 214
0.207031 0.269531 -0.076339 207 206 209
0.210938 0.269531 -0.074114 198 197 201
0.214844 0.269531 -0.071671 188 187 193
0.218750 0.269531 -0.068908 183 181 188
0.222656 0.269531 -0.065312 179 177 185
0.226562 0.269531 -0.060538 177 175 184
0.230469 0.269531 -0.055151 176 173 182
0.234375 0.269531 -0.049004 173 169 179
0.238281 0.269531 -0.041761 171 165 175
0.242188 0.269531 -0.032086 167 161 170
0.246094 0.269531 -0.021072 163 155 163
0.250000 0.269531 -0.008097 159 151 158
0.253906 0.269531 0.001653 156 148 153
0.257812 0.269531 0.008469 155 148 152
0.261719 0.269531 0.014946 157 150 153
0.265625 0.269531 0.020345 159 152 154
0.269531 0.269531 0.025932 158 150 153
0.273438 0.269531 0.031582 153 146 150
0.277344 0.269531 0.036517 157 149 156
0.281250 0.269531 0.043629 183 171 180
0.285156 0.269531 0.045597 202 194 195
-0.074219 0.265625 -0.016697 207 210 207
-0.070312 0.265625 -0.023533 200 203 200
-0.066406 0.265625 -0.030747 120 112 92
-0.062500 0.265625 -0.036104 158 127 92
-0.058594 0.265625 -0.039983 176 129 86
-0.054688 0.265625 -0.043173 184 126 79
-0.050781 0.265625 -0.046554 193 129 80
-0.046875 0.265625 -0.050202 204 137 87
-0.042969 0.265625 -0.054095 213 146 92
-0.039062 0.265625 -0.058486 217 151 95
-0.035156 0.265625 -0.062837 217 153 95
-0.031250 0.265625 -0.067281 214 150 92
-0.027344 0.265625 -0.071513 208 146 91
-0.023438 0.265625 -0.075460 201 140 90
-0.019531 0.265625 -0.079111 188 130 86
-0.015625 0.265625 -0.082540 170 117 84
-0.011719 0.265625 -0.086028 148 108 84
-0.007812 0.265625 -0.089328 106 86 73
-0.003906 0.265625 -0.092659 131 126 127
0.000000 0.265625 -0.095946 201 199 203
0.003906 0.265625 -0.099527 173 171 181
0.007812 0.265625 -0.103197 197 197 208
0.011719 0.265625 -0.106680 176 179 191
0.015625 0.265625 -0.109864 182 188 203
0.019531 0.265625 -0.112683 170 177 194
0.023438 0.265625 -0.115122 175 182 200
0.027344 0.265625 -0.117186 178 186 204
0.031250 0.265625 -0.118982 183 190 209
0.035156 0.265625 -0.120601 173 181 200
0.039062 0.265625 -0.121978 171 178 196
0.042969 0.265625 -0.123158 181 188 205
0.046875 0.265625 -0.124083 173 179 194
0.050781 0.265625 -0.124706 162 168 184
0.054688 0.265625 -0.125012 173 179 194
0.058594 0.265625 -0.125203 152 179 199
0.062500 0.265625 -0.125244 145 171 190
0.066406 0.265625 -0.125175 161 183 199
0.070312 0.265625 -0.125056 161 178 194
0.074219 0.265625 -0.124790 160 172 187
0.078125 0.265625 -0.124465 171 179 191
0.082031 0.265625 -0.123944 168 172 182
0.085938 0.265625 -0.123313 167 167 177
0.089844 0.265625 -0.122547 162 160 171
0.093750 0.265625 -0.121678 161 161 171
0.097656 0.265625 -0.120840 171 173 185
0.101562 0.265625 -0.119885 190 196 208
0.105469 0.265625 -0.118900 189 198 213
0.109375 0.265625 -0.117888 182 194 210
0.113281 0.265625 -0.116850 177 193 209
0.117188 0.265625 -0.115829 153 169 187
0.121094 0.265625 -0.114750 210 210 210
0.125000 0.265625 -0.113661 212 214 214
0.128906 0.265625 -0.112607 214 216 215
0.132812 0.265625 -0.111566 210 212 211
0.136719 0.265625 -0.110503 211 212 211
0.140625 0.265625 -0.109361 210 210 209
0.144531 0.265625 -0.108175 209 209 209
0.148438 0.265625 -0.106816 211 211 211
0.152344 0.265625 -0.105318 211 211 211
0.156250 0.265625 -0.103671 211 211 211
0.160156 0.265625 -0.101642 211 211 211
0.164062 0.265625 -0.099423 211 211 211
0.167969 0.265625 -0.097066 211 211 211
0.171875 0.265625 -0.094756 212 212 212
0.175781 0.265625 -0.092583 212 212 212
0.179688 0.265625 -0.090323 211 210 211
0.183594 0.265625 -0.088182 208 207 207
0.187500 0.265625 -0.086024 204 203 204
0.191406 0.265625 -0.084102 204 203 204
0.195312 0.265625 -0.082385 208 207 208
0.199219 0.265625 -0.080460 212 211 213
0.203125 0.265625 -0.078456 212 211 214
0.207031 0.265625 -0.076414 207 206 210
0.210938 0.265625 -0.074083 198 197 202
0.214844 0.265625 -0.071575 188 186 193
0.218750 0.265625 -0.068703 181 179 187
0.222656 0.265625 -0.064950 177 174 184
0.226562 0.265625 -0.059981 174 171 182
0.230469 0.265625 -0.054318 174 170 182
0.234375 0.265625 -0.047758 172 167 179
0.238281 0.265625 -0.039678 170 164 176
0.242188 0.265625 -0.028658 167 159 170
0.246094 0.265625 -0.016471 163 154 164
0.250000 0.265625 -0.003407 160 150 159
0.253906 0.265625 0.004051 157 147 154
0.257812 0.265625 0.010408 156 147 152
0.261719 0.265625 0.016365 157 148 152
0.265625 0.265625 0.021306 158 149 152
0.269531 0.265625 0.026668 157 149 152
0.273438 0.265625 0.032400 154 146 150
0.277344 0.265625 0.037171 159 152 157
0.281250 0.265625 0.042553 182 172 179
0.285156 0.265625 0.052729 204 195 196
-0.070312 0.261719 -0.020151 186 191 186
-0.066406 0.261719 -0.028474 126 127 109
-0.062500 0.261719 -0.034086 148 117 83
-0.058594 0.261719 -0.037326 172 125 83
-0.054688 0.261719 -0.040858 183 125 79
-0.050781 0.261719 -0.043835 194 129 79
-0.046875 0.261719 -0.047887 204 136 85
-0.042969 0.261719 -0.051918 213 145 91
-0.039062 0.261719 -0.056280 217 150 94
-0.035156 0.261719 -0.060733 216 152 94
-0.031250 0.261719 -0.065377 211 149 91
-0.027344 0.261719 -0.069819 203 144 90
-0.023438 0.261719 -0.073974 195 141 91
-0.019531 0.261719 -0.077649 180 131 90
-0.015625 0.261719 -0.081057 155 113 87
-0.011719 0.261719 -0.084534 128 101 83
-0.007812 0.261719 -0.087844 123 114 105
-0.003906 0.261719 -0.090996 168 166 170
0.000000 0.261719 -0.094087 211 211 212
0.003906 0.261719 -0.097847 173 173 182
0.007812 0.261719 -0.101843 191 193 204
0.011719 0.261719 -0.105609 181 185 196
0.015625 0.261719 -0.109027 192 198 211
0.019531 0.261719 -0.111991 173 180 196
0.023438 0.261719 -0.114524 176 182 198
0.027344 0.261719 -0.116704 182 189 206
0.031250 0.261719 -0.118630 190 197 213
0.035156 0.261719 -0.120328 183 190 205
0.039062 0.261719 -0.121796 179 185 198
0.042969 0.261719 -0.123055 182 188 201
0.046875 0.261719 -0.124035 170 174 185
0.050781 0.261719 -0.124687 158 160 173
0.054688 0.261719 -0.125031 169 171 183
0.058594 0.261719 -0.125263 160 188 206
0.062500 0.261719 -0.125345 150 176 192
0.066406 0.261719 -0.125305 163 182 198
0.070312 0.261719 -0.125203 158 175 188
0.074219 0.261719 -0.124940 156 167 178
0.078125 0.261719 -0.124611 169 172 183
0.082031 0.261719 -0.124086 167 167 177
0.085938 0.261719 -0.123438 168 165 174
0.089844 0.261719 -0.122664 143 138 145
0.093750 0.261719 -0.121815 149 146 153
0.097656 0.261719 -0.120974 201 200 208
0.101562 0.261719 -0.120005 189 192 201
0.105469 0.261719 -0.119016 168 174 186
0.109375 0.261719 -0.117987 171 181 193
0.113281 0.261719 -0.116941 159 172 185
0.117188 0.261719 -0.115917 179 191 206
0.121094 0.261719 -0.114846 208 210 209
0.125000 0.261719 -0.113760 216 218 217
0.128906 0.261719 -0.112708 218 220 219
0.132812 0.261719 -0.111678 213 214 213
0.136719 0.261719 -0.110618 214 215 214
0.140625 0.261719 -0.109486 212 213 212
0.144531 0.261719 -0.108310 210 210 209
0.148438 0.261719 -0.106972 212 212 211
0.152344 0.261719 -0.105523 211 211 211
0.156250 0.261719 -0.103925 211 211 211
0.160156 0.261719 -0.101932 211 211 211
0.164062 0.261719 -0.099737 211 210 210
0.167969 0.261719 -0.097427 210 210 210
0.171875 0.261719 -0.095141 210 210 210
0.175781 0.261719 -0.092825 209 209 209
0.179688 0.261719 -0.090650 208 207 208
0.183594 0.261719 -0.088474 205 204 204
0.187500 0.261719 -0.086256 201 200 201
0.191406 0.261719 -0.084402 204 202 203
0.195312 0.261719 -0.082665 209 206 209
0.199219 0.261719 -0.080642 213 211 214
0.203125 0.261719 -0.078496 215 213 217
0.207031 0.261719 -0.076294 212 210 215
0.210938 0.261719 -0.073885 205 203 209
0.214844 0.261719 -0.071338 195 192 200
0.218750 0.261719 -0.068264 187 184 193
0.222656 0.261719 -0.064303 181 178 188
0.226562 0.261719 -0.059109 178 174 186
0.230469 0.261719 -0.053021 178 173 186
0.234375 0.261719 -0.045968 174 168 182
0.238281 0.261719 -0.036705 167 160 173
0.242188 0.261719 -0.024638 159 151 163
0.246094 0.261719 -0.010367 152 142 153
0.250000 0.261719 -0.000030 146 137 146
0.253906 0.261719 0.006576 143 133 140
0.257812 0.261719 0.012528 143 134 139
0.261719 0.261719 0.018115 144 135 139
0.265625 0.261719 0.022770 145 137 140
0.269531 0.261719 0.027985 145 138 140
0.273438 0.261719 0.033701 145 138 141
0.277344 0.261719 0.038143 151 144 149
0.281250 0.261719 0.041069 172 163 169
0.285156 0.261719 0.053182 191 181 185
-0.066406 0.257812 -0.025343 122 120 102
-0.062500 0.257812 -0.031629 146 111 77
-0.058594 0.257812 -0.034595 171 121 81
-0.054688 0.257812 -0.037872 184 125 78
-0.050781 0.257812 -0.041234 194 128 78
-0.046875 0.257812 -0.045398 204 136 84
-0.042969 0.257812 -0.049563 213 144 90
-0.039062 0.257812 -0.053975 216 149 93
-0.035156 0.257812 -0.058617 215 151 93
-0.031250 0.257812 -0.063479 209 148 91
-0.027344 0.257812 -0.068161 199 142 89
-0.023438 0.257812 -0.072495 191 141 94
-0.019531 0.257812 -0.076306 174 132 96
-0.015625 0.257812 -0.079727 136 102 85
-0.011719 0.257812 -0.083046 108 91 81
-0.007812 0.257812 -0.086265 161 158 155
-0.003906 0.257812 -0.089263 200 199 202
0.000000 0.257812 -0.092264 209 212 213
0.003906 0.257812 -0.096111 190 192 200
0.007812 0.257812 -0.100343 169 173 183
0.011719 0.257812 -0.104419 188 194 205
0.015625 0.257812 -0.108067 184 190 203
0.019531 0.257812 -0.111176 188 196 208
0.023438 0.257812 -0.113833 182 189 205
0.027344 0.257812 -0.116142 188 196 209
0.031250 0.257812 -0.118186 189 196 209
0.035156 0.257812 -0.119973 183 189 201
0.039062 0.257812 -0.121534 180 184 196
0.042969 0.257812 -0.122866 178 182 193
0.046875 0.257812 -0.123915 170 173 182
0.050781 0.257812 -0.124617 166 166 174
0.054688 0.257812 -0.124999 172 172 180
0.058594 0.257812 -0.125271 169 194 209
0.062500 0.257812 -0.125398 158 180 194
0.066406 0.257812 -0.125379 169 187 200
