ply
    format ascii 1.0
    element vertex 62646
    property float x
    property float y
    property float z
    property uchar red
    property uchar green
    property uchar blue
    end_header
-0.031250 -0.609375 -0.185553 13 13 14
-0.027344 -0.609375 -0.183693 11 10 12
-0.023438 -0.609375 -0.182179 15 15 17
-0.019531 -0.609375 -0.145627 32 32 34
-0.015625 -0.609375 0.081536 26 26 28
-0.011719 -0.609375 0.074261 21 20 23
-0.007812 -0.609375 0.078304 20 20 22
-0.003906 -0.609375 0.077013 16 16 18
0.000000 -0.609375 0.080614 16 17 19
0.003906 -0.609375 0.082529 15 16 19
0.007812 -0.609375 0.084063 15 16 19
0.011719 -0.609375 0.085366 15 17 20
0.015625 -0.609375 0.087127 15 17 20
0.019531 -0.609375 0.087863 15 17 20
0.023438 -0.609375 0.088790 15 17 20
0.027344 -0.609375 0.087804 15 17 20
0.031250 -0.609375 0.087158 14 16 19
0.035156 -0.609375 0.085296 13 15 18
0.039062 -0.609375 0.085322 13 15 17
0.042969 -0.609375 0.083863 13 14 16
0.046875 -0.609375 0.083568 12 14 15
0.050781 -0.609375 0.080924 13 14 16
0.054688 -0.609375 0.078067 14 16 18
0.058594 -0.609375 0.074449 15 16 19
0.062500 -0.609375 0.070942 17 18 22
0.066406 -0.609375 0.064357 17 19 24
0.070312 -0.609375 0.054692 20 21 28
0.074219 -0.609375 0.030371 15 14 25
-0.050781 -0.613281 -0.058511 18 17 19
-0.046875 -0.613281 -0.215433 9 8 10
-0.042969 -0.613281 -0.202235 15 15 18
-0.039062 -0.613281 -0.194895 14 14 16
-0.035156 -0.613281 -0.192054 11 12 13
-0.031250 -0.613281 -0.187971 13 14 15
-0.027344 -0.613281 -0.186669 11 11 13
-0.023438 -0.613281 -0.184801 15 15 18
-0.019531 -0.613281 -0.148764 31 32 34
-0.015625 -0.613281 0.079703 26 26 28
-0.011719 -0.613281 0.072909 19 19 21
-0.007812 -0.613281 0.077445 17 17 19
-0.003906 -0.613281 0.076100 14 14 17
0.000000 -0.613281 0.079809 14 15 17
0.003906 -0.613281 0.081774 14 15 18
0.007812 -0.613281 0.083307 14 15 18
0.011719 -0.613281 0.084678 14 16 19
0.015625 -0.613281 0.086502 14 15 18
0.019531 -0.613281 0.087248 13 15 18
0.023438 -0.613281 0.087989 13 15 17
0.027344 -0.613281 0.087061 12 14 17
0.031250 -0.613281 0.086072 12 14 17
0.035156 -0.613281 0.084465 12 13 16
0.039062 -0.613281 0.084756 11 13 15
0.042969 -0.613281 0.082821 11 13 14
0.046875 -0.613281 0.082570 11 13 14
0.050781 -0.613281 0.079898 12 13 15
0.054688 -0.613281 0.077200 13 15 17
0.058594 -0.613281 0.073113 14 15 19
0.062500 -0.613281 0.069507 15 17 22
0.066406 -0.613281 0.062334 17 20 26
0.070312 -0.613281 0.051840 23 25 34
-0.050781 -0.617188 -0.011396 19 17 21
-0.046875 -0.617188 -0.220491 11 9 13
-0.042969 -0.617188 -0.205564 15 14 17
-0.039062 -0.617188 -0.198384 14 14 15
-0.035156 -0.617188 -0.195655 13 13 15
-0.031250 -0.617188 -0.190150 14 14 16
-0.027344 -0.617188 -0.189373 12 12 14
-0.023438 -0.617188 -0.187511 15 15 18
-0.019531 -0.617188 -0.150264 28 28 31
-0.015625 -0.617188 0.078296 24 24 27
-0.011719 -0.617188 0.071675 17 17 20
-0.007812 -0.617188 0.076563 16 16 19
-0.003906 -0.617188 0.075137 14 14 16
0.000000 -0.617188 0.078845 14 14 17
0.003906 -0.617188 0.080851 14 15 17
0.007812 -0.617188 0.082413 13 14 17
0.011719 -0.617188 0.083877 12 14 17
0.015625 -0.617188 0.085807 12 13 16
0.019531 -0.617188 0.086615 11 12 15
0.023438 -0.617188 0.087195 11 13 16
0.027344 -0.617188 0.086252 12 14 17
0.031250 -0.617188 0.085029 12 14 16
0.035156 -0.617188 0.083870 12 14 16
0.039062 -0.617188 0.082626 12 13 15
0.042969 -0.617188 0.081856 12 13 15
0.046875 -0.617188 0.081663 12 13 15
0.050781 -0.617188 0.078762 12 14 15
0.054688 -0.617188 0.076258 14 16 18
0.058594 -0.617188 0.071554 14 16 20
0.062500 -0.617188 0.067965 15 19 25
0.066406 -0.617188 0.060466 21 26 35
0.070312 -0.617188 0.050021 23 26 37
-0.046875 -0.621094 -0.232371 17 16 23
-0.042969 -0.621094 -0.210238 17 17 20
-0.039062 -0.621094 -0.200816 14 14 16
-0.035156 -0.621094 -0.199830 13 14 15
-0.031250 -0.621094 -0.192591 13 14 15
-0.027344 -0.621094 -0.191791 11 11 13
-0.023438 -0.621094 -0.190102 14 14 17
-0.019531 -0.621094 -0.150390 25 26 29
-0.015625 -0.621094 0.077471 25 25 28
-0.011719 -0.621094 0.070446 19 19 22
-0.007812 -0.621094 0.075586 17 18 20
-0.003906 -0.621094 0.074219 14 15 17
0.000000 -0.621094 0.077870 13 14 16
0.003906 -0.621094 0.079923 14 14 17
0.007812 -0.621094 0.081505 13 14 17
0.011719 -0.621094 0.083055 13 14 17
0.015625 -0.621094 0.085065 13 15 18
0.019531 -0.621094 0.085917 14 16 19
0.023438 -0.621094 0.086372 15 17 20
0.027344 -0.621094 0.085462 16 18 21
0.031250 -0.621094 0.084099 15 17 20
0.035156 -0.621094 0.083162 14 16 19
0.039062 -0.621094 0.081591 14 15 17
0.042969 -0.621094 0.081017 13 14 16
0.046875 -0.621094 0.080767 12 14 15
0.050781 -0.621094 0.077548 13 14 16
0.054688 -0.621094 0.075357 14 16 19
0.058594 -0.621094 0.070073 14 16 21
0.062500 -0.621094 0.066274 17 21 29
0.066406 -0.621094 0.057862 28 36 46
0.070312 -0.621094 0.046912 31 36 47
-0.046875 -0.625000 -0.175740 15 15 26
-0.042969 -0.625000 -0.215380 17 17 21
-0.039062 -0.625000 -0.207258 12 12 14
-0.035156 -0.625000 -0.202790 13 14 16
-0.031250 -0.625000 -0.195205 13 14 16
-0.027344 -0.625000 -0.194841 12 12 14
-0.023438 -0.625000 -0.193487 15 15 18
-0.019531 -0.625000 -0.149101 26 27 29
-0.015625 -0.625000 0.076538 27 27 30
-0.011719 -0.625000 0.069073 20 20 24
-0.007812 -0.625000 0.074721 17 17 21
-0.003906 -0.625000 0.073624 14 14 17
0.000000 -0.625000 0.077132 13 14 17
0.003906 -0.625000 0.079172 14 15 18
0.007812 -0.625000 0.080720 14 15 18
0.011719 -0.625000 0.082293 14 15 18
0.015625 -0.625000 0.084307 14 16 19
0.019531 -0.625000 0.085148 14 16 19
0.023438 -0.625000 0.085502 14 16 19
0.027344 -0.625000 0.084645 14 15 18
0.031250 -0.625000 0.083247 13 15 18
0.035156 -0.625000 0.082622 13 15 17
0.039062 -0.625000 0.080500 12 14 16
0.042969 -0.625000 0.080240 12 13 15
0.046875 -0.625000 0.079920 12 14 15
0.050781 -0.625000 0.076156 13 15 17
0.054688 -0.625000 0.074213 14 16 19
0.058594 -0.625000 0.068462 15 17 22
0.062500 -0.625000 0.064783 18 23 31
0.066406 -0.625000 0.055776 28 36 47
0.070312 -0.625000 0.042927 32 36 48
-0.046875 -0.628906 0.000349 14 15 27
-0.042969 -0.628906 -0.223880 21 21 22
-0.039062 -0.628906 -0.212162 12 11 13
-0.035156 -0.628906 -0.204501 15 16 17
-0.031250 -0.628906 -0.197804 14 15 17
-0.027344 -0.628906 -0.198147 12 13 15
-0.023438 -0.628906 -0.197674 14 14 17
-0.019531 -0.628906 -0.147537 21 22 25
-0.015625 -0.628906 0.075196 23 23 26
-0.011719 -0.628906 0.067964 18 18 22
-0.007812 -0.628906 0.073845 18 18 22
-0.003906 -0.628906 0.072956 18 18 21
0.000000 -0.628906 0.076251 18 18 21
0.003906 -0.628906 0.078318 17 18 21
0.007812 -0.628906 0.079893 15 16 19
0.011719 -0.628906 0.081517 13 14 18
0.015625 -0.628906 0.083535 13 14 17
0.019531 -0.628906 0.084370 12 13 16
0.023438 -0.628906 0.084654 12 13 16
0.027344 -0.628906 0.083829 13 14 17
0.031250 -0.628906 0.082501 13 14 17
0.035156 -0.628906 0.082163 13 14 17
0.039062 -0.628906 0.079879 11 13 15
0.042969 -0.628906 0.079458 12 13 15
0.046875 -0.628906 0.078999 13 15 16
0.050781 -0.628906 0.074644 14 16 18
0.054688 -0.628906 0.073041 15 17 20
0.058594 -0.628906 0.067026 15 18 24
0.062500 -0.628906 0.063446 20 24 34
0.066406 -0.628906 0.054372 23 28 41
0.070312 -0.628906 0.040198 18 21 33
-0.042969 -0.632812 -0.232238 32 31 30
-0.039062 -0.632812 -0.219988 14 13 14
-0.035156 -0.632812 -0.207992 16 16 18
-0.031250 -0.632812 -0.201140 13 14 16
-0.027344 -0.632812 -0.201825 11 12 14
-0.023438 -0.632812 -0.202532 12 13 15
-0.019531 -0.632812 -0.137882 19 19 23
-0.015625 -0.632812 0.073936 25 25 28
-0.011719 -0.632812 0.067029 21 21 25
-0.007812 -0.632812 0.072879 21 21 24
-0.003906 -0.632812 0.072182 20 20 23
0.000000 -0.632812 0.075306 16 16 19
0.003906 -0.632812 0.077410 13 13 16
0.007812 -0.632812 0.078998 10 11 14
0.011719 -0.632812 0.080692 10 10 13
0.015625 -0.632812 0.082735 11 12 15
0.019531 -0.632812 0.083566 13 13 16
0.023438 -0.632812 0.083801 14 14 17
0.027344 -0.632812 0.083031 14 15 18
0.031250 -0.632812 0.081857 14 15 18
0.035156 -0.632812 0.081244 12 13 16
0.039062 -0.632812 0.079009 11 12 15
0.042969 -0.632812 0.078586 12 13 15
0.046875 -0.632812 0.077814 13 14 16
0.050781 -0.632812 0.073089 14 15 17
0.054688 -0.632812 0.071825 15 17 21
0.058594 -0.632812 0.065650 15 18 24
0.062500 -0.632812 0.061856 20 24 35
0.066406 -0.632812 0.052935 19 24 36
0.070312 -0.632812 0.029493 12 15 28
-0.042969 -0.636719 -0.041797 8 7 10
-0.039062 -0.636719 -0.218530 8 7 9
-0.035156 -0.636719 -0.212259 15 14 16
-0.031250 -0.636719 -0.204836 14 14 16
-0.027344 -0.636719 -0.205388 13 13 15
-0.023438 -0.636719 -0.208716 14 14 17
-0.019531 -0.636719 -0.118261 23 23 26
-0.015625 -0.636719 0.071335 33 32 34
-0.011719 -0.636719 0.066533 23 23 26
-0.007812 -0.636719 0.071772 18 18 21
-0.003906 -0.636719 0.071222 15 15 18
0.000000 -0.636719 0.074303 11 12 15
0.003906 -0.636719 0.076489 10 10 14
0.007812 -0.636719 0.078129 9 10 13
0.011719 -0.636719 0.079934 10 10 14
0.015625 -0.636719 0.081985 12 13 16
0.019531 -0.636719 0.082774 13 14 17
0.023438 -0.636719 0.082923 13 14 17
0.027344 -0.636719 0.082160 13 14 17
0.031250 -0.636719 0.081243 12 13 16
0.035156 -0.636719 0.080229 11 12 15
0.039062 -0.636719 0.078123 10 12 14
0.042969 -0.636719 0.077717 12 13 16
0.046875 -0.636719 0.076198 13 14 17
0.050781 -0.636719 0.071698 13 15 18
0.054688 -0.636719 0.070346 15 17 22
0.058594 -0.636719 0.064154 15 18 25
0.062500 -0.636719 0.060364 20 25 36
0.066406 -0.636719 0.050280 17 22 36
-0.042969 -0.640625 -0.012323 10 10 12
-0.039062 -0.640625 -0.222491 11 10 12
-0.035156 -0.640625 -0.216665 18 17 19
-0.031250 -0.640625 -0.207299 15 15 17
-0.027344 -0.640625 -0.206517 14 14 17
-0.023438 -0.640625 -0.214233 15 15 17
-0.019531 -0.640625 -0.084983 23 23 25
-0.015625 -0.640625 0.067289 32 30 32
-0.011719 -0.640625 0.066942 18 18 21
-0.007812 -0.640625 0.070813 14 14 17
-0.003906 -0.640625 0.070586 14 14 17
0.000000 -0.640625 0.073638 12 13 16
0.003906 -0.640625 0.075829 13 14 18
0.007812 -0.640625 0.077542 13 14 19
0.011719 -0.640625 0.079448 13 15 19
0.015625 -0.640625 0.081449 14 16 20
0.019531 -0.640625 0.082172 13 14 18
0.023438 -0.640625 0.082268 12 13 17
0.027344 -0.640625 0.081578 12 13 17
0.031250 -0.640625 0.080882 11 13 16
0.035156 -0.640625 0.079469 10 12 16
0.039062 -0.640625 0.077726 10 12 15
0.042969 -0.640625 0.076953 12 14 17
0.046875 -0.640625 0.074324 13 15 18
0.050781 -0.640625 0.070609 13 15 18
0.054688 -0.640625 0.069163 15 17 22
0.058594 -0.640625 0.063013 14 17 25
0.062500 -0.640625 0.058896 19 23 36
0.066406 -0.640625 0.047856 14 18 33
-0.042969 -0.644531 -0.016027 19 20 23
-0.039062 -0.644531 -0.226649 13 12 15
-0.035156 -0.644531 -0.219428 18 16 18
-0.031250 -0.644531 -0.209266 13 12 14
-0.027344 -0.644531 -0.207637 13 12 15
-0.023438 -0.644531 -0.217926 14 14 16
-0.019531 -0.644531 -0.041514 22 22 23
-0.015625 -0.644531 0.062696 30 28 29
-0.011719 -0.644531 0.067753 16 16 18
-0.007812 -0.644531 0.070071 13 13 16
-0.003906 -0.644531 0.070511 14 14 17
0.000000 -0.644531 0.073490 12 12 16
0.003906 -0.644531 0.075505 14 15 19
0.007812 -0.644531 0.077196 15 17 21
0.011719 -0.644531 0.079155 16 18 22
0.015625 -0.644531 0.081102 17 19 23
0.019531 -0.644531 0.081810 15 16 20
0.023438 -0.644531 0.081836 14 15 20
0.027344 -0.644531 0.081192 14 16 20
0.031250 -0.644531 0.080683 14 16 20
0.035156 -0.644531 0.078833 13 16 20
0.039062 -0.644531 0.077144 13 15 19
0.042969 -0.644531 0.076022 14 16 19
0.046875 -0.644531 0.071990 14 16 19
0.050781 -0.644531 0.069736 13 15 19
0.054688 -0.644531 0.068112 15 17 23
0.058594 -0.644531 0.061886 14 17 25
0.062500 -0.644531 0.057254 20 25 39
0.066406 -0.644531 0.045814 18 23 42
-0.042969 -0.648438 -0.019203 5 4 8
-0.039062 -0.648438 -0.226469 7 6 9
-0.035156 -0.648438 -0.220604 13 11 13
-0.031250 -0.648438 -0.213362 12 11 14
-0.027344 -0.648438 -0.209497 15 14 17
-0.023438 -0.648438 -0.215147 15 14 17
-0.019531 -0.648438 -0.003870 20 20 21
-0.015625 -0.648438 0.059438 26 25 26
-0.011719 -0.648438 0.068788 14 14 17
-0.007812 -0.648438 0.069287 13 13 16
-0.003906 -0.648438 0.070222 15 16 19
0.000000 -0.648438 0.073144 14 15 19
0.003906 -0.648438 0.075105 16 17 21
0.007812 -0.648438 0.076784 16 18 22
0.011719 -0.648438 0.078754 16 17 22
0.015625 -0.648438 0.080676 16 17 21
0.019531 -0.648438 0.081410 14 15 19
0.023438 -0.648438 0.081350 13 14 18
0.027344 -0.648438 0.080682 13 14 19
0.031250 -0.648438 0.080468 13 15 19
0.035156 -0.648438 0.078252 13 15 19
0.039062 -0.648438 0.076501 12 14 18
0.042969 -0.648438 0.074988 13 15 19
0.046875 -0.648438 0.070994 13 15 19
0.050781 -0.648438 0.069041 12 14 18
0.054688 -0.648438 0.067165 14 16 22
0.058594 -0.648438 0.060849 13 17 26
0.062500 -0.648438 0.055906 21 27 43
0.066406 -0.648438 0.043561 25 33 54
-0.042969 -0.652344 -0.017125 26 27 33
-0.039062 -0.652344 -0.237610 18 18 23
-0.035156 -0.652344 -0.223545 17 16 18
-0.031250 -0.652344 -0.215017 11 11 13
-0.027344 -0.652344 -0.211323 14 14 16
-0.023438 -0.652344 -0.206467 14 13 16
-0.019531 -0.652344 0.026851 18 17 19
-0.015625 -0.652344 0.056509 25 23 24
-0.011719 -0.652344 0.068349 18 18 20
-0.007812 -0.652344 0.068417 17 18 20
-0.003906 -0.652344 0.070012 19 20 23
0.000000 -0.652344 0.072726 16 17 21
0.003906 -0.652344 0.074695 15 16 20
0.007812 -0.652344 0.076328 13 14 18
0.011719 -0.652344 0.078234 12 13 17
0.015625 -0.652344 0.080086 12 13 17
0.019531 -0.652344 0.080808 12 12 17
0.023438 -0.652344 0.080694 11 12 17
0.027344 -0.652344 0.080020 11 12 16
0.031250 -0.652344 0.080136 11 13 17
0.035156 -0.652344 0.077773 11 12 17
0.039062 -0.652344 0.076288 10 12 16
0.042969 -0.652344 0.073704 11 13 17
0.046875 -0.652344 0.071405 11 13 17
0.050781 -0.652344 0.068338 11 13 18
0.054688 -0.652344 0.066732 13 15 21
0.058594 -0.652344 0.060098 15 19 28
0.062500 -0.652344 0.054197 22 27 40
0.066406 -0.652344 0.041074 20 25 42
-0.039062 -0.656250 -0.248717 15 17 25
-0.035156 -0.656250 -0.230369 16 16 19
-0.031250 -0.656250 -0.218206 10 9 12
-0.027344 -0.656250 -0.211017 15 15 18
-0.023438 -0.656250 -0.197729 19 18 20
-0.019531 -0.656250 0.047812 19 18 20
-0.015625 -0.656250 0.054019 21 20 21
-0.011719 -0.656250 0.067202 17 16 18
-0.007812 -0.656250 0.067355 14 15 17
-0.003906 -0.656250 0.069805 12 13 16
0.000000 -0.656250 0.072414 10 10 14
0.003906 -0.656250 0.074421 9 9 13
0.007812 -0.656250 0.075994 9 9 13
0.011719 -0.656250 0.077854 9 9 13
0.015625 -0.656250 0.079564 9 9 14
0.019531 -0.656250 0.080198 10 10 15
0.023438 -0.656250 0.080028 10 11 15
0.027344 -0.656250 0.079326 10 11 16
0.031250 -0.656250 0.079803 11 12 17
0.035156 -0.656250 0.077527 11 13 17
0.039062 -0.656250 0.076242 11 13 17
0.042969 -0.656250 0.072241 12 14 18
0.046875 -0.656250 0.072219 13 15 19
0.050781 -0.656250 0.067250 13 15 20
0.054688 -0.656250 0.066139 14 17 24
0.058594 -0.656250 0.059496 17 21 30
0.062500 -0.656250 0.052527 19 22 34
0.066406 -0.656250 0.039111 15 17 30
-0.039062 -0.660156 -0.027501 9 9 16
-0.035156 -0.660156 -0.231497 21 19 22
-0.031250 -0.660156 -0.220622 14 13 16
-0.027344 -0.660156 -0.207757 24 24 26
-0.023438 -0.660156 -0.176722 29 27 28
-0.019531 -0.660156 0.059943 19 17 19
-0.015625 -0.660156 0.052561 14 13 15
-0.011719 -0.660156 0.065579 13 13 15
-0.007812 -0.660156 0.066465 13 13 16
-0.003906 -0.660156 0.069706 13 14 18
0.000000 -0.660156 0.072194 13 15 19
0.003906 -0.660156 0.074262 12 13 17
0.007812 -0.660156 0.075759 11 12 17
0.011719 -0.660156 0.077578 10 11 15
0.015625 -0.660156 0.079151 8 9 13
0.019531 -0.660156 0.079710 8 8 13
0.023438 -0.660156 0.079495 8 9 13
0.027344 -0.660156 0.078784 9 9 14
0.031250 -0.660156 0.079582 10 11 15
0.035156 -0.660156 0.077400 10 11 16
0.039062 -0.660156 0.076772 10 12 16
0.042969 -0.660156 0.070935 11 13 17
0.046875 -0.660156 0.073456 12 14 19
0.050781 -0.660156 0.065986 13 15 22
0.054688 -0.660156 0.064873 15 18 28
0.058594 -0.660156 0.058307 19 23 35
0.062500 -0.660156 0.050889 17 20 32
0.066406 -0.660156 0.031937 13 15 26
-0.035156 -0.664062 -0.243847 18 15 18
-0.031250 -0.664062 -0.220770 14 12 15
-0.027344 -0.664062 -0.210873 23 23 24
-0.023438 -0.664062 -0.145375 25 23 23
-0.019531 -0.664062 0.063810 14 13 14
-0.015625 -0.664062 0.052847 11 10 12
-0.011719 -0.664062 0.064692 13 12 15
-0.007812 -0.664062 0.066372 13 13 17
-0.003906 -0.664062 0.070062 17 18 21
0.000000 -0.664062 0.072398 20 21 25
0.003906 -0.664062 0.074368 17 18 22
0.007812 -0.664062 0.075697 16 17 21
0.011719 -0.664062 0.077406 14 15 20
0.015625 -0.664062 0.078822 12 13 18
0.019531 -0.664062 0.079342 11 12 18
0.023438 -0.664062 0.079055 11 12 18
0.027344 -0.664062 0.078199 11 13 18
0.031250 -0.664062 0.079147 12 13 18
0.035156 -0.664062 0.077215 11 13 18
0.039062 -0.664062 0.076674 11 13 18
0.042969 -0.664062 0.070226 11 13 18
0.046875 -0.664062 0.073196 11 14 19
0.050781 -0.664062 0.065236 12 15 22
0.054688 -0.664062 0.064283 15 20 30
0.058594 -0.664062 0.057901 17 22 33
0.062500 -0.664062 0.049391 10 11 20
0.066406 -0.664062 0.021302 6 6 14
-0.035156 -0.667969 -0.089425 11 8 10
-0.031250 -0.667969 -0.221074 15 13 14
-0.027344 -0.667969 -0.218281 24 23 23
-0.023438 -0.667969 -0.109008 24 23 22
-0.019531 -0.667969 0.064334 13 12 13
-0.015625 -0.667969 0.055079 10 9 11
-0.011719 -0.667969 0.064799 11 10 12
-0.007812 -0.667969 0.066766 9 9 12
-0.003906 -0.667969 0.070529 12 13 15
0.000000 -0.667969 0.072615 15 16 19
0.003906 -0.667969 0.074405 13 14 17
0.007812 -0.667969 0.075619 13 14 17
0.011719 -0.667969 0.077245 12 13 17
0.015625 -0.667969 0.078499 11 12 16
0.019531 -0.667969 0.078946 12 12 17
0.023438 -0.667969 0.078576 12 13 17
0.027344 -0.667969 0.077620 12 13 17
0.031250 -0.667969 0.078573 13 14 19
0.035156 -0.667969 0.076779 13 15 20
0.039062 -0.667969 0.075584 13 16 21
0.042969 -0.667969 0.070526 13 16 21
0.046875 -0.667969 0.072403 14 17 23
0.050781 -0.667969 0.064833 14 18 25
0.054688 -0.667969 0.063960 20 25 36
0.058594 -0.667969 0.057611 17 21 31
0.062500 -0.667969 0.048627 9 10 17
0.066406 -0.667969 0.023771 14 14 24
-0.035156 -0.671875 -0.011604 15 11 11
-0.031250 -0.671875 -0.221112 19 15 16
-0.027344 -0.671875 -0.225771 25 22 23
-0.023438 -0.671875 -0.073758 25 23 22
-0.019531 -0.671875 0.062091 15 14 15
-0.015625 -0.671875 0.056901 12 11 13
-0.011719 -0.671875 0.065078 14 13 15
-0.007812 -0.671875 0.067571 13 13 15
-0.003906 -0.671875 0.071144 17 17 19
0.000000 -0.671875 0.072896 19 20 21
0.003906 -0.671875 0.074429 15 16 18
0.007812 -0.671875 0.075501 14 15 17
0.011719 -0.671875 0.077011 12 13 16
0.015625 -0.671875 0.078110 10 11 14
0.019531 -0.671875 0.078474 11 11 15
0.023438 -0.671875 0.077966 11 11 15
0.027344 -0.671875 0.076804 10 11 15
0.031250 -0.671875 0.077322 11 12 16
0.035156 -0.671875 0.075843 12 13 18
0.039062 -0.671875 0.074019 11 13 18
0.042969 -0.671875 0.069805 10 13 17
0.046875 -0.671875 0.072098 12 15 20
0.050781 -0.671875 0.062845 12 16 22
0.054688 -0.671875 0.062112 19 24 35
0.058594 -0.671875 0.057641 18 22 32
0.062500 -0.671875 0.045515 28 33 36
-0.035156 -0.675781 -0.013628 11 8 9
-0.031250 -0.675781 -0.224729 13 10 12
-0.027344 -0.675781 -0.229746 16 15 16
-0.023438 -0.675781 -0.045062 19 17 18
-0.019531 -0.675781 0.058544 16 15 15
-0.015625 -0.675781 0.058835 15 14 15
-0.011719 -0.675781 0.065795 17 16 16
-0.007812 -0.675781 0.068596 15 15 16
-0.003906 -0.675781 0.071799 15 15 16
0.000000 -0.675781 0.073268 15 15 17
0.003906 -0.675781 0.074487 12 13 15
0.007812 -0.675781 0.075382 13 13 16
0.011719 -0.675781 0.076751 12 13 16
0.015625 -0.675781 0.077723 12 12 15
0.019531 -0.675781 0.078075 12 13 16
0.023438 -0.675781 0.077433 12 12 15
0.027344 -0.675781 0.076081 11 12 15
0.031250 -0.675781 0.076060 11 12 15
0.035156 -0.675781 0.074826 11 12 16
0.039062 -0.675781 0.073376 10 12 16
0.042969 -0.675781 0.070691 10 12 16
0.046875 -0.675781 0.070004 11 14 19
0.050781 -0.675781 0.062348 12 15 21
0.054688 -0.675781 0.060044 16 21 29
0.058594 -0.675781 0.056273 13 17 23
0.062500 -0.675781 0.034326 17 20 21
-0.035156 -0.679688 -0.014459 13 10 11
-0.031250 -0.679688 -0.228081 15 12 13
-0.027344 -0.679688 -0.229741 16 15 17
-0.023438 -0.679688 -0.025638 19 18 19
-0.019531 -0.679688 0.055980 20 19 20
-0.015625 -0.679688 0.060523 18 17 17
-0.011719 -0.679688 0.066267 16 14 15
-0.007812 -0.679688 0.069525 12 12 13
-0.003906 -0.679688 0.072506 11 11 13
0.000000 -0.679688 0.073754 11 11 13
0.003906 -0.679688 0.074718 10 11 13
0.007812 -0.679688 0.075483 11 11 14
0.011719 -0.679688 0.076730 11 12 14
0.015625 -0.679688 0.077579 11 12 15
0.019531 -0.679688 0.077934 11 12 15
0.023438 -0.679688 0.077147 11 12 15
0.027344 -0.679688 0.075668 11 11 15
0.031250 -0.679688 0.075377 10 11 14
0.035156 -0.679688 0.074219 10 11 14
0.039062 -0.679688 0.072965 9 11 15
0.042969 -0.679688 0.070325 10 12 16
0.046875 -0.679688 0.067925 12 15 20
0.050781 -0.679688 0.064192 13 16 21
0.054688 -0.679688 0.056070 16 21 27
0.058594 -0.679688 0.052158 11 14 20
0.062500 -0.679688 0.022498 6 7 11
-0.035156 -0.683594 -0.013771 18 14 15
-0.031250 -0.683594 -0.230925 16 13 14
-0.027344 -0.683594 -0.228720 15 14 16
-0.023438 -0.683594 -0.015627 20 19 20
-0.019531 -0.683594 0.053357 25 24 25
-0.015625 -0.683594 0.061208 21 21 21
-0.011719 -0.683594 0.066892 16 15 16
-0.007812 -0.683594 0.070824 14 14 15
-0.003906 -0.683594 0.073651 15 15 17
0.000000 -0.683594 0.074648 15 16 18
0.003906 -0.683594 0.075286 14 15 18
0.007812 -0.683594 0.075885 14 15 18
0.011719 -0.683594 0.076977 14 15 17
0.015625 -0.683594 0.077663 14 15 17
0.019531 -0.683594 0.077987 14 15 18
0.023438 -0.683594 0.077105 14 15 17
0.027344 -0.683594 0.075619 13 14 17
0.031250 -0.683594 0.075044 12 13 16
0.035156 -0.683594 0.073439 11 12 15
0.039062 -0.683594 0.072254 10 12 16
0.042969 -0.683594 0.070562 10 12 17
0.046875 -0.683594 0.067259 11 14 20
0.050781 -0.683594 0.064622 12 16 24
0.054688 -0.683594 0.055185 14 18 27
0.058594 -0.683594 0.049504 10 14 21
0.062500 -0.683594 0.006918 6 8 13
-0.035156 -0.687500 -0.018176 22 19 19
-0.031250 -0.687500 -0.231879 18 15 17
-0.027344 -0.687500 -0.227460 16 15 18
-0.023438 -0.687500 -0.010515 21 20 22
-0.019531 -0.687500 0.052484 28 27 28
-0.015625 -0.687500 0.061532 23 23 23
-0.011719 -0.687500 0.067612 17 17 18
-0.007812 -0.687500 0.072061 17 18 19
-0.003906 -0.687500 0.074761 17 18 20
0.000000 -0.687500 0.075533 16 17 19
0.003906 -0.687500 0.075889 15 16 19
0.007812 -0.687500 0.076307 14 15 18
0.011719 -0.687500 0.077259 14 15 17
0.015625 -0.687500 0.077826 14 15 17
0.019531 -0.687500 0.078132 14 15 18
0.023438 -0.687500 0.077205 13 15 17
0.027344 -0.687500 0.075781 12 14 16
0.031250 -0.687500 0.075459 12 14 16
0.035156 -0.687500 0.073691 12 14 17
0.039062 -0.687500 0.071976 12 15 19
0.042969 -0.687500 0.069821 13 17 23
0.046875 -0.687500 0.066711 15 20 28
0.050781 -0.687500 0.062998 18 25 35
0.054688 -0.687500 0.061137 17 23 33
0.058594 -0.687500 0.047662 8 11 18
-0.035156 -0.691406 -0.019488 35 31 29
-0.031250 -0.691406 -0.229803 24 21 22
-0.027344 -0.691406 -0.227969 19 18 21
-0.023438 -0.691406 -0.011095 20 19 22
-0.019531 -0.691406 0.053734 23 22 25
-0.015625 -0.691406 0.062018 22 22 23
-0.011719 -0.691406 0.068362 21 21 23
-0.007812 -0.691406 0.073169 21 22 23
-0.003906 -0.691406 0.075871 18 19 21
0.000000 -0.691406 0.076473 16 17 19
0.003906 -0.691406 0.076625 15 16 19
0.007812 -0.691406 0.076858 13 15 17
0.011719 -0.691406 0.077656 13 14 16
0.015625 -0.691406 0.078134 12 13 16
0.019531 -0.691406 0.078374 12 13 16
0.023438 -0.691406 0.077400 12 13 15
0.027344 -0.691406 0.076003 11 13 15
0.031250 -0.691406 0.075744 12 13 16
0.035156 -0.691406 0.074196 12 14 17
0.039062 -0.691406 0.072322 13 15 19
0.042969 -0.691406 0.070082 14 17 22
0.046875 -0.691406 0.066767 15 19 26
0.050781 -0.691406 0.062318 20 26 36
0.054688 -0.691406 0.066091 19 25 35
0.058594 -0.691406 0.042790 8 11 19
-0.035156 -0.695312 -0.026031 36 31 30
-0.031250 -0.695312 -0.229229 24 20 21
-0.027344 -0.695312 -0.228932 18 16 19
-0.023438 -0.695312 -0.015936 16 15 18
-0.019531 -0.695312 0.055621 19 18 21
-0.015625 -0.695312 0.061836 23 23 25
-0.011719 -0.695312 0.068675 26 26 27
-0.007812 -0.695312 0.073877 23 24 26
-0.003906 -0.695312 0.076775 18 20 22
0.000000 -0.695312 0.077271 17 18 21
0.003906 -0.695312 0.077242 17 18 21
0.007812 -0.695312 0.077326 15 17 19
0.011719 -0.695312 0.078048 15 16 19
0.015625 -0.695312 0.078495 15 16 18
0.019531 -0.695312 0.078674 15 16 18
0.023438 -0.695312 0.077682 14 15 18
0.027344 -0.695312 0.076397 13 15 17
0.031250 -0.695312 0.075852 13 14 17
0.035156 -0.695312 0.073961 11 13 16
0.039062 -0.695312 0.072437 11 13 17
0.042969 -0.695312 0.070813 11 13 17
0.046875 -0.695312 0.068253 11 13 19
0.050781 -0.695312 0.058324 14 18 26
0.054688 -0.695312 0.057922 18 23 33
0.058594 -0.695312 0.039132 13 17 28
-0.035156 -0.699219 -0.039872 48 41 37
-0.031250 -0.699219 -0.230645 29 22 23
-0.027344 -0.699219 -0.229855 19 16 18
-0.023438 -0.699219 -0.026161 20 16 19
-0.019531 -0.699219 0.059892 28 24 26
-0.015625 -0.699219 0.062304 33 30 31
-0.011719 -0.699219 0.068762 29 29 30
-0.007812 -0.699219 0.073957 23 24 25
-0.003906 -0.699219 0.077317 18 20 22
0.000000 -0.699219 0.077837 17 19 21
0.003906 -0.699219 0.077711 16 17 20
0.007812 -0.699219 0.077719 15 16 19
0.011719 -0.699219 0.078440 15 16 19
0.015625 -0.699219 0.078887 15 16 18
0.019531 -0.699219 0.079022 14 15 18
0.023438 -0.699219 0.078028 13 15 18
0.027344 -0.699219 0.076788 12 14 17
0.031250 -0.699219 0.076025 12 14 17
0.035156 -0.699219 0.073983 11 13 17
0.039062 -0.699219 0.071670 11 13 17
0.042969 -0.699219 0.069504 11 13 18
0.046875 -0.699219 0.066582 11 13 18
0.050781 -0.699219 0.059551 12 14 20
0.054688 -0.699219 0.050355 18 20 29
0.058594 -0.699219 0.048520 20 23 36
0.062500 -0.699219 0.011116 13 14 28
-0.035156 -0.703125 -0.025302 54 42 40
-0.031250 -0.703125 -0.227264 55 40 39
-0.027344 -0.703125 -0.228583 43 31 31
-0.023438 -0.703125 -0.037723 48 34 34
-0.019531 -0.703125 0.065204 55 43 41
-0.015625 -0.703125 0.062866 38 32 32
-0.011719 -0.703125 0.069296 25 23 25
-0.007812 -0.703125 0.074054 20 20 23
-0.003906 -0.703125 0.077883 18 20 22
0.000000 -0.703125 0.078377 18 19 22
0.003906 -0.703125 0.078214 15 16 19
0.007812 -0.703125 0.078210 14 15 18
0.011719 -0.703125 0.078907 14 15 18
0.015625 -0.703125 0.079371 13 14 17
0.019531 -0.703125 0.079486 13 14 17
0.023438 -0.703125 0.078477 13 14 17
0.027344 -0.703125 0.077184 13 14 18
0.031250 -0.703125 0.076027 13 14 19
0.035156 -0.703125 0.073907 13 15 20
0.039062 -0.703125 0.071864 12 14 19
0.042969 -0.703125 0.069205 12 14 19
0.046875 -0.703125 0.065733 11 13 18
0.050781 -0.703125 0.060589 10 11 17
0.054688 -0.703125 0.049427 14 15 24
0.058594 -0.703125 0.054899 18 21 36
0.062500 -0.703125 0.021811 45 52 82
-0.035156 -0.707031 -0.015013 38 26 25
-0.031250 -0.707031 -0.225090 117 85 72
-0.027344 -0.707031 -0.224894 121 82 67
-0.023438 -0.707031 -0.052518 106 70 58
-0.019531 -0.707031 0.069770 79 59 51
-0.015625 -0.707031 0.063455 33 28 28
-0.011719 -0.707031 0.070164 20 19 22
-0.007812 -0.707031 0.073989 18 19 23
-0.003906 -0.707031 0.078176 17 19 23
0.000000 -0.707031 0.078748 17 19 23
0.003906 -0.707031 0.078624 15 16 20
0.007812 -0.707031 0.078694 15 17 20
0.011719 -0.707031 0.079370 16 18 21
0.015625 -0.707031 0.079858 15 16 19
0.019531 -0.707031 0.079947 14 16 19
0.023438 -0.707031 0.078871 13 15 19
0.027344 -0.707031 0.077485 12 14 18
0.031250 -0.707031 0.076229 11 13 18
0.035156 -0.707031 0.074260 11 13 19
0.039062 -0.707031 0.072336 10 12 18
0.042969 -0.707031 0.068776 11 12 18
0.046875 -0.707031 0.064798 11 13 19
0.050781 -0.707031 0.059656 11 13 19
0.054688 -0.707031 0.050714 16 19 28
0.058594 -0.707031 0.042372 18 21 34
0.062500 -0.707031 0.026986 40 49 68
-0.031250 -0.710938 -0.232635 124 85 70
-0.027344 -0.710938 -0.224850 150 98 77
-0.023438 -0.710938 -0.068083 127 79 63
-0.019531 -0.710938 0.074836 98 70 58
-0.015625 -0.710938 0.064535 44 36 34
-0.011719 -0.710938 0.071915 30 28 29
-0.007812 -0.710938 0.074207 24 25 29
-0.003906 -0.710938 0.078603 18 20 25
0.000000 -0.710938 0.079171 16 18 23
0.003906 -0.710938 0.079071 13 15 19
0.007812 -0.710938 0.079185 13 15 19
0.011719 -0.710938 0.079814 14 15 19
0.015625 -0.710938 0.080295 13 14 18
0.019531 -0.710938 0.080325 12 14 17
0.023438 -0.710938 0.079177 11 13 17
0.027344 -0.710938 0.077691 11 13 17
0.031250 -0.710938 0.076363 10 13 18
0.035156 -0.710938 0.074446 12 14 21
0.039062 -0.710938 0.072227 12 15 22
0.042969 -0.710938 0.068066 13 15 22
0.046875 -0.710938 0.064816 14 16 22
0.050781 -0.710938 0.060981 14 16 22
0.054688 -0.710938 0.052358 21 22 30
0.058594 -0.710938 0.033391 19 20 30
0.062500 -0.710938 0.026699 22 26 41
0.066406 -0.710938 0.023573 66 79 107
-0.031250 -0.714844 -0.019651 116 80 65
-0.027344 -0.714844 -0.219106 143 90 71
-0.023438 -0.714844 -0.091289 130 80 63
-0.019531 -0.714844 0.077170 111 79 63
-0.015625 -0.714844 0.064550 51 40 36
-0.011719 -0.714844 0.073731 30 27 28
-0.007812 -0.714844 0.074530 22 23 27
-0.003906 -0.714844 0.078918 16 19 23
0.000000 -0.714844 0.079544 17 19 24
0.003906 -0.714844 0.079524 15 18 22
0.007812 -0.714844 0.079671 15 17 21
0.011719 -0.714844 0.080269 15 17 20
0.015625 -0.714844 0.080707 13 15 19
0.019531 -0.714844 0.080629 13 15 19
0.023438 -0.714844 0.079359 13 16 20
0.027344 -0.714844 0.077701 13 16 21
0.031250 -0.714844 0.076113 14 16 22
0.035156 -0.714844 0.074027 15 18 24
0.039062 -0.714844 0.071835 15 17 24
0.042969 -0.714844 0.067898 15 16 23
0.046875 -0.714844 0.064147 13 14 20
0.050781 -0.714844 0.060020 14 14 20
0.054688 -0.714844 0.049870 17 17 24
0.058594 -0.714844 0.035642 15 14 23
0.062500 -0.714844 0.016219 18 18 32
0.066406 -0.714844 0.013040 53 58 84
0.070312 -0.714844 -0.006654 116 130 147
-0.027344 -0.718750 -0.212617 118 70 56
-0.023438 -0.718750 -0.090095 138 86 67
-0.019531 -0.718750 0.075316 114 82 64
-0.015625 -0.718750 0.065627 45 35 31
-0.011719 -0.718750 0.073970 21 19 20
-0.007812 -0.718750 0.074149 15 16 19
-0.003906 -0.718750 0.079249 13 15 20
0.000000 -0.718750 0.080078 16 19 23
0.003906 -0.718750 0.080035 17 19 24
0.007812 -0.718750 0.080169 17 20 24
0.011719 -0.718750 0.080668 17 20 24
0.015625 -0.718750 0.080990 16 18 22
0.019531 -0.718750 0.080740 15 17 21
0.023438 -0.718750 0.079322 14 16 21
0.027344 -0.718750 0.077511 13 15 20
0.031250 -0.718750 0.075760 13 15 20
0.035156 -0.718750 0.073529 13 15 20
0.039062 -0.718750 0.070981 13 14 20
0.042969 -0.718750 0.067011 13 14 21
0.046875 -0.718750 0.063840 13 14 20
0.050781 -0.718750 0.059819 18 19 25
0.054688 -0.718750 0.049030 25 24 29
0.058594 -0.718750 0.034935 16 14 20
0.062500 -0.718750 0.019044 14 12 20
0.066406 -0.718750 0.002031 26 26 41
0.070312 -0.718750 -0.005526 55 58 81
-0.027344 -0.722656 -0.198140 86 50 45
-0.023438 -0.722656 -0.057120 143 94 75
-0.019531 -0.722656 0.072571 129 99 79
-0.015625 -0.722656 0.067878 57 46 43
-0.011719 -0.722656 0.073424 26 23 27
-0.007812 -0.722656 0.074195 17 18 23
-0.003906 -0.722656 0.080200 16 18 23
0.000000 -0.722656 0.081021 18 21 26
0.003906 -0.722656 0.080774 16 19 24
0.007812 -0.722656 0.080795 16 18 22
0.011719 -0.722656 0.081150 15 17 21
0.015625 -0.722656 0.081387 13 15 19
0.019531 -0.722656 0.080989 12 14 19
0.023438 -0.722656 0.079436 13 14 19
0.027344 -0.722656 0.077465 12 14 19
0.031250 -0.722656 0.075549 13 14 20
0.035156 -0.722656 0.073208 13 14 20
0.039062 -0.722656 0.070500 13 14 21
0.042969 -0.722656 0.066828 14 14 22
0.046875 -0.722656 0.064128 15 15 22
0.050781 -0.722656 0.059725 30 30 35
0.054688 -0.722656 0.050084 54 48 50
0.058594 -0.722656 0.035799 29 25 30
0.062500 -0.722656 0.022584 16 15 23
0.066406 -0.722656 -0.001485 20 21 33
0.070312 -0.722656 -0.009360 32 37 55
-0.027344 -0.726562 -0.028857 166 123 105
-0.023438 -0.726562 -0.053793 175 125 104
-0.019531 -0.726562 0.067843 144 113 96
-0.015625 -0.726562 0.069813 55 46 46
-0.011719 -0.726562 0.073494 24 22 28
-0.007812 -0.726562 0.075008 14 15 21
-0.003906 -0.726562 0.080973 13 15 21
0.000000 -0.726562 0.081831 16 19 23
0.003906 -0.726562 0.081589 14 16 21
0.007812 -0.726562 0.081561 14 17 20
0.011719 -0.726562 0.081762 15 17 21
0.015625 -0.726562 0.081904 13 15 20
0.019531 -0.726562 0.081390 14 16 20
0.023438 -0.726562 0.079704 15 16 21
0.027344 -0.726562 0.077568 14 16 21
0.031250 -0.726562 0.075490 15 16 22
0.035156 -0.726562 0.073059 15 16 23
0.039062 -0.726562 0.070261 14 15 23
0.042969 -0.726562 0.066845 15 15 24
0.046875 -0.726562 0.064031 18 19 27
0.050781 -0.726562 0.058908 45 42 49
0.054688 -0.726562 0.051503 89 76 77
0.058594 -0.726562 0.037329 45 39 45
0.062500 -0.726562 0.023120 19 19 27
0.066406 -0.726562 -0.003083 20 21 30
0.070312 -0.726562 -0.012221 22 24 35
-0.023438 -0.730469 -0.075585 126 78 68
-0.019531 -0.730469 0.068867 108 81 73
-0.015625 -0.730469 0.069441 30 28 32
-0.011719 -0.730469 0.072831 18 19 26
-0.007812 -0.730469 0.075914 12 15 22
-0.003906 -0.730469 0.081684 12 15 20
0.000000 -0.730469 0.082644 14 18 23
0.003906 -0.730469 0.082487 12 15 20
0.007812 -0.730469 0.082421 13 16 20
0.011719 -0.730469 0.082415 14 17 21
0.015625 -0.730469 0.082426 14 16 20
0.019531 -0.730469 0.081822 14 16 21
0.023438 -0.730469 0.080025 14 16 20
0.027344 -0.730469 0.077727 13 15 19
0.031250 -0.730469 0.075431 13 15 20
0.035156 -0.730469 0.072803 14 15 21
0.039062 -0.730469 0.069790 12 13 21
0.042969 -0.730469 0.066371 14 15 22
0.046875 -0.730469 0.063711 21 21 28
0.050781 -0.730469 0.058464 53 47 50
0.054688 -0.730469 0.051338 112 91 83
0.058594 -0.730469 0.036582 63 51 51
0.062500 -0.730469 0.021353 23 22 26
0.066406 -0.730469 0.001999 20 21 27
0.070312 -0.730469 -0.012397 16 18 27
-0.023438 -0.734375 -0.090214 66 40 41
-0.019531 -0.734375 0.067964 71 57 58
-0.015625 -0.734375 0.067943 19 20 26
-0.011719 -0.734375 0.073980 18 22 32
-0.007812 -0.734375 0.077766 13 18 27
-0.003906 -0.734375 0.082723 13 18 25
0.000000 -0.734375 0.083651 16 21 27
0.003906 -0.734375 0.083588 12 16 21
0.007812 -0.734375 0.083510 14 17 22
0.011719 -0.734375 0.083377 14 18 23
0.015625 -0.734375 0.083334 14 17 22
0.019531 -0.734375 0.082656 16 19 23
0.023438 -0.734375 0.080741 16 18 23
0.027344 -0.734375 0.078243 15 17 22
0.031250 -0.734375 0.075679 15 18 24
0.035156 -0.734375 0.072804 16 18 25
0.039062 -0.734375 0.069562 14 16 24
0.042969 -0.734375 0.065954 17 18 26
0.046875 -0.734375 0.062922 25 25 31
0.050781 -0.734375 0.057055 52 45 48
0.054688 -0.734375 0.049808 105 82 77
0.058594 -0.734375 0.034497 62 48 49
0.062500 -0.734375 0.017834 23 21 25
0.066406 -0.734375 0.006297 19 19 25
-0.023438 -0.738281 -0.054134 69 53 51
-0.019531 -0.738281 0.062684 53 46 51
-0.015625 -0.738281 0.068748 14 16 22
-0.011719 -0.738281 0.077215 17 22 31
-0.007812 -0.738281 0.079494 12 16 24
-0.003906 -0.738281 0.083160 12 16 22
0.000000 -0.738281 0.084027 15 19 25
0.003906 -0.738281 0.084311 12 15 21
0.007812 -0.738281 0.084321 14 18 23
0.011719 -0.738281 0.084166 16 20 24
0.015625 -0.738281 0.084099 16 20 25
0.019531 -0.738281 0.083288 19 23 27
0.023438 -0.738281 0.081234 20 24 27
0.027344 -0.738281 0.078547 19 22 26
0.031250 -0.738281 0.075794 19 22 26
0.035156 -0.738281 0.072739 19 21 28
0.039062 -0.738281 0.069216 18 20 28
0.042969 -0.738281 0.065243 23 24 33
0.046875 -0.738281 0.061730 31 32 39
0.050781 -0.738281 0.055471 52 48 53
0.054688 -0.738281 0.048779 88 70 70
0.058594 -0.738281 0.031304 48 37 40
0.062500 -0.738281 0.012430 19 16 20
0.066406 -0.738281 0.008515 17 16 19
-0.023438 -0.742188 -0.004249 7 7 10
-0.019531 -0.742188 0.057021 9 9 14
-0.015625 -0.742188 0.069986 6 7 11
-0.011719 -0.742188 0.078551 13 17 23
-0.007812 -0.742188 0.079833 13 17 23
-0.003906 -0.742188 0.082931 15 19 23
0.000000 -0.742188 0.083714 19 22 26
0.003906 -0.742188 0.084270 14 18 22
0.007812 -0.742188 0.084320 15 19 23
0.011719 -0.742188 0.084149 15 20 23
0.015625 -0.742188 0.084122 14 18 21
0.019531 -0.742188 0.083201 16 20 22
0.023438 -0.742188 0.081055 16 20 22
0.027344 -0.742188 0.078260 15 19 22
0.031250 -0.742188 0.075434 16 19 23
0.035156 -0.742188 0.072277 16 19 24
0.039062 -0.742188 0.068468 16 18 24
0.042969 -0.742188 0.063994 19 20 27
0.046875 -0.742188 0.059608 26 27 33
0.050781 -0.742188 0.052994 46 45 48
0.054688 -0.742188 0.047405 68 58 57
0.058594 -0.742188 0.027211 35 28 31
0.062500 -0.742188 0.005966 16 14 17
0.066406 -0.742188 0.006685 15 14 17
-0.023438 -0.746094 -0.022965 2 2 5
-0.019531 -0.746094 0.051084 5 5 10
-0.015625 -0.746094 0.072052 5 6 10
-0.011719 -0.746094 0.078143 12 14 19
-0.007812 -0.746094 0.079099 16 16 20
-0.003906 -0.746094 0.082487 18 17 21
0.000000 -0.746094 0.083405 20 18 23
0.003906 -0.746094 0.083931 16 16 20
0.007812 -0.746094 0.083858 17 18 22
0.011719 -0.746094 0.083647 17 19 22
0.015625 -0.746094 0.083649 15 17 20
0.019531 -0.746094 0.082677 15 17 21
0.023438 -0.746094 0.080479 15 17 21
0.027344 -0.746094 0.077625 15 17 22
0.031250 -0.746094 0.074801 17 19 24
0.035156 -0.746094 0.071565 17 19 25
0.039062 -0.746094 0.067534 17 18 26
0.042969 -0.746094 0.062589 18 19 27
0.046875 -0.746094 0.057121 22 22 31
0.050781 -0.746094 0.050400 39 38 46
0.054688 -0.746094 0.044912 51 43 47
0.058594 -0.746094 0.021896 26 20 25
0.062500 -0.746094 -0.000089 16 14 18
0.066406 -0.746094 0.001447 19 18 22
-0.023438 -0.750000 -0.028757 3 3 7
-0.019531 -0.750000 0.046694 6 7 11
-0.015625 -0.750000 0.070939 8 8 11
-0.011719 -0.750000 0.076359 22 21 24
-0.007812 -0.750000 0.077590 40 34 36
-0.003906 -0.750000 0.081762 45 35 37
0.000000 -0.750000 0.082803 43 33 36
0.003906 -0.750000 0.083172 37 30 33
0.007812 -0.750000 0.082997 35 31 34
0.011719 -0.750000 0.082834 33 30 33
0.015625 -0.750000 0.082840 28 27 30
0.019531 -0.750000 0.081792 26 25 28
0.023438 -0.750000 0.079578 23 23 27
0.027344 -0.750000 0.076692 22 22 27
0.031250 -0.750000 0.073831 23 23 29
0.035156 -0.750000 0.070471 22 21 27
0.039062 -0.750000 0.066268 23 22 29
0.042969 -0.750000 0.061026 23 22 29
0.046875 -0.750000 0.054987 25 24 32
0.050781 -0.750000 0.048709 39 37 45
0.054688 -0.750000 0.040614 36 31 37
0.058594 -0.750000 0.016338 19 15 20
0.062500 -0.750000 -0.006466 16 14 19
0.066406 -0.750000 -0.007927 20 19 24
-0.023438 -0.753906 -0.018292 8 8 17
-0.019531 -0.753906 0.048231 12 11 16
-0.015625 -0.753906 0.070492 28 21 24
-0.011719 -0.753906 0.076582 100 77 72
-0.007812 -0.753906 0.077894 151 120 108
-0.003906 -0.753906 0.081950 139 109 99
0.000000 -0.753906 0.082707 123 95 87
0.003906 -0.753906 0.082801 111 86 79
0.007812 -0.753906 0.082505 101 80 74
0.011719 -0.753906 0.082344 93 73 70
0.015625 -0.753906 0.082351 78 61 60
0.019531 -0.753906 0.081238 65 53 52
0.023438 -0.753906 0.079074 57 47 47
0.027344 -0.753906 0.076263 58 48 48
0.031250 -0.753906 0.073402 59 49 49
0.035156 -0.753906 0.069990 51 41 43
0.039062 -0.753906 0.065689 56 46 48
0.042969 -0.753906 0.060198 56 46 50
0.046875 -0.753906 0.053925 59 49 54
0.050781 -0.753906 0.047098 71 62 70
0.054688 -0.753906 0.035832 39 34 43
0.058594 -0.753906 0.011637 18 15 21
0.062500 -0.753906 -0.013039 19 17 23
0.066406 -0.753906 -0.034124 26 24 30
-0.023438 -0.757812 -0.014559 135 123 138
-0.019531 -0.757812 0.057610 138 107 110
-0.015625 -0.757812 0.071664 153 109 104
-0.011719 -0.757812 0.078255 201 161 146
-0.007812 -0.757812 0.078372 196 154 139
-0.003906 -0.757812 0.082332 162 120 110
0.000000 -0.757812 0.083061 149 111 102
0.003906 -0.757812 0.083009 146 112 102
0.007812 -0.757812 0.082619 145 112 101
0.011719 -0.757812 0.082314 141 109 97
0.015625 -0.757812 0.082217 129 98 87
0.019531 -0.757812 0.080981 119 90 78
0.023438 -0.757812 0.078753 113 85 72
0.027344 -0.757812 0.075935 125 93 79
0.031250 -0.757812 0.073024 130 97 83
0.035156 -0.757812 0.069554 117 86 74
0.039062 -0.757812 0.065104 130 98 87
0.042969 -0.757812 0.059334 126 96 89
0.046875 -0.757812 0.052996 124 95 90
0.050781 -0.757812 0.043813 123 100 99
0.054688 -0.757812 0.031284 53 44 50
0.058594 -0.757812 0.005171 22 19 25
0.062500 -0.757812 -0.021483 26 24 29
0.066406 -0.757812 -0.057762 38 33 38
-0.023438 -0.761719 -0.096247 164 142 134
-0.019531 -0.761719 0.067789 178 143 125
-0.015625 -0.761719 0.070753 154 110 101
-0.011719 -0.761719 0.077849 169 130 117
-0.007812 -0.761719 0.077826 151 112 100
-0.003906 -0.761719 0.082586 136 97 88
0.000000 -0.761719 0.083493 144 107 96
0.003906 -0.761719 0.083189 147 112 101
0.007812 -0.761719 0.082691 147 113 100
0.011719 -0.761719 0.082279 138 105 89
0.015625 -0.761719 0.082032 130 96 79
0.019531 -0.761719 0.080615 132 96 77
0.023438 -0.761719 0.078242 129 91 73
0.027344 -0.761719 0.075305 136 96 78
0.031250 -0.761719 0.072297 137 97 80
0.035156 -0.761719 0.068776 124 89 73
0.039062 -0.761719 0.064177 143 109 92
0.042969 -0.761719 0.058153 143 111 96
0.046875 -0.761719 0.051018 139 107 94
0.050781 -0.761719 0.039400 128 102 92
0.054688 -0.761719 0.026463 47 37 39
0.058594 -0.761719 0.001710 21 18 21
0.062500 -0.761719 -0.034393 27 25 28
-0.023438 -0.765625 -0.098773 126 100 93
-0.019531 -0.765625 0.075806 147 111 93
-0.015625 -0.765625 0.073183 120 83 76
-0.011719 -0.765625 0.079538 139 104 96
-0.007812 -0.765625 0.079082 132 100 91
-0.003906 -0.765625 0.083578 137 102 93
0.000000 -0.765625 0.084333 150 114 102
0.003906 -0.765625 0.083710 150 114 103
0.007812 -0.765625 0.083032 147 111 100
0.011719 -0.765625 0.082412 133 98 86
0.015625 -0.765625 0.081956 126 91 77
0.019531 -0.765625 0.080293 134 95 79
0.023438 -0.765625 0.077693 130 89 75
0.027344 -0.765625 0.074630 128 87 74
0.031250 -0.765625 0.071506 125 87 74
0.035156 -0.765625 0.067877 114 80 69
0.039062 -0.765625 0.063111 131 98 85
0.042969 -0.765625 0.056778 137 105 94
0.046875 -0.765625 0.048376 146 115 101
0.050781 -0.765625 0.035526 138 110 100
0.054688 -0.765625 0.021060 45 35 38
0.058594 -0.765625 -0.001890 18 15 19
0.062500 -0.765625 -0.055237 28 24 29
-0.023438 -0.769531 -0.033301 160 132 128
-0.019531 -0.769531 0.077856 179 143 126
-0.015625 -0.769531 0.079406 149 110 100
-0.011719 -0.769531 0.080696 156 120 109
-0.007812 -0.769531 0.079519 142 109 99
-0.003906 -0.769531 0.083898 142 108 99
0.000000 -0.769531 0.084750 148 114 103
0.003906 -0.769531 0.084251 141 108 97
0.007812 -0.769531 0.083488 134 102 91
0.011719 -0.769531 0.082559 123 92 83
0.015625 -0.769531 0.081845 121 88 79
0.019531 -0.769531 0.079861 128 92 81
0.023438 -0.769531 0.076924 124 87 77
0.027344 -0.769531 0.073664 122 85 75
0.031250 -0.769531 0.070337 120 84 75
0.035156 -0.769531 0.066462 108 77 69
0.039062 -0.769531 0.061555 118 88 78
0.042969 -0.769531 0.055082 124 95 85
0.046875 -0.769531 0.045558 144 114 100
0.050781 -0.769531 0.031821 136 110 99
0.054688 -0.769531 0.014703 41 33 37
0.058594 -0.769531 -0.004108 15 13 17
0.062500 -0.769531 -0.082954 28 25 31
-0.023438 -0.773438 0.014696 134 107 108
-0.019531 -0.773438 0.072035 176 141 122
-0.015625 -0.773438 0.081470 152 116 102
-0.011719 -0.773438 0.080179 148 115 103
-0.007812 -0.773438 0.079841 138 106 93
-0.003906 -0.773438 0.084326 141 108 95
0.000000 -0.773438 0.085202 145 110 97
0.003906 -0.773438 0.084786 134 100 90
0.007812 -0.773438 0.083978 124 93 84
0.011719 -0.773438 0.082831 120 89 81
0.015625 -0.773438 0.081859 122 88 80
0.019531 -0.773438 0.079595 125 89 79
0.023438 -0.773438 0.076361 120 84 73
0.027344 -0.773438 0.072839 118 82 71
0.031250 -0.773438 0.069253 116 81 70
0.035156 -0.773438 0.065133 105 74 65
0.039062 -0.773438 0.060110 109 80 70
0.042969 -0.773438 0.053310 113 83 74
0.046875 -0.773438 0.042635 120 91 81
0.050781 -0.773438 0.029049 92 73 70
0.054688 -0.773438 0.008959 27 22 27
0.058594 -0.773438 -0.005724 13 11 16
0.062500 -0.773438 -0.126907 28 25 31
-0.027344 -0.777344 -0.057906 55 33 47
-0.023438 -0.777344 0.039563 172 142 138
-0.019531 -0.777344 0.066209 177 141 124
-0.015625 -0.777344 0.081040 160 123 109
-0.011719 -0.777344 0.080841 150 115 104
-0.007812 -0.777344 0.081341 142 106 95
-0.003906 -0.777344 0.085194 142 105 93
0.000000 -0.777344 0.085764 142 105 93
0.003906 -0.777344 0.085243 137 102 92
0.007812 -0.777344 0.084355 135 102 92
0.011719 -0.777344 0.082978 135 102 93
0.015625 -0.777344 0.081616 136 102 92
0.019531 -0.777344 0.079014 135 100 87
0.023438 -0.777344 0.075568 125 90 78
0.027344 -0.777344 0.071902 118 83 72
0.031250 -0.777344 0.068120 111 77 68
0.035156 -0.777344 0.063771 104 73 64
0.039062 -0.777344 0.058567 109 78 68
0.042969 -0.777344 0.051015 110 80 71
0.046875 -0.777344 0.039855 114 87 78
0.050781 -0.777344 0.027165 76 63 63
0.054688 -0.777344 0.005441 22 20 25
0.058594 -0.777344 -0.012723 13 11 15
0.062500 -0.777344 -0.182852 27 25 30
-0.027344 -0.781250 -0.039135 183 157 142
-0.023438 -0.781250 0.064781 197 166 150
-0.019531 -0.781250 0.069177 167 126 113
-0.015625 -0.781250 0.080887 156 116 105
-0.011719 -0.781250 0.080075 151 113 102
-0.007812 -0.781250 0.081697 144 107 96
-0.003906 -0.781250 0.085191 138 102 91
0.000000 -0.781250 0.085830 136 101 90
0.003906 -0.781250 0.085305 139 105 94
0.007812 -0.781250 0.084225 142 108 96
0.011719 -0.781250 0.082529 139 106 94
0.015625 -0.781250 0.080727 133 99 89
0.019531 -0.781250 0.077773 132 97 86
0.023438 -0.781250 0.074190 126 91 81
0.027344 -0.781250 0.070479 117 83 74
0.031250 -0.781250 0.066546 107 75 66
0.035156 -0.781250 0.061974 102 71 62
0.039062 -0.781250 0.056752 105 74 65
0.042969 -0.781250 0.048386 109 78 71
0.046875 -0.781250 0.037970 135 106 100
0.050781 -0.781250 0.025768 112 97 96
0.054688 -0.781250 0.007436 32 30 35
0.058594 -0.781250 -0.032648 12 11 14
0.062500 -0.781250 -0.229466 21 20 24
-0.027344 -0.785156 -0.013631 164 136 128
-0.023438 -0.785156 0.066774 177 137 120
-0.019531 -0.785156 0.071924 154 114 97
-0.015625 -0.785156 0.081150 146 108 95
-0.011719 -0.785156 0.080481 144 108 97
-0.007812 -0.785156 0.082870 146 110 98
-0.003906 -0.785156 0.085300 143 108 96
0.000000 -0.785156 0.085798 144 110 97
0.003906 -0.785156 0.085185 144 110 97
0.007812 -0.785156 0.083738 139 104 92
0.011719 -0.785156 0.081658 130 96 85
0.015625 -0.785156 0.079478 119 85 77
0.019531 -0.785156 0.076255 117 83 75
0.023438 -0.785156 0.072549 122 88 79
0.027344 -0.785156 0.068762 125 93 83
0.031250 -0.785156 0.064765 119 88 78
0.035156 -0.785156 0.060192 105 77 69
0.039062 -0.785156 0.054931 100 74 66
0.042969 -0.785156 0.045343 104 79 73
0.046875 -0.785156 0.035747 143 118 112
0.050781 -0.785156 0.025574 145 129 125
0.054688 -0.785156 0.015659 51 46 50
0.058594 -0.785156 -0.081930 12 11 13
0.062500 -0.785156 -0.263627 16 16 19
-0.027344 -0.789062 0.041263 186 151 147
-0.023438 -0.789062 0.068228 174 129 117
-0.019531 -0.789062 0.076948 159 118 103
-0.015625 -0.789062 0.080540 148 111 99
-0.011719 -0.789062 0.081206 144 109 98
-0.007812 -0.789062 0.083848 148 114 102
-0.003906 -0.789062 0.085348 152 117 105
0.000000 -0.789062 0.085599 153 118 105
0.003906 -0.789062 0.084843 144 109 97
0.007812 -0.789062 0.083000 130 97 86
0.011719 -0.789062 0.080572 123 90 79
0.015625 -0.789062 0.078055 114 81 72
0.019531 -0.789062 0.074604 110 77 70
0.023438 -0.789062 0.070732 117 85 78
0.027344 -0.789062 0.066823 130 99 91
0.031250 -0.789062 0.062869 132 102 95
0.035156 -0.789062 0.058487 118 92 86
0.039062 -0.789062 0.053311 111 89 82
0.042969 -0.789062 0.043225 117 96 91
0.046875 -0.789062 0.034013 143 122 117
0.050781 -0.789062 0.023262 147 130 127
0.054688 -0.789062 0.026293 66 56 61
0.058594 -0.789062 -0.130974 13 12 14
0.062500 -0.789062 -0.273880 15 15 18
0.066406 -0.789062 -0.016884 49 40 45
-0.031250 -0.792969 -0.037373 136 104 95
-0.027344 -0.792969 0.062987 194 166 144
-0.023438 -0.792969 0.071679 161 120 107
-0.019531 -0.792969 0.080543 155 115 104
-0.015625 -0.792969 0.080670 154 117 106
-0.011719 -0.792969 0.082006 150 117 105
-0.007812 -0.792969 0.083920 154 120 107
-0.003906 -0.792969 0.084917 154 120 106
0.000000 -0.792969 0.085010 148 114 100
0.003906 -0.792969 0.084158 138 104 92
0.007812 -0.792969 0.082056 128 94 83
0.011719 -0.792969 0.079410 126 91 80
0.015625 -0.792969 0.076664 121 86 77
0.019531 -0.792969 0.073035 118 83 75
0.023438 -0.792969 0.069045 123 90 83
0.027344 -0.792969 0.065091 130 100 94
0.031250 -0.792969 0.061163 135 109 103
0.035156 -0.792969 0.056873 131 110 105
0.039062 -0.792969 0.051689 133 116 110
0.042969 -0.792969 0.041220 141 124 120
0.046875 -0.792969 0.032441 146 129 125
0.050781 -0.792969 0.021288 142 125 121
0.054688 -0.792969 0.033395 75 60 63
0.058594 -0.792969 -0.180528 15 13 15
-0.031250 -0.796875 -0.021534 145 115 106
