ply
    format ascii 1.0
    element vertex 84732
    property float x
    property float y
    property float z
    property uchar red
    property uchar green
    property uchar blue
    end_header
0.398438 -0.023438 -0.047075 176 111 91
0.402344 -0.023438 -0.045975 168 104 84
0.406250 -0.023438 -0.043610 160 94 73
0.410156 -0.023438 -0.039881 157 95 70
0.414062 -0.023438 -0.034360 129 80 60
0.417969 -0.023438 -0.020764 117 68 58
-0.351562 -0.027344 0.001655 69 48 43
-0.347656 -0.027344 -0.002325 73 46 39
-0.343750 -0.027344 -0.003993 93 59 50
-0.339844 -0.027344 -0.004202 114 71 61
-0.335938 -0.027344 -0.003918 116 69 59
-0.332031 -0.027344 -0.002993 126 73 63
-0.328125 -0.027344 -0.001515 146 88 75
-0.324219 -0.027344 0.000892 155 94 83
-0.320312 -0.027344 0.003975 151 91 81
-0.316406 -0.027344 0.007306 150 92 82
-0.312500 -0.027344 0.011164 154 97 88
-0.308594 -0.027344 0.016356 162 105 94
-0.304688 -0.027344 0.022143 153 100 83
-0.300781 -0.027344 0.030954 128 85 69
-0.296875 -0.027344 0.033977 121 93 69
-0.207031 -0.027344 -0.002219 198 196 196
-0.203125 -0.027344 -0.015698 228 227 228
-0.199219 -0.027344 -0.028611 216 216 216
-0.195312 -0.027344 -0.041553 206 206 206
-0.191406 -0.027344 -0.053342 197 197 196
-0.187500 -0.027344 -0.063481 188 188 187
-0.183594 -0.027344 -0.072345 176 176 176
-0.179688 -0.027344 -0.080441 167 167 167
-0.175781 -0.027344 -0.086770 161 161 161
-0.171875 -0.027344 -0.092491 161 161 161
-0.167969 -0.027344 -0.096943 163 163 163
-0.164062 -0.027344 -0.100534 163 163 163
-0.160156 -0.027344 -0.103935 159 159 158
-0.156250 -0.027344 -0.106968 153 153 150
-0.152344 -0.027344 -0.109939 133 134 131
-0.148438 -0.027344 -0.112777 103 103 99
-0.144531 -0.027344 -0.115555 96 95 91
-0.140625 -0.027344 -0.118260 116 117 108
-0.136719 -0.027344 -0.120515 84 86 70
-0.132812 -0.027344 -0.122512 96 99 80
-0.128906 -0.027344 -0.124369 97 97 73
-0.125000 -0.027344 -0.126107 93 92 71
-0.121094 -0.027344 -0.127644 99 98 80
-0.117188 -0.027344 -0.129035 112 113 99
-0.113281 -0.027344 -0.130271 119 120 112
-0.109375 -0.027344 -0.131271 115 117 112
-0.105469 -0.027344 -0.132114 114 115 117
-0.101562 -0.027344 -0.132698 118 119 123
-0.097656 -0.027344 -0.133187 107 108 113
-0.093750 -0.027344 -0.133556 107 108 113
-0.089844 -0.027344 -0.133661 107 106 111
-0.085938 -0.027344 -0.133475 105 105 107
-0.082031 -0.027344 -0.133091 105 104 102
-0.078125 -0.027344 -0.132555 110 106 103
-0.074219 -0.027344 -0.132026 116 111 107
-0.070312 -0.027344 -0.131559 121 116 110
-0.066406 -0.027344 -0.131505 116 116 106
-0.062500 -0.027344 -0.132085 118 118 108
-0.058594 -0.027344 -0.134089 115 115 105
-0.054688 -0.027344 -0.137390 118 118 108
-0.050781 -0.027344 -0.140619 127 127 117
-0.046875 -0.027344 -0.143396 124 124 116
-0.042969 -0.027344 -0.145307 121 121 113
-0.039062 -0.027344 -0.146614 130 129 124
-0.035156 -0.027344 -0.147303 108 107 102
-0.031250 -0.027344 -0.147615 102 103 97
-0.027344 -0.027344 -0.147541 104 105 100
-0.023438 -0.027344 -0.147059 114 115 110
-0.019531 -0.027344 -0.146593 120 120 118
-0.015625 -0.027344 -0.145961 117 117 115
-0.011719 -0.027344 -0.145318 113 113 111
-0.007812 -0.027344 -0.144659 111 111 109
-0.003906 -0.027344 -0.144038 110 106 97
0.000000 -0.027344 -0.143390 113 109 100
0.003906 -0.027344 -0.142789 118 114 105
0.007812 -0.027344 -0.142221 123 119 110
0.011719 -0.027344 -0.141680 125 121 112
0.015625 -0.027344 -0.141209 124 120 111
0.019531 -0.027344 -0.140676 120 116 107
0.023438 -0.027344 -0.140159 117 113 104
0.027344 -0.027344 -0.139705 118 114 105
0.031250 -0.027344 -0.139283 115 111 102
0.035156 -0.027344 -0.138898 123 119 110
0.039062 -0.027344 -0.138516 128 124 115
0.042969 -0.027344 -0.138231 119 115 106
0.046875 -0.027344 -0.137988 113 109 100
0.050781 -0.027344 -0.137713 106 102 93
0.054688 -0.027344 -0.137443 92 88 79
0.058594 -0.027344 -0.137111 113 104 95
0.062500 -0.027344 -0.136824 116 107 98
0.066406 -0.027344 -0.136677 119 110 101
0.070312 -0.027344 -0.136679 119 110 101
0.074219 -0.027344 -0.136695 118 109 100
0.078125 -0.027344 -0.136790 117 108 99
0.082031 -0.027344 -0.136920 116 107 98
0.085938 -0.027344 -0.137042 116 107 98
0.089844 -0.027344 -0.137194 114 105 96
0.093750 -0.027344 -0.137378 115 106 97
0.097656 -0.027344 -0.137632 115 106 97
0.101562 -0.027344 -0.137950 115 106 97
0.105469 -0.027344 -0.138240 114 105 96
0.109375 -0.027344 -0.138444 116 107 98
0.113281 -0.027344 -0.138585 119 110 101
0.117188 -0.027344 -0.138634 121 112 103
0.121094 -0.027344 -0.138656 116 120 103
0.125000 -0.027344 -0.138527 114 118 101
0.128906 -0.027344 -0.138154 108 112 97
0.132812 -0.027344 -0.137574 101 105 90
0.136719 -0.027344 -0.136836 100 104 89
0.140625 -0.027344 -0.135913 104 108 94
0.144531 -0.027344 -0.134856 105 109 95
0.148438 -0.027344 -0.133663 102 105 94
0.152344 -0.027344 -0.132271 96 99 88
0.156250 -0.027344 -0.130705 101 104 95
0.160156 -0.027344 -0.128936 89 92 83
0.164062 -0.027344 -0.126959 91 94 87
0.167969 -0.027344 -0.124794 84 87 80
0.171875 -0.027344 -0.122475 87 90 84
0.175781 -0.027344 -0.120162 97 98 96
0.179688 -0.027344 -0.117773 84 85 83
0.183594 -0.027344 -0.115199 109 109 109
0.187500 -0.027344 -0.112501 132 132 132
0.191406 -0.027344 -0.109237 142 142 142
0.195312 -0.027344 -0.105551 143 143 143
0.199219 -0.027344 -0.101726 135 135 135
0.203125 -0.027344 -0.097868 126 124 125
0.207031 -0.027344 -0.093882 118 116 117
0.210938 -0.027344 -0.089712 120 116 117
0.214844 -0.027344 -0.085649 135 128 129
0.218750 -0.027344 -0.081597 152 142 144
0.222656 -0.027344 -0.077343 164 152 154
0.226562 -0.027344 -0.072666 178 166 168
0.230469 -0.027344 -0.068322 190 180 182
0.234375 -0.027344 -0.063839 196 190 191
0.238281 -0.027344 -0.059174 203 196 197
0.242188 -0.027344 -0.053672 203 194 196
0.246094 -0.027344 -0.048206 193 182 185
0.250000 -0.027344 -0.040972 176 162 166
0.253906 -0.027344 -0.031875 143 130 135
0.257812 -0.027344 -0.003832 84 76 78
0.359375 -0.027344 -0.008674 132 74 55
0.363281 -0.027344 -0.015466 150 88 72
0.367188 -0.027344 -0.020708 166 101 85
0.371094 -0.027344 -0.026171 174 108 89
0.375000 -0.027344 -0.031369 173 104 88
0.378906 -0.027344 -0.035819 173 105 90
0.382812 -0.027344 -0.040290 172 105 89
0.386719 -0.027344 -0.044119 172 106 89
0.390625 -0.027344 -0.046810 173 107 90
0.394531 -0.027344 -0.047990 173 107 89
0.398438 -0.027344 -0.047739 177 112 92
0.402344 -0.027344 -0.046739 177 113 92
0.406250 -0.027344 -0.044563 166 99 79
0.410156 -0.027344 -0.041193 170 107 80
0.414062 -0.027344 -0.035273 166 105 77
0.417969 -0.027344 -0.025576 145 86 73
-0.351562 -0.031250 0.003154 70 50 45
-0.347656 -0.031250 -0.001273 80 51 42
-0.343750 -0.031250 -0.003272 100 63 52
-0.339844 -0.031250 -0.003407 121 74 62
-0.335938 -0.031250 -0.002933 125 74 62
-0.332031 -0.031250 -0.001853 130 76 64
-0.328125 -0.031250 -0.000231 148 89 75
-0.324219 -0.031250 0.002358 158 97 83
-0.320312 -0.031250 0.005482 154 95 82
-0.316406 -0.031250 0.008774 154 95 83
-0.312500 -0.031250 0.012272 156 99 87
-0.308594 -0.031250 0.016734 162 106 93
-0.304688 -0.031250 0.022185 159 104 89
-0.300781 -0.031250 0.027134 148 97 80
-0.296875 -0.031250 0.035717 144 104 82
-0.292969 -0.031250 0.035561 166 123 99
-0.203125 -0.031250 -0.013158 228 227 227
-0.199219 -0.031250 -0.027741 226 226 226
-0.195312 -0.031250 -0.038957 225 225 225
-0.191406 -0.031250 -0.049967 221 221 219
-0.187500 -0.031250 -0.059680 212 212 210
-0.183594 -0.031250 -0.068550 197 197 195
-0.179688 -0.031250 -0.076976 182 182 182
-0.175781 -0.031250 -0.083749 172 172 172
-0.171875 -0.031250 -0.089706 169 169 169
-0.167969 -0.031250 -0.094317 170 170 170
-0.164062 -0.031250 -0.098154 168 168 168
-0.160156 -0.031250 -0.101824 163 163 162
-0.156250 -0.031250 -0.105054 155 155 153
-0.152344 -0.031250 -0.108190 135 135 132
-0.148438 -0.031250 -0.111122 100 100 97
-0.144531 -0.031250 -0.113947 88 88 85
-0.140625 -0.031250 -0.116690 118 119 111
-0.136719 -0.031250 -0.118965 74 76 63
-0.132812 -0.031250 -0.120946 85 88 71
-0.128906 -0.031250 -0.122764 74 74 50
-0.125000 -0.031250 -0.124478 67 69 47
-0.121094 -0.031250 -0.125944 75 76 58
-0.117188 -0.031250 -0.127241 93 95 81
-0.113281 -0.031250 -0.128330 104 106 95
-0.109375 -0.031250 -0.129155 104 107 100
-0.105469 -0.031250 -0.129803 107 109 106
-0.101562 -0.031250 -0.130168 114 116 115
-0.097656 -0.031250 -0.130425 110 110 112
-0.093750 -0.031250 -0.130524 115 115 117
-0.089844 -0.031250 -0.130287 117 117 117
-0.085938 -0.031250 -0.129691 116 115 113
-0.082031 -0.031250 -0.128819 113 109 106
-0.078125 -0.031250 -0.127737 112 107 103
-0.074219 -0.031250 -0.126615 117 110 104
-0.070312 -0.031250 -0.125156 122 115 107
-0.066406 -0.031250 -0.123868 115 117 103
-0.062500 -0.031250 -0.123063 111 113 99
-0.058594 -0.031250 -0.123689 100 102 89
-0.054688 -0.031250 -0.125921 100 102 89
-0.050781 -0.031250 -0.128772 110 112 101
-0.046875 -0.031250 -0.132068 107 110 99
-0.042969 -0.031250 -0.135080 102 105 96
-0.039062 -0.031250 -0.137907 109 112 105
-0.035156 -0.031250 -0.140106 109 111 106
-0.031250 -0.031250 -0.141856 101 106 102
-0.027344 -0.031250 -0.142860 101 106 102
-0.023438 -0.031250 -0.143177 110 114 113
-0.019531 -0.031250 -0.143284 114 118 119
-0.015625 -0.031250 -0.142952 109 113 114
-0.011719 -0.031250 -0.142635 103 107 108
-0.007812 -0.031250 -0.142234 100 105 108
-0.003906 -0.031250 -0.141776 104 105 99
0.000000 -0.031250 -0.141308 105 106 100
0.003906 -0.031250 -0.140835 108 109 103
0.007812 -0.031250 -0.140397 111 112 106
0.011719 -0.031250 -0.139958 113 114 108
0.015625 -0.031250 -0.139592 112 113 107
0.019531 -0.031250 -0.139127 108 109 103
0.023438 -0.031250 -0.138667 105 106 100
0.027344 -0.031250 -0.138283 109 110 104
0.031250 -0.031250 -0.137944 104 105 99
0.035156 -0.031250 -0.137650 108 109 103
0.039062 -0.031250 -0.137367 109 110 104
0.042969 -0.031250 -0.137202 100 101 95
0.046875 -0.031250 -0.137042 99 100 94
0.050781 -0.031250 -0.136848 100 101 95
0.054688 -0.031250 -0.136631 92 93 87
0.058594 -0.031250 -0.136292 98 94 85
0.062500 -0.031250 -0.136002 104 100 91
0.066406 -0.031250 -0.135845 110 106 97
0.070312 -0.031250 -0.135865 112 108 99
0.074219 -0.031250 -0.135913 110 106 97
0.078125 -0.031250 -0.136074 108 104 95
0.082031 -0.031250 -0.136278 109 105 96
0.085938 -0.031250 -0.136467 110 106 97
0.089844 -0.031250 -0.136679 109 105 96
0.093750 -0.031250 -0.136916 110 106 97
0.097656 -0.031250 -0.137230 111 107 98
0.101562 -0.031250 -0.137625 109 105 96
0.105469 -0.031250 -0.138003 106 102 93
0.109375 -0.031250 -0.138277 105 101 92
0.113281 -0.031250 -0.138482 109 105 96
0.117188 -0.031250 -0.138578 113 109 100
0.121094 -0.031250 -0.138647 109 115 101
0.125000 -0.031250 -0.138557 108 114 100
0.128906 -0.031250 -0.138207 103 108 95
0.132812 -0.031250 -0.137643 96 101 88
0.136719 -0.031250 -0.136941 92 97 86
0.140625 -0.031250 -0.136070 90 96 85
0.144531 -0.031250 -0.135068 86 92 83
0.148438 -0.031250 -0.133932 81 87 77
0.152344 -0.031250 -0.132585 87 92 85
0.156250 -0.031250 -0.131057 88 93 87
0.160156 -0.031250 -0.129313 72 77 71
0.164062 -0.031250 -0.127330 73 78 74
0.167969 -0.031250 -0.125134 68 73 69
0.171875 -0.031250 -0.122788 72 76 73
0.175781 -0.031250 -0.120410 111 113 113
0.179688 -0.031250 -0.117975 96 97 97
0.183594 -0.031250 -0.115392 112 111 112
0.187500 -0.031250 -0.112683 131 130 130
0.191406 -0.031250 -0.109443 145 144 144
0.195312 -0.031250 -0.105813 154 154 154
0.199219 -0.031250 -0.102051 156 155 156
0.203125 -0.031250 -0.098248 155 153 154
0.207031 -0.031250 -0.094307 152 148 149
0.210938 -0.031250 -0.090215 152 146 148
0.214844 -0.031250 -0.086207 162 151 154
0.218750 -0.031250 -0.082188 171 157 161
0.222656 -0.031250 -0.077994 178 162 168
0.226562 -0.031250 -0.073385 184 168 174
0.230469 -0.031250 -0.069122 183 168 174
0.234375 -0.031250 -0.064735 180 162 169
0.238281 -0.031250 -0.060107 178 157 165
0.242188 -0.031250 -0.054717 161 142 150
0.246094 -0.031250 -0.049445 127 111 117
0.250000 -0.031250 -0.042490 101 86 90
0.253906 -0.031250 -0.033848 95 83 85
0.257812 -0.031250 -0.007236 94 88 87
0.355469 -0.031250 -0.001274 94 51 37
0.359375 -0.031250 -0.010328 146 82 60
0.363281 -0.031250 -0.015589 160 98 76
0.367188 -0.031250 -0.020950 166 102 83
0.371094 -0.031250 -0.026200 177 111 94
0.375000 -0.031250 -0.031163 179 111 96
0.378906 -0.031250 -0.035689 175 108 93
0.382812 -0.031250 -0.040227 172 106 90
0.386719 -0.031250 -0.044200 175 109 92
0.390625 -0.031250 -0.047042 174 109 91
0.394531 -0.031250 -0.048340 173 106 88
0.398438 -0.031250 -0.048218 177 111 92
0.402344 -0.031250 -0.047390 179 114 93
0.406250 -0.031250 -0.045462 171 104 84
0.410156 -0.031250 -0.042589 177 114 88
0.414062 -0.031250 -0.036860 182 124 90
0.417969 -0.031250 -0.029533 164 107 84
-0.351562 -0.035156 0.003872 73 52 47
-0.347656 -0.035156 -0.000354 89 56 47
-0.343750 -0.035156 -0.002646 108 67 55
-0.339844 -0.035156 -0.002862 122 74 61
-0.335938 -0.035156 -0.002216 128 76 63
-0.332031 -0.035156 -0.000939 136 81 67
-0.328125 -0.035156 0.000836 151 92 76
-0.324219 -0.035156 0.003467 159 99 83
-0.320312 -0.035156 0.006640 158 98 83
-0.316406 -0.035156 0.009946 157 98 83
-0.312500 -0.035156 0.013203 156 98 85
-0.308594 -0.035156 0.017027 162 105 91
-0.304688 -0.035156 0.022015 160 104 91
-0.300781 -0.035156 0.026761 160 104 88
-0.296875 -0.035156 0.032531 156 105 86
-0.292969 -0.035156 0.041244 94 64 54
-0.289062 -0.035156 0.040942 157 109 88
-0.199219 -0.035156 -0.026392 202 199 200
-0.195312 -0.035156 -0.037737 213 212 212
-0.191406 -0.035156 -0.047333 220 219 218
-0.187500 -0.035156 -0.055881 220 220 218
-0.183594 -0.035156 -0.064495 213 212 211
-0.179688 -0.035156 -0.073062 203 203 203
-0.175781 -0.035156 -0.080286 195 194 194
-0.171875 -0.035156 -0.086636 191 191 191
-0.167969 -0.035156 -0.091666 188 188 188
-0.164062 -0.035156 -0.095755 178 178 178
-0.160156 -0.035156 -0.099567 163 163 163
-0.156250 -0.035156 -0.102960 149 149 148
-0.152344 -0.035156 -0.106267 129 128 126
-0.148438 -0.035156 -0.109314 95 95 92
-0.144531 -0.035156 -0.112201 78 78 75
-0.140625 -0.035156 -0.114930 130 131 124
-0.136719 -0.035156 -0.117151 74 76 63
-0.132812 -0.035156 -0.119068 79 81 67
-0.128906 -0.035156 -0.120802 69 71 49
-0.125000 -0.035156 -0.122454 74 76 54
-0.121094 -0.035156 -0.123858 82 83 65
-0.117188 -0.035156 -0.125067 90 92 78
-0.113281 -0.035156 -0.126010 97 100 87
-0.109375 -0.035156 -0.126658 102 105 96
-0.105469 -0.035156 -0.127106 106 108 103
-0.101562 -0.035156 -0.127247 107 109 106
-0.097656 -0.035156 -0.127261 102 104 103
-0.093750 -0.035156 -0.127100 103 103 103
-0.089844 -0.035156 -0.126550 103 102 100
-0.085938 -0.035156 -0.125634 106 102 99
-0.082031 -0.035156 -0.124462 111 106 102
-0.078125 -0.035156 -0.123172 118 111 105
-0.074219 -0.035156 -0.121843 124 115 108
-0.070312 -0.035156 -0.120493 127 118 111
-0.066406 -0.035156 -0.119391 108 112 98
-0.062500 -0.035156 -0.118468 104 110 96
-0.058594 -0.035156 -0.118150 101 107 93
-0.054688 -0.035156 -0.118457 98 104 92
-0.050781 -0.035156 -0.119396 97 103 91
-0.046875 -0.035156 -0.120825 98 104 94
-0.042969 -0.035156 -0.122755 98 105 97
-0.039062 -0.035156 -0.125244 100 107 100
-0.035156 -0.035156 -0.128091 104 110 106
-0.031250 -0.035156 -0.131346 99 108 105
-0.027344 -0.035156 -0.134439 95 104 103
-0.023438 -0.035156 -0.137257 92 100 102
-0.019531 -0.035156 -0.139214 91 101 103
-0.015625 -0.035156 -0.139821 93 102 107
-0.011719 -0.035156 -0.139924 96 105 110
-0.007812 -0.035156 -0.139830 98 107 112
-0.003906 -0.035156 -0.139558 110 115 111
0.000000 -0.035156 -0.139284 110 115 111
0.003906 -0.035156 -0.138980 109 114 110
0.007812 -0.035156 -0.138678 108 113 109
0.011719 -0.035156 -0.138324 106 111 107
0.015625 -0.035156 -0.138029 105 110 106
0.019531 -0.035156 -0.137629 104 109 105
0.023438 -0.035156 -0.137219 103 108 104
0.027344 -0.035156 -0.136877 105 110 106
0.031250 -0.035156 -0.136584 101 106 102
0.035156 -0.035156 -0.136282 96 101 97
0.039062 -0.035156 -0.136023 93 98 94
0.042969 -0.035156 -0.135905 93 98 94
0.046875 -0.035156 -0.135790 97 102 98
0.050781 -0.035156 -0.135666 103 108 104
0.054688 -0.035156 -0.135494 107 112 108
0.058594 -0.035156 -0.135193 109 108 103
0.062500 -0.035156 -0.134974 106 105 100
0.066406 -0.035156 -0.134901 102 101 96
0.070312 -0.035156 -0.134982 98 97 92
0.074219 -0.035156 -0.135089 97 96 91
0.078125 -0.035156 -0.135318 97 96 91
0.082031 -0.035156 -0.135569 98 97 92
0.085938 -0.035156 -0.135833 100 99 94
0.089844 -0.035156 -0.136076 96 94 90
0.093750 -0.035156 -0.136326 95 94 89
0.097656 -0.035156 -0.136689 94 93 88
0.101562 -0.035156 -0.137134 95 94 89
0.105469 -0.035156 -0.137569 96 95 90
0.109375 -0.035156 -0.137880 99 98 93
0.113281 -0.035156 -0.138125 101 100 95
0.117188 -0.035156 -0.138222 102 101 96
0.121094 -0.035156 -0.138302 90 96 86
0.125000 -0.035156 -0.138248 89 95 85
0.128906 -0.035156 -0.137937 89 94 85
0.132812 -0.035156 -0.137409 88 93 87
0.136719 -0.035156 -0.136750 88 92 86
0.140625 -0.035156 -0.135928 88 93 87
0.144531 -0.035156 -0.134985 89 93 87
0.148438 -0.035156 -0.133914 88 92 89
0.152344 -0.035156 -0.132628 91 95 91
0.156250 -0.035156 -0.131151 93 96 95
0.160156 -0.035156 -0.129451 87 91 92
0.164062 -0.035156 -0.127513 78 81 82
0.167969 -0.035156 -0.125334 88 91 94
0.171875 -0.035156 -0.123004 112 114 116
0.175781 -0.035156 -0.120585 124 124 127
0.179688 -0.035156 -0.118103 130 129 131
0.183594 -0.035156 -0.115473 140 137 139
0.187500 -0.035156 -0.112719 152 150 151
0.191406 -0.035156 -0.109529 161 159 161
0.195312 -0.035156 -0.105950 167 166 167
0.199219 -0.035156 -0.102246 171 169 170
0.203125 -0.035156 -0.098579 172 169 171
0.207031 -0.035156 -0.094757 168 164 167
0.210938 -0.035156 -0.090775 159 154 158
0.214844 -0.035156 -0.086871 149 141 146
0.218750 -0.035156 -0.082885 139 124 134
0.222656 -0.035156 -0.078764 132 113 125
0.226562 -0.035156 -0.074221 122 104 115
0.230469 -0.035156 -0.070027 105 85 100
0.234375 -0.035156 -0.065751 101 76 92
0.238281 -0.035156 -0.061129 103 75 89
0.242188 -0.035156 -0.055850 86 65 77
0.246094 -0.035156 -0.050596 67 57 63
0.250000 -0.035156 -0.044029 64 59 58
0.253906 -0.035156 -0.036123 71 67 64
0.257812 -0.035156 -0.016535 90 87 82
0.355469 -0.035156 -0.003605 106 55 41
0.359375 -0.035156 -0.010257 158 90 66
0.363281 -0.035156 -0.016119 174 111 85
0.367188 -0.035156 -0.021411 171 106 85
0.371094 -0.035156 -0.026107 178 110 94
0.375000 -0.035156 -0.030805 179 111 97
0.378906 -0.035156 -0.035434 172 106 91
0.382812 -0.035156 -0.039988 171 104 88
0.386719 -0.035156 -0.044097 178 112 94
0.390625 -0.035156 -0.047096 177 110 93
0.394531 -0.035156 -0.048554 172 105 87
0.398438 -0.035156 -0.048585 175 107 89
0.402344 -0.035156 -0.047956 175 108 89
0.406250 -0.035156 -0.046259 169 101 84
0.410156 -0.035156 -0.043770 173 110 88
0.414062 -0.035156 -0.038653 185 125 95
0.417969 -0.035156 -0.032447 117 68 58
0.421875 -0.035156 -0.009415 163 113 86
-0.351562 -0.039062 0.005268 68 50 45
-0.347656 -0.039062 0.000673 96 61 51
-0.343750 -0.039062 -0.002000 113 70 58
-0.339844 -0.039062 -0.002292 121 73 61
-0.335938 -0.039062 -0.001542 129 78 64
-0.332031 -0.039062 -0.000119 141 85 69
-0.328125 -0.039062 0.001726 151 92 75
-0.324219 -0.039062 0.004415 157 97 80
-0.320312 -0.039062 0.007700 158 99 82
-0.316406 -0.039062 0.011097 158 99 83
-0.312500 -0.039062 0.014318 156 98 83
-0.308594 -0.039062 0.018133 163 105 90
-0.304688 -0.039062 0.022732 163 108 93
-0.300781 -0.039062 0.027493 164 108 93
-0.296875 -0.039062 0.032873 167 112 92
-0.292969 -0.039062 0.037842 118 81 64
-0.289062 -0.039062 0.043014 56 42 36
-0.285156 -0.039062 0.038641 104 68 48
-0.199219 -0.039062 -0.025083 110 86 91
-0.195312 -0.039062 -0.035559 132 113 117
-0.191406 -0.039062 -0.044530 159 154 154
-0.187500 -0.039062 -0.052568 184 183 182
-0.183594 -0.039062 -0.061176 193 192 191
-0.179688 -0.039062 -0.069840 196 196 196
-0.175781 -0.039062 -0.077140 198 198 198
-0.171875 -0.039062 -0.083651 199 199 199
-0.167969 -0.039062 -0.088852 195 194 195
-0.164062 -0.039062 -0.093089 185 184 184
-0.160156 -0.039062 -0.097067 168 167 168
-0.156250 -0.039062 -0.100600 157 156 156
-0.152344 -0.039062 -0.104002 133 132 131
-0.148438 -0.039062 -0.107207 95 95 93
-0.144531 -0.039062 -0.110242 72 72 70
-0.140625 -0.039062 -0.113043 122 123 117
-0.136719 -0.039062 -0.115317 93 95 83
-0.132812 -0.039062 -0.117224 83 85 72
-0.128906 -0.039062 -0.118883 80 82 61
-0.125000 -0.039062 -0.120385 83 84 66
-0.121094 -0.039062 -0.121596 86 89 72
-0.117188 -0.039062 -0.122614 90 92 79
-0.113281 -0.039062 -0.123325 93 96 85
-0.109375 -0.039062 -0.123729 94 97 88
-0.105469 -0.039062 -0.123946 92 97 91
-0.101562 -0.039062 -0.123882 92 97 93
-0.097656 -0.039062 -0.123705 104 106 103
-0.093750 -0.039062 -0.123379 103 105 102
-0.089844 -0.039062 -0.122684 103 103 101
-0.085938 -0.039062 -0.121747 105 104 100
-0.082031 -0.039062 -0.120625 109 104 100
-0.078125 -0.039062 -0.119425 111 106 100
-0.074219 -0.039062 -0.118297 116 109 101
-0.070312 -0.039062 -0.117270 119 110 103
-0.066406 -0.039062 -0.116428 107 115 102
-0.062500 -0.039062 -0.115650 104 112 99
-0.058594 -0.039062 -0.115220 100 108 97
-0.054688 -0.039062 -0.114934 93 103 92
-0.050781 -0.039062 -0.114951 90 100 91
-0.046875 -0.039062 -0.115073 89 99 91
-0.042969 -0.039062 -0.115670 88 99 93
-0.039062 -0.039062 -0.116824 88 99 95
-0.035156 -0.039062 -0.118715 105 115 114
-0.031250 -0.039062 -0.121485 101 113 113
-0.027344 -0.039062 -0.124748 97 108 110
-0.023438 -0.039062 -0.128424 93 104 108
-0.019531 -0.039062 -0.131637 88 101 107
-0.015625 -0.039062 -0.133725 87 100 106
-0.011719 -0.039062 -0.135025 88 101 109
-0.007812 -0.039062 -0.135630 88 101 109
-0.003906 -0.039062 -0.136005 98 108 107
0.000000 -0.039062 -0.136194 98 108 107
0.003906 -0.039062 -0.136245 98 108 107
0.007812 -0.039062 -0.136220 98 108 107
0.011719 -0.039062 -0.136091 98 108 107
0.015625 -0.039062 -0.135997 98 108 107
0.019531 -0.039062 -0.135776 98 108 107
0.023438 -0.039062 -0.135521 98 108 107
0.027344 -0.039062 -0.135306 97 107 106
0.031250 -0.039062 -0.135039 93 103 102
0.035156 -0.039062 -0.134753 89 99 98
0.039062 -0.039062 -0.134566 85 95 94
0.042969 -0.039062 -0.134509 84 94 93
0.046875 -0.039062 -0.134498 87 97 96
0.050781 -0.039062 -0.134444 89 99 98
0.054688 -0.039062 -0.134347 92 102 101
0.058594 -0.039062 -0.134094 94 96 93
0.062500 -0.039062 -0.133872 94 96 93
0.066406 -0.039062 -0.133816 97 99 96
0.070312 -0.039062 -0.133873 99 101 98
0.074219 -0.039062 -0.133952 100 102 99
0.078125 -0.039062 -0.134155 101 103 100
0.082031 -0.039062 -0.134365 100 101 99
0.085938 -0.039062 -0.134598 97 97 95
0.089844 -0.039062 -0.134806 98 97 96
0.093750 -0.039062 -0.135052 97 96 94
0.097656 -0.039062 -0.135438 100 98 96
0.101562 -0.039062 -0.135926 104 102 101
0.105469 -0.039062 -0.136484 110 108 107
0.109375 -0.039062 -0.136930 116 116 114
0.113281 -0.039062 -0.137306 121 121 119
0.117188 -0.039062 -0.137539 122 122 120
0.121094 -0.039062 -0.137706 134 138 135
0.125000 -0.039062 -0.137734 130 133 130
0.128906 -0.039062 -0.137485 128 131 128
0.132812 -0.039062 -0.137014 129 132 130
0.136719 -0.039062 -0.136416 134 136 136
0.140625 -0.039062 -0.135630 136 137 137
0.144531 -0.039062 -0.134743 132 132 134
0.148438 -0.039062 -0.133740 126 126 127
0.152344 -0.039062 -0.132514 126 126 128
0.156250 -0.039062 -0.131083 135 135 138
0.160156 -0.039062 -0.129410 141 141 144
0.164062 -0.039062 -0.127531 147 147 151
0.167969 -0.039062 -0.125406 146 146 150
0.171875 -0.039062 -0.123125 134 133 138
0.175781 -0.039062 -0.120748 128 126 131
0.179688 -0.039062 -0.118271 131 128 133
0.183594 -0.039062 -0.115642 139 135 140
0.187500 -0.039062 -0.112892 141 138 142
0.191406 -0.039062 -0.109707 135 131 136
0.195312 -0.039062 -0.106111 124 117 125
0.199219 -0.039062 -0.102397 117 107 119
0.203125 -0.039062 -0.098766 113 103 116
0.207031 -0.039062 -0.094982 105 96 109
0.210938 -0.039062 -0.091043 85 78 90
0.214844 -0.039062 -0.087215 69 64 74
0.218750 -0.039062 -0.083319 71 67 76
0.222656 -0.039062 -0.079279 79 77 83
0.226562 -0.039062 -0.074808 73 68 74
0.230469 -0.039062 -0.070684 65 60 69
0.234375 -0.039062 -0.066519 73 66 75
0.238281 -0.039062 -0.061998 77 68 75
0.242188 -0.039062 -0.056853 74 67 72
0.246094 -0.039062 -0.051656 70 68 71
0.250000 -0.039062 -0.045570 67 66 66
0.253906 -0.039062 -0.038394 64 60 62
0.257812 -0.039062 -0.024610 84 76 78
0.355469 -0.039062 -0.005114 134 78 57
0.359375 -0.039062 -0.010870 165 96 72
0.363281 -0.039062 -0.016132 181 116 90
0.367188 -0.039062 -0.021264 175 106 88
0.371094 -0.039062 -0.025926 174 106 91
0.375000 -0.039062 -0.030516 172 104 91
0.378906 -0.039062 -0.035098 167 100 85
0.382812 -0.039062 -0.039679 167 101 85
0.386719 -0.039062 -0.043950 176 109 92
0.390625 -0.039062 -0.047113 177 109 91
0.394531 -0.039062 -0.048697 174 106 88
0.398438 -0.039062 -0.048997 177 109 90
0.402344 -0.039062 -0.048630 175 108 89
0.406250 -0.039062 -0.047095 170 103 86
0.410156 -0.039062 -0.044718 171 107 88
0.414062 -0.039062 -0.040133 185 121 97
0.417969 -0.039062 -0.034863 145 86 73
0.421875 -0.039062 -0.018762 167 110 85
-0.351562 -0.042969 0.007059 79 58 51
-0.347656 -0.042969 0.001500 104 66 56
-0.343750 -0.042969 -0.001606 116 72 60
-0.339844 -0.042969 -0.001784 123 75 62
-0.335938 -0.042969 -0.000951 133 81 66
-0.332031 -0.042969 0.000551 145 88 71
-0.328125 -0.042969 0.002429 152 94 76
-0.324219 -0.042969 0.005219 158 99 81
-0.320312 -0.042969 0.008559 158 99 82
-0.316406 -0.042969 0.011943 157 99 82
-0.312500 -0.042969 0.015192 156 99 83
-0.308594 -0.042969 0.018901 162 105 87
-0.304688 -0.042969 0.023085 162 106 90
-0.300781 -0.042969 0.027495 159 103 89
-0.296875 -0.042969 0.032319 165 112 95
-0.292969 -0.042969 0.036597 166 123 99
-0.289062 -0.042969 0.041338 120 83 67
-0.281250 -0.042969 0.027216 92 57 40
-0.199219 -0.042969 -0.023864 77 58 57
-0.195312 -0.042969 -0.032901 82 60 60
-0.191406 -0.042969 -0.041315 65 53 55
-0.187500 -0.042969 -0.049171 70 65 67
-0.183594 -0.042969 -0.057516 88 83 85
-0.179688 -0.042969 -0.066120 107 102 105
-0.175781 -0.042969 -0.073510 126 124 126
-0.171875 -0.042969 -0.079938 140 139 141
-0.167969 -0.042969 -0.085146 146 145 147
-0.164062 -0.042969 -0.089669 153 151 153
-0.160156 -0.042969 -0.093982 158 157 158
-0.156250 -0.042969 -0.097836 162 161 163
-0.152344 -0.042969 -0.101434 145 144 144
-0.148438 -0.042969 -0.104767 118 118 117
-0.144531 -0.042969 -0.107870 104 104 102
-0.140625 -0.042969 -0.110718 154 155 150
-0.136719 -0.042969 -0.113060 120 122 112
-0.132812 -0.042969 -0.115020 61 63 52
-0.128906 -0.042969 -0.116675 72 73 57
-0.125000 -0.042969 -0.118105 74 77 60
-0.121094 -0.042969 -0.119184 78 80 66
-0.117188 -0.042969 -0.120022 82 86 73
-0.113281 -0.042969 -0.120526 86 89 78
-0.109375 -0.042969 -0.120693 87 92 85
-0.105469 -0.042969 -0.120700 89 93 88
-0.101562 -0.042969 -0.120455 89 94 90
-0.097656 -0.042969 -0.120157 84 89 85
-0.093750 -0.042969 -0.119740 88 90 87
-0.089844 -0.042969 -0.119118 92 92 90
-0.085938 -0.042969 -0.118387 98 97 93
-0.082031 -0.042969 -0.117497 105 102 97
-0.078125 -0.042969 -0.116673 111 106 100
-0.074219 -0.042969 -0.116041 115 110 104
-0.070312 -0.042969 -0.115528 119 112 104
-0.066406 -0.042969 -0.115104 93 102 93
-0.062500 -0.042969 -0.114760 92 101 93
-0.058594 -0.042969 -0.114694 91 100 92
-0.054688 -0.042969 -0.114840 88 99 91
-0.050781 -0.042969 -0.115109 90 101 95
-0.046875 -0.042969 -0.115395 92 102 99
-0.042969 -0.042969 -0.115804 95 104 103
-0.039062 -0.042969 -0.116387 96 107 105
-0.035156 -0.042969 -0.117250 86 97 97
-0.031250 -0.042969 -0.118635 86 96 98
-0.027344 -0.042969 -0.120557 87 97 101
-0.023438 -0.042969 -0.123195 86 99 104
-0.019531 -0.042969 -0.126164 87 100 106
-0.015625 -0.042969 -0.128686 89 102 110
-0.011719 -0.042969 -0.130686 91 103 111
-0.007812 -0.042969 -0.132022 92 105 113
-0.003906 -0.042969 -0.133010 107 119 119
0.000000 -0.042969 -0.133641 107 118 118
0.003906 -0.042969 -0.133993 108 119 119
0.007812 -0.042969 -0.134197 109 121 121
0.011719 -0.042969 -0.134335 111 122 122
0.015625 -0.042969 -0.134455 112 124 124
0.019531 -0.042969 -0.134408 113 125 125
0.023438 -0.042969 -0.134189 113 124 124
0.027344 -0.042969 -0.134016 114 125 125
0.031250 -0.042969 -0.133888 118 129 129
0.035156 -0.042969 -0.133706 124 136 136
0.039062 -0.042969 -0.133614 134 146 146
0.042969 -0.042969 -0.133516 146 158 158
0.046875 -0.042969 -0.133390 156 167 167
0.050781 -0.042969 -0.133255 160 170 170
0.054688 -0.042969 -0.133124 156 166 166
0.058594 -0.042969 -0.132881 163 168 168
0.062500 -0.042969 -0.132646 160 164 164
0.066406 -0.042969 -0.132570 159 163 163
0.070312 -0.042969 -0.132651 158 162 162
0.074219 -0.042969 -0.132710 153 157 157
0.078125 -0.042969 -0.132920 141 143 144
0.082031 -0.042969 -0.133094 122 122 123
0.085938 -0.042969 -0.133222 103 100 102
0.089844 -0.042969 -0.133449 98 92 95
0.093750 -0.042969 -0.133741 97 90 93
0.097656 -0.042969 -0.134203 101 91 95
0.101562 -0.042969 -0.134751 107 97 101
0.105469 -0.042969 -0.135337 112 105 109
0.109375 -0.042969 -0.135781 119 114 118
0.113281 -0.042969 -0.136089 123 120 123
0.117188 -0.042969 -0.136261 121 119 122
0.121094 -0.042969 -0.136404 111 110 112
0.125000 -0.042969 -0.136448 107 106 109
0.128906 -0.042969 -0.136237 108 108 110
0.132812 -0.042969 -0.135807 111 111 114
0.136719 -0.042969 -0.135266 113 113 116
0.140625 -0.042969 -0.134527 108 108 110
0.144531 -0.042969 -0.133675 96 96 98
0.148438 -0.042969 -0.132729 85 85 86
0.152344 -0.042969 -0.131569 75 75 78
0.156250 -0.042969 -0.130205 71 71 74
0.160156 -0.042969 -0.128586 67 67 69
0.164062 -0.042969 -0.126753 70 71 73
0.167969 -0.042969 -0.124694 73 74 78
0.171875 -0.042969 -0.122475 75 74 80
0.175781 -0.042969 -0.120164 77 74 83
0.179688 -0.042969 -0.117760 78 74 85
0.183594 -0.042969 -0.115207 78 74 84
0.187500 -0.042969 -0.112546 72 68 78
0.191406 -0.042969 -0.109420 65 59 73
0.195312 -0.042969 -0.105912 77 65 86
0.199219 -0.042969 -0.102295 94 76 100
0.203125 -0.042969 -0.098708 86 72 94
0.207031 -0.042969 -0.095018 83 75 91
0.210938 -0.042969 -0.091179 73 72 82
0.214844 -0.042969 -0.087451 71 74 77
0.218750 -0.042969 -0.083689 77 84 82
0.222656 -0.042969 -0.079748 76 85 81
0.226562 -0.042969 -0.075354 68 73 72
0.230469 -0.042969 -0.071281 66 69 69
0.234375 -0.042969 -0.067128 69 71 72
0.238281 -0.042969 -0.062701 68 68 68
0.242188 -0.042969 -0.057815 69 69 69
0.246094 -0.042969 -0.052627 73 74 76
0.250000 -0.042969 -0.046836 76 76 77
0.253906 -0.042969 -0.039836 71 68 71
0.257812 -0.042969 -0.029331 94 88 87
0.355469 -0.042969 -0.005899 142 83 61
0.359375 -0.042969 -0.010804 166 98 75
0.363281 -0.042969 -0.016157 182 114 90
0.367188 -0.042969 -0.021151 175 104 88
0.371094 -0.042969 -0.025646 171 102 88
0.375000 -0.042969 -0.030148 166 99 84
0.378906 -0.042969 -0.034710 166 98 82
0.382812 -0.042969 -0.039275 167 99 82
0.386719 -0.042969 -0.043638 171 103 86
0.390625 -0.042969 -0.047017 172 104 86
0.394531 -0.042969 -0.048848 172 103 86
0.398438 -0.042969 -0.049377 177 109 89
0.402344 -0.042969 -0.049230 178 111 90
0.406250 -0.042969 -0.048074 174 107 88
0.410156 -0.042969 -0.045772 170 104 86
0.414062 -0.042969 -0.041762 180 115 93
0.417969 -0.042969 -0.036840 164 107 84
0.421875 -0.042969 -0.024816 156 114 89
-0.351562 -0.046875 0.007733 84 60 51
-0.347656 -0.046875 0.001856 105 66 56
-0.343750 -0.046875 -0.001242 120 75 63
-0.339844 -0.046875 -0.001293 127 79 66
-0.335938 -0.046875 -0.000393 137 84 69
-0.332031 -0.046875 0.001228 147 90 74
-0.328125 -0.046875 0.003154 156 97 78
-0.324219 -0.046875 0.006071 164 104 85
-0.320312 -0.046875 0.009504 161 102 84
-0.316406 -0.046875 0.012875 158 100 82
-0.312500 -0.046875 0.016297 158 100 82
-0.308594 -0.046875 0.019968 160 103 84
-0.304688 -0.046875 0.023947 157 101 84
-0.300781 -0.046875 0.028258 156 100 85
-0.296875 -0.046875 0.032491 165 110 94
-0.292969 -0.046875 0.037070 184 136 114
-0.289062 -0.046875 0.042057 157 109 88
-0.285156 -0.046875 0.047621 68 41 32
-0.199219 -0.046875 -0.021978 68 62 59
-0.195312 -0.046875 -0.030133 65 59 58
-0.191406 -0.046875 -0.038358 54 50 51
-0.187500 -0.046875 -0.046228 54 50 52
-0.183594 -0.046875 -0.054452 63 57 58
-0.179688 -0.046875 -0.063005 56 50 54
-0.175781 -0.046875 -0.070464 44 39 46
-0.171875 -0.046875 -0.076935 46 41 49
-0.167969 -0.046875 -0.082272 54 49 58
-0.164062 -0.046875 -0.086878 64 59 68
-0.160156 -0.046875 -0.091219 82 78 85
-0.156250 -0.046875 -0.095175 99 97 101
-0.152344 -0.046875 -0.098910 96 94 97
-0.148438 -0.046875 -0.102305 93 92 93
-0.144531 -0.046875 -0.105466 101 101 99
-0.140625 -0.046875 -0.108401 153 154 149
-0.136719 -0.046875 -0.110726 158 159 152
-0.132812 -0.046875 -0.112588 103 104 94
-0.128906 -0.046875 -0.114080 96 96 85
-0.125000 -0.046875 -0.115359 97 99 87
-0.121094 -0.046875 -0.116264 100 102 92
-0.117188 -0.046875 -0.116903 103 105 97
-0.113281 -0.046875 -0.117254 106 110 104
-0.109375 -0.046875 -0.117325 110 114 109
-0.105469 -0.046875 -0.117360 114 119 115
-0.101562 -0.046875 -0.117241 116 122 118
-0.097656 -0.046875 -0.117143 117 122 118
-0.093750 -0.046875 -0.116930 121 125 122
-0.089844 -0.046875 -0.116502 127 131 127
-0.085938 -0.046875 -0.115996 135 136 134
-0.082031 -0.046875 -0.115474 142 143 138
-0.078125 -0.046875 -0.115109 149 147 143
-0.074219 -0.046875 -0.114865 155 151 147
-0.070312 -0.046875 -0.114760 157 153 147
-0.066406 -0.046875 -0.114609 155 162 158
-0.062500 -0.046875 -0.114501 156 163 159
-0.058594 -0.046875 -0.114554 156 163 159
-0.054688 -0.046875 -0.114718 155 162 160
-0.050781 -0.046875 -0.115028 156 162 160
-0.046875 -0.046875 -0.115309 158 164 164
-0.042969 -0.046875 -0.115728 163 169 169
-0.039062 -0.046875 -0.116254 166 173 174
-0.035156 -0.046875 -0.116938 183 190 191
-0.031250 -0.046875 -0.117902 185 191 194
-0.027344 -0.046875 -0.119091 188 194 199
-0.023438 -0.046875 -0.120720 193 199 203
-0.019531 -0.046875 -0.122797 197 205 211
-0.015625 -0.046875 -0.124920 201 209 214
-0.011719 -0.046875 -0.126828 202 211 216
-0.007812 -0.046875 -0.128373 200 209 215
-0.003906 -0.046875 -0.129592 196 206 206
0.000000 -0.046875 -0.130546 192 202 202
0.003906 -0.046875 -0.131365 194 204 204
0.007812 -0.046875 -0.131856 199 209 209
0.011719 -0.046875 -0.132225 203 213 213
0.015625 -0.046875 -0.132548 204 215 215
0.019531 -0.046875 -0.132658 205 215 215
0.023438 -0.046875 -0.132730 204 214 214
0.027344 -0.046875 -0.132797 208 215 215
0.031250 -0.046875 -0.132946 206 213 213
0.035156 -0.046875 -0.133012 203 209 209
0.039062 -0.046875 -0.132956 196 204 204
0.042969 -0.046875 -0.133046 187 196 196
0.046875 -0.046875 -0.133098 171 180 180
0.050781 -0.046875 -0.133080 154 162 162
0.054688 -0.046875 -0.133006 140 147 147
0.058594 -0.046875 -0.132643 137 139 141
0.062500 -0.046875 -0.132225 133 136 138
0.066406 -0.046875 -0.131883 130 133 133
0.070312 -0.046875 -0.131761 126 127 128
0.074219 -0.046875 -0.131588 118 119 120
0.078125 -0.046875 -0.131560 106 105 106
0.082031 -0.046875 -0.131595 89 85 88
0.085938 -0.046875 -0.131578 76 68 72
0.089844 -0.046875 -0.131718 73 61 66
0.093750 -0.046875 -0.131875 75 61 66
0.097656 -0.046875 -0.132217 77 62 68
0.101562 -0.046875 -0.132766 75 61 67
0.105469 -0.046875 -0.133347 69 59 64
0.109375 -0.046875 -0.133851 63 55 61
0.113281 -0.046875 -0.134193 55 48 55
0.117188 -0.046875 -0.134407 46 41 48
0.121094 -0.046875 -0.134629 41 39 44
0.125000 -0.046875 -0.134747 43 43 47
0.128906 -0.046875 -0.134611 51 52 55
0.132812 -0.046875 -0.134203 60 63 64
0.136719 -0.046875 -0.133666 65 69 69
0.140625 -0.046875 -0.132966 63 69 67
0.144531 -0.046875 -0.132140 56 63 60
0.148438 -0.046875 -0.131244 49 58 53
0.152344 -0.046875 -0.130120 43 52 47
0.156250 -0.046875 -0.128810 40 51 46
0.160156 -0.046875 -0.127256 52 65 61
0.164062 -0.046875 -0.125496 64 76 75
0.167969 -0.046875 -0.123553 66 75 78
0.171875 -0.046875 -0.121433 71 76 80
0.175781 -0.046875 -0.119234 76 77 83
0.179688 -0.046875 -0.116954 78 77 84
0.183594 -0.046875 -0.114522 76 75 82
0.187500 -0.046875 -0.111978 69 67 75
0.191406 -0.046875 -0.108929 69 67 76
0.195312 -0.046875 -0.105544 89 86 93
0.199219 -0.046875 -0.102061 98 92 97
0.203125 -0.046875 -0.098554 91 86 92
0.207031 -0.046875 -0.094999 96 91 95
0.210938 -0.046875 -0.091305 91 87 89
0.214844 -0.046875 -0.087692 84 81 81
0.218750 -0.046875 -0.084054 81 79 77
0.222656 -0.046875 -0.080202 80 78 77
0.226562 -0.046875 -0.075858 75 74 75
0.230469 -0.046875 -0.071819 75 73 73
0.234375 -0.046875 -0.067723 78 76 75
0.238281 -0.046875 -0.063390 75 72 72
0.242188 -0.046875 -0.058640 74 73 72
0.246094 -0.046875 -0.053551 76 75 76
0.250000 -0.046875 -0.048024 79 77 79
0.253906 -0.046875 -0.041266 72 70 71
0.257812 -0.046875 -0.032415 90 87 82
0.261719 -0.046875 -0.009520 88 83 82
0.351562 -0.046875 0.002380 117 54 40
0.355469 -0.046875 -0.005321 142 77 56
0.359375 -0.046875 -0.010510 169 102 78
0.363281 -0.046875 -0.015865 173 106 85
0.367188 -0.046875 -0.020647 168 98 83
0.371094 -0.046875 -0.025134 167 98 84
0.375000 -0.046875 -0.029591 161 94 79
0.378906 -0.046875 -0.034166 166 97 80
0.382812 -0.046875 -0.038783 166 96 79
0.386719 -0.046875 -0.043301 167 97 81
0.390625 -0.046875 -0.046916 169 100 83
0.394531 -0.046875 -0.049005 168 100 83
0.398438 -0.046875 -0.049785 170 102 84
0.402344 -0.046875 -0.049869 173 105 86
0.406250 -0.046875 -0.049072 172 105 86
0.410156 -0.046875 -0.046945 166 100 83
0.414062 -0.046875 -0.043455 172 107 88
0.417969 -0.046875 -0.038661 166 108 84
0.421875 -0.046875 -0.029938 163 113 86
0.425781 -0.046875 -0.002663 157 97 81
-0.351562 -0.050781 0.007135 75 51 45
-0.347656 -0.050781 0.002014 100 62 52
-0.343750 -0.050781 -0.000948 121 75 63
-0.339844 -0.050781 -0.000902 129 80 67
-0.335938 -0.050781 0.000095 137 84 70
-0.332031 -0.050781 0.001854 147 90 74
-0.328125 -0.050781 0.003871 154 96 78
-0.324219 -0.050781 0.006946 164 104 85
-0.320312 -0.050781 0.010494 162 103 85
-0.316406 -0.050781 0.013912 158 100 82
-0.312500 -0.050781 0.017413 158 100 81
-0.308594 -0.050781 0.021267 158 100 81
-0.304688 -0.050781 0.025305 154 98 80
-0.300781 -0.050781 0.029236 157 100 83
-0.296875 -0.050781 0.032947 173 117 97
-0.292969 -0.050781 0.036995 197 146 124
-0.289062 -0.050781 0.041877 183 132 107
-0.285156 -0.050781 0.046200 104 68 48
-0.199219 -0.050781 -0.020123 59 53 54
-0.195312 -0.050781 -0.027863 54 51 52
-0.191406 -0.050781 -0.036132 60 57 56
-0.187500 -0.050781 -0.043986 67 64 61
-0.183594 -0.050781 -0.052096 68 65 61
-0.179688 -0.050781 -0.060505 58 56 54
-0.175781 -0.050781 -0.067842 50 48 48
-0.171875 -0.050781 -0.074176 51 48 50
-0.167969 -0.050781 -0.079442 55 52 55
-0.164062 -0.050781 -0.083987 52 47 53
-0.160156 -0.050781 -0.088311 42 37 45
-0.156250 -0.050781 -0.092284 41 35 44
-0.152344 -0.050781 -0.096059 43 38 46
-0.148438 -0.050781 -0.099528 44 40 47
-0.144531 -0.050781 -0.102741 40 40 43
-0.140625 -0.050781 -0.105696 57 58 58
-0.136719 -0.050781 -0.108019 91 93 90
-0.132812 -0.050781 -0.109868 100 101 97
-0.128906 -0.050781 -0.111264 100 101 97
-0.125000 -0.050781 -0.112386 88 89 85
-0.121094 -0.050781 -0.113093 81 80 77
-0.117188 -0.050781 -0.113454 77 76 74
-0.113281 -0.050781 -0.113683 78 77 76
-0.109375 -0.050781 -0.113687 81 80 80
-0.105469 -0.050781 -0.113750 86 85 85
-0.101562 -0.050781 -0.113708 91 91 91
-0.097656 -0.050781 -0.113748 94 95 95
-0.093750 -0.050781 -0.113752 100 100 100
-0.089844 -0.050781 -0.113664 104 104 104
-0.085938 -0.050781 -0.113681 108 107 106
-0.082031 -0.050781 -0.113568 113 109 110
-0.078125 -0.050781 -0.113520 116 112 112
-0.074219 -0.050781 -0.113475 119 114 114
-0.070312 -0.050781 -0.113488 119 113 114
-0.066406 -0.050781 -0.113470 116 113 114
-0.062500 -0.050781 -0.113464 114 110 111
-0.058594 -0.050781 -0.113581 109 105 106
-0.054688 -0.050781 -0.113747 101 96 98
-0.050781 -0.050781 -0.114072 97 91 93
-0.046875 -0.050781 -0.114418 98 92 95
-0.042969 -0.050781 -0.114842 104 97 100
-0.039062 -0.050781 -0.115290 109 102 105
-0.035156 -0.050781 -0.115769 108 103 106
-0.031250 -0.050781 -0.116367 109 104 108
-0.027344 -0.050781 -0.116952 109 104 108
-0.023438 -0.050781 -0.117683 110 105 109
-0.019531 -0.050781 -0.118765 113 108 112
-0.015625 -0.050781 -0.120184 120 116 119
-0.011719 -0.050781 -0.121842 129 128 129
-0.007812 -0.050781 -0.123621 140 141 142
-0.003906 -0.050781 -0.125242 145 150 150
0.000000 -0.050781 -0.126541 149 154 154
0.003906 -0.050781 -0.127678 155 160 160
0.007812 -0.050781 -0.128540 162 167 167
0.011719 -0.050781 -0.129299 164 170 170
0.015625 -0.050781 -0.130043 165 171 171
0.019531 -0.050781 -0.130600 165 171 171
0.023438 -0.050781 -0.131076 164 170 169
0.027344 -0.050781 -0.131474 157 163 163
0.031250 -0.050781 -0.131749 155 161 161
0.035156 -0.050781 -0.131841 153 159 159
0.039062 -0.050781 -0.131664 151 156 156
0.042969 -0.050781 -0.131674 146 150 151
0.046875 -0.050781 -0.131920 139 142 143
0.050781 -0.050781 -0.131902 133 136 137
0.054688 -0.050781 -0.131787 133 136 136
0.058594 -0.050781 -0.131466 136 138 139
0.062500 -0.050781 -0.131171 139 141 142
0.066406 -0.050781 -0.130795 136 137 139
0.070312 -0.050781 -0.130477 125 126 129
0.074219 -0.050781 -0.130097 106 105 109
0.078125 -0.050781 -0.129635 83 79 84
0.082031 -0.050781 -0.129355 64 56 62
0.085938 -0.050781 -0.129045 55 43 51
0.089844 -0.050781 -0.128986 54 39 48
0.093750 -0.050781 -0.129101 55 40 49
0.097656 -0.050781 -0.129433 57 41 50
0.101562 -0.050781 -0.130038 53 39 47
0.105469 -0.050781 -0.130695 43 33 41
0.109375 -0.050781 -0.131393 39 30 37
0.113281 -0.050781 -0.131912 42 33 41
0.117188 -0.050781 -0.132265 43 36 43
0.121094 -0.050781 -0.132587 37 36 40
0.125000 -0.050781 -0.132762 36 39 40
0.128906 -0.050781 -0.132679 37 44 42
0.132812 -0.050781 -0.132315 39 47 42
0.136719 -0.050781 -0.131821 39 49 43
0.140625 -0.050781 -0.131191 39 50 42
0.144531 -0.050781 -0.130464 38 50 42
0.148438 -0.050781 -0.129687 40 53 44
0.152344 -0.050781 -0.128615 42 56 47
0.156250 -0.050781 -0.127362 50 64 55
0.160156 -0.050781 -0.125890 65 79 71
0.164062 -0.050781 -0.124221 74 84 79
0.167969 -0.050781 -0.122393 79 86 82
0.171875 -0.050781 -0.120384 82 86 82
0.175781 -0.050781 -0.118331 83 84 81
0.179688 -0.050781 -0.116171 85 84 82
0.183594 -0.050781 -0.113870 91 89 86
0.187500 -0.050781 -0.111473 91 86 86
0.191406 -0.050781 -0.108522 87 82 82
0.195312 -0.050781 -0.105207 88 84 82
0.199219 -0.050781 -0.101796 83 78 77
0.203125 -0.050781 -0.098361 81 76 76
0.207031 -0.050781 -0.094875 90 83 83
0.210938 -0.050781 -0.091303 89 82 81
0.214844 -0.050781 -0.087785 85 79 78
0.218750 -0.050781 -0.084257 83 77 75
0.222656 -0.050781 -0.080490 84 78 76
0.226562 -0.050781 -0.076211 82 77 76
0.230469 -0.050781 -0.072243 78 73 72
0.234375 -0.050781 -0.068225 77 73 71
0.238281 -0.050781 -0.063978 75 71 70
0.242188 -0.050781 -0.059342 76 72 70
0.246094 -0.050781 -0.054463 75 72 72
0.250000 -0.050781 -0.048912 76 72 73
0.253906 -0.050781 -0.042687 74 71 70
0.257812 -0.050781 -0.035229 88 83 78
0.261719 -0.050781 -0.022645 79 72 76
0.351562 -0.050781 0.003066 113 49 35
0.355469 -0.050781 -0.004740 138 69 48
0.359375 -0.050781 -0.009879 170 102 77
0.363281 -0.050781 -0.015241 165 100 81
0.367188 -0.050781 -0.019983 166 97 82
0.371094 -0.050781 -0.024380 167 98 83
0.375000 -0.050781 -0.028737 160 92 77
0.378906 -0.050781 -0.033417 168 98 81
0.382812 -0.050781 -0.038198 165 94 78
0.386719 -0.050781 -0.042874 165 94 78
0.390625 -0.050781 -0.046715 173 103 86
0.394531 -0.050781 -0.049058 174 105 87
0.398438 -0.050781 -0.050022 168 100 82
0.402344 -0.050781 -0.050313 169 101 83
0.406250 -0.050781 -0.049915 169 102 84
0.410156 -0.050781 -0.047921 162 96 80
0.414062 -0.050781 -0.044543 168 102 87
0.417969 -0.050781 -0.040239 162 101 82
0.421875 -0.050781 -0.033932 167 110 85
0.425781 -0.050781 -0.018849 173 109 90
-0.351562 -0.054688 0.006084 85 57 49
-0.347656 -0.054688 0.001685 99 61 51
-0.343750 -0.054688 -0.000976 120 74 62
-0.339844 -0.054688 -0.000571 127 77 66
-0.335938 -0.054688 0.000511 135 82 69
-0.332031 -0.054688 0.002467 146 90 74
-0.328125 -0.054688 0.004685 154 96 79
-0.324219 -0.054688 0.007926 161 102 84
-0.320312 -0.054688 0.011611 159 101 84
-0.316406 -0.054688 0.015158 157 99 81
-0.312500 -0.054688 0.018773 156 97 79
-0.308594 -0.054688 0.022606 155 97 78
-0.304688 -0.054688 0.026784 152 95 76
-0.300781 -0.054688 0.030500 153 97 79
-0.296875 -0.054688 0.033562 168 113 94
-0.292969 -0.054688 0.037158 189 134 115
-0.289062 -0.054688 0.042240 185 131 110
-0.285156 -0.054688 0.047482 147 97 73
-0.281250 -0.054688 0.052773 92 57 40
-0.203125 -0.054688 -0.007646 74 62 59
-0.199219 -0.054688 -0.018622 48 43 45
-0.195312 -0.054688 -0.026412 54 50 52
-0.191406 -0.054688 -0.034166 67 62 61
-0.187500 -0.054688 -0.041855 64 59 59
-0.183594 -0.054688 -0.049808 59 55 54
-0.179688 -0.054688 -0.058046 54 51 51
-0.175781 -0.054688 -0.065240 59 56 56
-0.171875 -0.054688 -0.071399 67 63 63
-0.167969 -0.054688 -0.076551 71 65 66
-0.164062 -0.054688 -0.081062 69 62 66
-0.160156 -0.054688 -0.085414 61 53 59
-0.156250 -0.054688 -0.089407 59 50 57
-0.152344 -0.054688 -0.093218 61 51 58
-0.148438 -0.054688 -0.096735 60 52 58
-0.144531 -0.054688 -0.099952 53 50 53
-0.140625 -0.054688 -0.102839 43 46 43
-0.136719 -0.054688 -0.105067 41 48 39
-0.132812 -0.054688 -0.106779 42 52 38
-0.128906 -0.054688 -0.107936 43 54 37
-0.125000 -0.054688 -0.108849 43 52 37
-0.121094 -0.054688 -0.109471 42 47 35
-0.117188 -0.054688 -0.109795 41 43 35
-0.113281 -0.054688 -0.110122 40 41 35
-0.109375 -0.054688 -0.110277 38 39 33
-0.105469 -0.054688 -0.110495 37 39 33
-0.101562 -0.054688 -0.110699 37 39 32
-0.097656 -0.054688 -0.111026 36 39 32
-0.093750 -0.054688 -0.111334 37 41 33
-0.089844 -0.054688 -0.111601 39 42 35
-0.085938 -0.054688 -0.111971 42 44 37
-0.082031 -0.054688 -0.112134 45 46 40
-0.078125 -0.054688 -0.112289 47 46 41
-0.074219 -0.054688 -0.112413 49 47 42
-0.070312 -0.054688 -0.112536 49 47 42
-0.066406 -0.054688 -0.112593 46 44 40
-0.062500 -0.054688 -0.112613 43 42 38
-0.058594 -0.054688 -0.112660 43 43 38
-0.054688 -0.054688 -0.112711 43 43 38
-0.050781 -0.054688 -0.112861 44 44 39
-0.046875 -0.054688 -0.113061 46 46 41
-0.042969 -0.054688 -0.113330 45 45 41
-0.039062 -0.054688 -0.113610 45 45 41
-0.035156 -0.054688 -0.113987 47 46 42
-0.031250 -0.054688 -0.114517 45 44 41
-0.027344 -0.054688 -0.115040 45 43 41
-0.023438 -0.054688 -0.115636 44 43 42
-0.019531 -0.054688 -0.116487 44 42 43
-0.015625 -0.054688 -0.117582 47 47 46
-0.011719 -0.054688 -0.118944 47 50 47
-0.007812 -0.054688 -0.120538 49 53 51
-0.003906 -0.054688 -0.122175 60 64 63
0.000000 -0.054688 -0.123633 71 74 74
0.003906 -0.054688 -0.124900 80 83 84
0.007812 -0.054688 -0.125982 86 88 90
0.011719 -0.054688 -0.126965 87 90 91
0.015625 -0.054688 -0.127733 88 90 92
0.019531 -0.054688 -0.128444 89 91 92
0.023438 -0.054688 -0.128970 89 91 92
0.027344 -0.054688 -0.129614 89 92 92
0.031250 -0.054688 -0.130101 88 91 92
0.035156 -0.054688 -0.130137 87 88 89
0.039062 -0.054688 -0.130085 84 85 87
0.042969 -0.054688 -0.130261 79 80 82
0.046875 -0.054688 -0.130542 73 75 76
0.050781 -0.054688 -0.130678 71 73 74
0.054688 -0.054688 -0.130725 75 77 78
0.058594 -0.054688 -0.130443 85 85 87
0.062500 -0.054688 -0.130025 92 92 94
0.066406 -0.054688 -0.129298 90 90 93
0.070312 -0.054688 -0.128497 74 74 77
0.074219 -0.054688 -0.127682 54 53 57
0.078125 -0.054688 -0.126837 49 46 49
0.082031 -0.054688 -0.126358 48 44 46
0.085938 -0.054688 -0.125999 47 41 45
0.089844 -0.054688 -0.125953 49 42 47
0.093750 -0.054688 -0.126154 49 42 47
0.097656 -0.054688 -0.126530 52 45 50
0.101562 -0.054688 -0.127161 53 45 50
0.105469 -0.054688 -0.127807 48 41 47
0.109375 -0.054688 -0.128515 49 42 48
0.113281 -0.054688 -0.129055 56 48 54
0.117188 -0.054688 -0.129425 58 52 56
0.121094 -0.054688 -0.129823 55 52 54
0.125000 -0.054688 -0.130091 55 54 54
0.128906 -0.054688 -0.130089 55 55 55
0.132812 -0.054688 -0.129831 54 54 54
0.136719 -0.054688 -0.129443 52 53 53
0.140625 -0.054688 -0.128907 51 52 52
0.144531 -0.054688 -0.128279 50 52 51
0.148438 -0.054688 -0.127620 53 55 55
0.152344 -0.054688 -0.126660 61 62 61
0.156250 -0.054688 -0.125511 70 70 69
0.160156 -0.054688 -0.124194 76 76 75
0.164062 -0.054688 -0.122712 80 78 77
