ply
    format ascii 1.0
    element vertex 57722
    property float x
    property float y
    property float z
    property uchar red
    property uchar green
    property uchar blue
    end_header
0.042969 -0.031250 -0.080112 22 21 26
0.046875 -0.031250 -0.080042 22 21 26
0.050781 -0.031250 -0.079929 22 21 25
0.054688 -0.031250 -0.079875 22 21 25
0.058594 -0.031250 -0.079634 23 22 26
0.062500 -0.031250 -0.079066 24 23 26
0.066406 -0.031250 -0.078067 23 22 24
0.070312 -0.031250 -0.076465 24 23 26
0.074219 -0.031250 -0.074515 24 24 27
0.078125 -0.031250 -0.072046 24 24 29
0.082031 -0.031250 -0.069340 25 24 27
0.085938 -0.031250 -0.066562 28 26 26
0.089844 -0.031250 -0.063586 74 56 54
0.093750 -0.031250 -0.060621 180 139 122
0.097656 -0.031250 -0.057251 209 168 147
0.101562 -0.031250 -0.053366 198 149 134
0.105469 -0.031250 -0.049629 200 149 132
0.109375 -0.031250 -0.044877 198 142 123
0.113281 -0.031250 -0.038962 187 131 113
0.117188 -0.031250 -0.031775 195 150 131
0.121094 -0.031250 -0.019066 205 167 149
0.125000 -0.031250 0.018455 203 164 147
0.128906 -0.031250 0.030894 194 151 132
0.132812 -0.031250 0.028019 188 140 121
0.136719 -0.031250 0.029028 184 134 116
0.140625 -0.031250 0.029870 175 127 109
0.144531 -0.031250 0.032735 172 124 102
0.148438 -0.031250 0.038363 164 120 92
0.152344 -0.031250 0.026532 142 106 83
-0.230469 -0.035156 0.068748 137 99 76
-0.226562 -0.035156 0.064343 175 128 102
-0.222656 -0.035156 0.062855 185 139 115
-0.218750 -0.035156 0.060983 183 139 117
-0.214844 -0.035156 0.062011 199 161 138
-0.210938 -0.035156 0.063176 204 168 146
-0.207031 -0.035156 0.058718 205 167 145
-0.203125 -0.035156 -0.032697 208 169 149
-0.199219 -0.035156 -0.041439 212 172 153
-0.195312 -0.035156 -0.050251 212 166 148
-0.191406 -0.035156 -0.056179 220 172 153
-0.187500 -0.035156 -0.061811 218 175 154
-0.183594 -0.035156 -0.066657 211 170 152
-0.179688 -0.035156 -0.070749 195 162 146
-0.175781 -0.035156 -0.074905 70 60 59
-0.171875 -0.035156 -0.078401 20 19 21
-0.167969 -0.035156 -0.081525 23 21 24
-0.164062 -0.035156 -0.084065 20 20 24
-0.160156 -0.035156 -0.086192 21 21 25
-0.156250 -0.035156 -0.087991 23 22 25
-0.152344 -0.035156 -0.089347 22 20 24
-0.148438 -0.035156 -0.090582 22 20 24
-0.144531 -0.035156 -0.091595 21 19 24
-0.140625 -0.035156 -0.092618 21 19 25
-0.136719 -0.035156 -0.093261 20 20 25
-0.132812 -0.035156 -0.093634 20 20 25
-0.128906 -0.035156 -0.094021 20 20 25
-0.125000 -0.035156 -0.094323 21 20 26
-0.121094 -0.035156 -0.094173 21 20 26
-0.117188 -0.035156 -0.093624 21 20 26
-0.113281 -0.035156 -0.093152 22 21 27
-0.109375 -0.035156 -0.092582 22 22 27
-0.105469 -0.035156 -0.091751 22 22 27
-0.101562 -0.035156 -0.090698 22 22 28
-0.097656 -0.035156 -0.089597 22 21 27
-0.093750 -0.035156 -0.088398 22 21 27
-0.089844 -0.035156 -0.086941 22 21 27
-0.085938 -0.035156 -0.085358 21 21 27
-0.082031 -0.035156 -0.083588 20 20 26
-0.078125 -0.035156 -0.081804 21 20 26
-0.074219 -0.035156 -0.079959 21 20 26
-0.070312 -0.035156 -0.078176 20 20 26
-0.066406 -0.035156 -0.076411 20 20 25
-0.062500 -0.035156 -0.074498 19 18 23
-0.058594 -0.035156 -0.073618 16 15 19
-0.054688 -0.035156 -0.073187 15 13 17
-0.050781 -0.035156 -0.072602 9 7 11
-0.046875 -0.035156 -0.071958 3 2 4
-0.042969 -0.035156 -0.070840 2 1 3
-0.039062 -0.035156 -0.069698 2 1 3
-0.035156 -0.035156 -0.068116 4 3 5
-0.031250 -0.035156 -0.066904 10 10 14
-0.027344 -0.035156 -0.066224 15 15 19
-0.023438 -0.035156 -0.067698 17 17 21
-0.019531 -0.035156 -0.069903 19 19 23
-0.015625 -0.035156 -0.071580 18 18 22
-0.011719 -0.035156 -0.072918 18 18 23
-0.007812 -0.035156 -0.074029 19 18 23
-0.003906 -0.035156 -0.075115 18 18 22
0.000000 -0.035156 -0.076225 19 19 23
0.003906 -0.035156 -0.076545 20 20 25
0.007812 -0.035156 -0.076700 21 20 25
0.011719 -0.035156 -0.076755 20 20 25
0.015625 -0.035156 -0.076941 21 20 26
0.019531 -0.035156 -0.076960 21 20 26
0.023438 -0.035156 -0.076792 21 20 26
0.027344 -0.035156 -0.076856 21 21 26
0.031250 -0.035156 -0.077026 22 21 27
0.035156 -0.035156 -0.077163 22 21 27
0.039062 -0.035156 -0.077223 22 21 27
0.042969 -0.035156 -0.077348 22 21 26
0.046875 -0.035156 -0.077425 22 21 26
0.050781 -0.035156 -0.077423 21 20 25
0.054688 -0.035156 -0.077452 22 21 25
0.058594 -0.035156 -0.077314 24 22 26
0.062500 -0.035156 -0.076853 24 23 26
0.066406 -0.035156 -0.075995 23 22 24
0.070312 -0.035156 -0.074531 24 24 26
0.074219 -0.035156 -0.072737 23 23 27
0.078125 -0.035156 -0.070406 23 24 28
0.082031 -0.035156 -0.067810 23 23 25
0.085938 -0.035156 -0.065156 27 24 25
0.089844 -0.035156 -0.062323 86 62 61
0.093750 -0.035156 -0.059461 185 140 124
0.097656 -0.035156 -0.056171 204 158 136
0.101562 -0.035156 -0.052387 200 151 134
0.105469 -0.035156 -0.048714 200 150 132
0.109375 -0.035156 -0.043862 181 122 104
0.113281 -0.035156 -0.037855 170 112 97
0.117188 -0.035156 -0.030437 196 150 132
0.121094 -0.035156 -0.017579 209 172 154
0.125000 -0.035156 0.018848 205 165 148
0.128906 -0.035156 0.031223 193 148 130
0.132812 -0.035156 0.028438 186 138 119
0.136719 -0.035156 0.029444 185 135 116
0.140625 -0.035156 0.030260 177 127 110
0.144531 -0.035156 0.033089 175 127 104
0.148438 -0.035156 0.038001 164 119 92
0.152344 -0.035156 0.017259 130 93 75
-0.230469 -0.039062 0.070691 143 102 79
-0.226562 -0.039062 0.065076 173 123 98
-0.222656 -0.039062 0.062568 186 137 113
-0.218750 -0.039062 0.061122 183 138 115
-0.214844 -0.039062 0.062569 197 158 135
-0.210938 -0.039062 0.063993 203 167 145
-0.207031 -0.039062 0.064616 203 167 145
-0.203125 -0.039062 -0.026702 208 170 149
-0.199219 -0.039062 -0.040809 211 172 151
-0.195312 -0.039062 -0.049110 213 166 147
-0.191406 -0.039062 -0.055304 220 171 152
-0.187500 -0.039062 -0.061311 218 171 151
-0.183594 -0.039062 -0.065933 215 168 149
-0.179688 -0.039062 -0.069828 206 170 152
-0.175781 -0.039062 -0.073920 94 79 74
-0.171875 -0.039062 -0.077641 28 24 26
-0.167969 -0.039062 -0.080593 27 23 25
-0.164062 -0.039062 -0.083097 22 21 24
-0.160156 -0.039062 -0.085263 21 21 24
-0.156250 -0.039062 -0.087029 23 22 25
-0.152344 -0.039062 -0.088271 22 20 24
-0.148438 -0.039062 -0.089424 22 20 24
-0.144531 -0.039062 -0.090354 22 19 24
-0.140625 -0.039062 -0.091298 21 20 25
-0.136719 -0.039062 -0.091889 21 20 25
-0.132812 -0.039062 -0.092238 20 20 25
-0.128906 -0.039062 -0.092589 20 20 25
-0.125000 -0.039062 -0.092856 21 20 26
-0.121094 -0.039062 -0.092652 21 20 26
-0.117188 -0.039062 -0.092036 21 20 26
-0.113281 -0.039062 -0.091513 22 21 27
-0.109375 -0.039062 -0.090905 22 21 27
-0.105469 -0.039062 -0.090021 21 20 26
-0.101562 -0.039062 -0.088904 22 21 27
-0.097656 -0.039062 -0.087750 22 21 27
-0.093750 -0.039062 -0.086477 21 21 27
-0.089844 -0.039062 -0.084966 21 21 27
-0.085938 -0.039062 -0.083322 21 21 27
-0.082031 -0.039062 -0.081489 21 20 27
-0.078125 -0.039062 -0.079633 21 20 26
-0.074219 -0.039062 -0.077674 20 20 26
-0.070312 -0.039062 -0.075736 19 19 25
-0.066406 -0.039062 -0.073812 19 18 24
-0.062500 -0.039062 -0.071598 20 19 24
-0.058594 -0.039062 -0.070177 16 15 20
-0.054688 -0.039062 -0.069043 14 11 16
-0.050781 -0.039062 -0.068003 8 6 10
-0.046875 -0.039062 -0.066814 2 1 3
-0.042969 -0.039062 -0.065149 10 9 1
-0.039062 -0.039062 -0.063518 10 9 1
-0.035156 -0.039062 -0.060913 2 2 4
-0.031250 -0.039062 -0.057985 10 9 13
-0.027344 -0.039062 -0.057074 15 14 19
-0.023438 -0.039062 -0.059551 17 17 21
-0.019531 -0.039062 -0.062771 19 19 23
-0.015625 -0.039062 -0.065209 18 18 22
-0.011719 -0.039062 -0.067192 18 18 23
-0.007812 -0.039062 -0.068961 18 18 23
-0.003906 -0.039062 -0.070447 18 18 23
0.000000 -0.039062 -0.071741 19 19 24
0.003906 -0.039062 -0.072283 20 20 25
0.007812 -0.039062 -0.072658 21 20 25
0.011719 -0.039062 -0.072924 20 20 25
0.015625 -0.039062 -0.073318 21 20 26
0.019531 -0.039062 -0.073550 21 20 26
0.023438 -0.039062 -0.073592 21 20 26
0.027344 -0.039062 -0.073850 21 21 26
0.031250 -0.039062 -0.074190 21 20 26
0.035156 -0.039062 -0.074469 21 21 26
0.039062 -0.039062 -0.074639 21 21 26
0.042969 -0.039062 -0.074883 21 20 25
0.046875 -0.039062 -0.075027 21 20 26
0.050781 -0.039062 -0.075064 21 21 26
0.054688 -0.039062 -0.075117 22 21 26
0.058594 -0.039062 -0.075027 24 22 27
0.062500 -0.039062 -0.074625 24 22 26
0.066406 -0.039062 -0.073881 23 22 25
0.070312 -0.039062 -0.072553 24 24 26
0.074219 -0.039062 -0.070907 22 23 26
0.078125 -0.039062 -0.068695 23 24 27
0.082031 -0.039062 -0.066214 23 22 24
0.085938 -0.039062 -0.063671 29 25 25
0.089844 -0.039062 -0.060960 99 72 69
0.093750 -0.039062 -0.058169 189 144 129
0.097656 -0.039062 -0.054877 199 151 130
0.101562 -0.039062 -0.051192 201 151 135
0.105469 -0.039062 -0.047639 195 143 125
0.109375 -0.039062 -0.042718 153 96 81
0.113281 -0.039062 -0.036743 149 93 82
0.117188 -0.039062 -0.029253 195 147 131
0.121094 -0.039062 -0.016342 210 171 153
0.125000 -0.039062 0.018984 205 164 146
0.128906 -0.039062 0.031583 191 146 128
0.132812 -0.039062 0.028768 183 134 116
0.136719 -0.039062 0.029851 183 132 114
0.140625 -0.039062 0.030587 175 125 107
0.144531 -0.039062 0.033331 175 126 104
0.148438 -0.039062 0.038536 158 114 92
0.152344 -0.039062 0.008867 137 101 81
-0.230469 -0.042969 0.070735 137 92 72
-0.226562 -0.042969 0.065249 170 116 93
-0.222656 -0.042969 0.062688 186 136 111
-0.218750 -0.042969 0.061126 183 136 112
-0.214844 -0.042969 0.062976 195 153 130
-0.210938 -0.042969 0.064766 202 165 143
-0.207031 -0.042969 0.069336 204 167 145
-0.203125 -0.042969 -0.019309 208 171 150
-0.199219 -0.042969 -0.039992 209 169 147
-0.195312 -0.042969 -0.047964 211 163 143
-0.191406 -0.042969 -0.054371 219 169 151
-0.187500 -0.042969 -0.060812 216 165 146
-0.183594 -0.042969 -0.065344 214 163 144
-0.179688 -0.042969 -0.069132 216 180 159
-0.175781 -0.042969 -0.073158 131 108 97
-0.171875 -0.042969 -0.076873 36 31 32
-0.167969 -0.042969 -0.079667 26 22 23
-0.164062 -0.042969 -0.082109 22 21 24
-0.160156 -0.042969 -0.084322 22 21 24
-0.156250 -0.042969 -0.086067 24 22 25
-0.152344 -0.042969 -0.087212 23 21 25
-0.148438 -0.042969 -0.088286 22 20 24
-0.144531 -0.042969 -0.089136 21 19 24
-0.140625 -0.042969 -0.090005 21 19 25
-0.136719 -0.042969 -0.090556 21 19 25
-0.132812 -0.042969 -0.090881 21 20 26
-0.128906 -0.042969 -0.091202 22 20 26
-0.125000 -0.042969 -0.091439 21 20 26
-0.121094 -0.042969 -0.091199 22 21 27
-0.117188 -0.042969 -0.090551 22 21 27
-0.113281 -0.042969 -0.090010 23 21 28
-0.109375 -0.042969 -0.089391 21 20 26
-0.105469 -0.042969 -0.088494 21 20 26
-0.101562 -0.042969 -0.087366 22 21 27
-0.097656 -0.042969 -0.086197 22 21 27
-0.093750 -0.042969 -0.084895 21 21 27
-0.089844 -0.042969 -0.083371 22 21 27
-0.085938 -0.042969 -0.081706 22 21 27
-0.082031 -0.042969 -0.079843 22 21 28
-0.078125 -0.042969 -0.077928 22 21 27
-0.074219 -0.042969 -0.075896 21 21 27
-0.070312 -0.042969 -0.073848 20 19 25
-0.066406 -0.042969 -0.071796 19 18 24
-0.062500 -0.042969 -0.069360 20 19 25
-0.058594 -0.042969 -0.067439 15 13 18
-0.054688 -0.042969 -0.065738 11 9 14
-0.050781 -0.042969 -0.064195 8 6 10
-0.046875 -0.042969 -0.062353 1 1 2
-0.042969 -0.042969 -0.059765 5 4 1
-0.039062 -0.042969 -0.057604 5 4 1
-0.035156 -0.042969 -0.053417 1 1 2
-0.031250 -0.042969 -0.047740 8 6 10
-0.027344 -0.042969 -0.048131 14 14 18
-0.023438 -0.042969 -0.052421 18 18 22
-0.019531 -0.042969 -0.057030 19 19 24
-0.015625 -0.042969 -0.060554 18 18 23
-0.011719 -0.042969 -0.063268 18 18 23
-0.007812 -0.042969 -0.065204 18 18 23
-0.003906 -0.042969 -0.066915 18 18 24
0.000000 -0.042969 -0.068398 19 19 24
0.003906 -0.042969 -0.069120 20 20 25
0.007812 -0.042969 -0.069653 20 20 25
0.011719 -0.042969 -0.070080 21 20 26
0.015625 -0.042969 -0.070618 21 21 26
0.019531 -0.042969 -0.070982 21 20 26
0.023438 -0.042969 -0.071156 20 20 26
0.027344 -0.042969 -0.071516 21 20 26
0.031250 -0.042969 -0.071925 20 20 26
0.035156 -0.042969 -0.072257 21 21 26
0.039062 -0.042969 -0.072456 21 21 26
0.042969 -0.042969 -0.072705 20 20 25
0.046875 -0.042969 -0.072845 21 21 26
0.050781 -0.042969 -0.072843 22 21 26
0.054688 -0.042969 -0.072851 22 21 26
0.058594 -0.042969 -0.072759 23 22 27
0.062500 -0.042969 -0.072383 23 22 26
0.066406 -0.042969 -0.071715 23 22 26
0.070312 -0.042969 -0.070496 24 24 27
0.074219 -0.042969 -0.068987 22 23 26
0.078125 -0.042969 -0.066917 24 25 28
0.082031 -0.042969 -0.064579 25 23 25
0.085938 -0.042969 -0.062124 33 27 27
0.089844 -0.042969 -0.059542 111 81 77
0.093750 -0.042969 -0.056875 193 149 134
0.097656 -0.042969 -0.053614 199 152 131
0.101562 -0.042969 -0.049891 203 154 138
0.105469 -0.042969 -0.046387 183 130 114
0.109375 -0.042969 -0.041474 128 79 67
0.113281 -0.042969 -0.035469 151 99 87
0.117188 -0.042969 -0.027631 200 154 138
0.121094 -0.042969 -0.014895 208 166 148
0.125000 -0.042969 0.018615 205 161 143
0.128906 -0.042969 0.031842 191 144 126
0.132812 -0.042969 0.029338 183 134 116
0.136719 -0.042969 0.030292 182 130 113
0.140625 -0.042969 0.030384 172 120 103
0.144531 -0.042969 0.033343 171 122 102
0.148438 -0.042969 0.040207 155 113 96
0.152344 -0.042969 -0.004835 142 106 83
-0.230469 -0.046875 0.071120 125 81 66
-0.226562 -0.046875 0.064849 166 110 88
-0.222656 -0.046875 0.062759 187 135 110
-0.218750 -0.046875 0.061164 184 135 112
-0.214844 -0.046875 0.063642 195 149 126
-0.210938 -0.046875 0.065902 204 165 142
-0.207031 -0.046875 0.073911 205 169 147
-0.203125 -0.046875 -0.008446 210 175 153
-0.199219 -0.046875 -0.037596 205 165 143
-0.195312 -0.046875 -0.046368 203 153 133
-0.191406 -0.046875 -0.053177 216 166 148
-0.187500 -0.046875 -0.060182 216 164 146
-0.183594 -0.046875 -0.064526 213 158 138
-0.179688 -0.046875 -0.068385 218 179 157
-0.175781 -0.046875 -0.072357 160 130 115
-0.171875 -0.046875 -0.076173 48 39 38
-0.167969 -0.046875 -0.078849 23 19 20
-0.164062 -0.046875 -0.081184 20 19 22
-0.160156 -0.046875 -0.083402 21 20 23
-0.156250 -0.046875 -0.085118 23 21 24
-0.152344 -0.046875 -0.086202 24 21 25
-0.148438 -0.046875 -0.087196 22 20 24
-0.144531 -0.046875 -0.087982 22 19 25
-0.140625 -0.046875 -0.088786 21 19 26
-0.136719 -0.046875 -0.089295 20 18 25
-0.132812 -0.046875 -0.089602 21 19 26
-0.128906 -0.046875 -0.089897 22 20 26
-0.125000 -0.046875 -0.090108 21 20 26
-0.121094 -0.046875 -0.089845 23 21 28
-0.117188 -0.046875 -0.089185 22 21 28
-0.113281 -0.046875 -0.088637 21 20 27
-0.109375 -0.046875 -0.088013 21 20 26
-0.105469 -0.046875 -0.087115 21 20 26
-0.101562 -0.046875 -0.085980 22 21 27
-0.097656 -0.046875 -0.084803 22 21 27
-0.093750 -0.046875 -0.083476 21 21 27
-0.089844 -0.046875 -0.081949 22 21 27
-0.085938 -0.046875 -0.080277 22 21 27
-0.082031 -0.046875 -0.078412 22 21 28
-0.078125 -0.046875 -0.076488 21 21 27
-0.074219 -0.046875 -0.074405 21 21 27
-0.070312 -0.046875 -0.072274 20 20 26
-0.066406 -0.046875 -0.070160 19 19 25
-0.062500 -0.046875 -0.067593 21 20 26
-0.058594 -0.046875 -0.065395 15 14 21
-0.054688 -0.046875 -0.063315 14 12 18
-0.050781 -0.046875 -0.061288 11 8 14
-0.046875 -0.046875 -0.058898 2 1 3
-0.042969 -0.046875 -0.055601 2 1 1
-0.039062 -0.046875 -0.052805 1 1 1
-0.035156 -0.046875 -0.045065 1 1 2
-0.031250 -0.046875 -0.037444 5 4 8
-0.027344 -0.046875 -0.040555 13 12 18
-0.023438 -0.046875 -0.046592 19 18 23
-0.019531 -0.046875 -0.052202 19 19 24
-0.015625 -0.046875 -0.056546 18 18 23
-0.011719 -0.046875 -0.059561 19 19 24
-0.007812 -0.046875 -0.061721 19 19 25
-0.003906 -0.046875 -0.063658 20 20 25
0.000000 -0.046875 -0.065307 20 20 26
0.003906 -0.046875 -0.066186 20 20 26
0.007812 -0.046875 -0.066869 20 20 26
0.011719 -0.046875 -0.067461 21 20 26
0.015625 -0.046875 -0.068142 21 21 27
0.019531 -0.046875 -0.068629 21 20 26
0.023438 -0.046875 -0.068923 20 20 25
0.027344 -0.046875 -0.069374 21 20 26
0.031250 -0.046875 -0.069850 21 20 26
0.035156 -0.046875 -0.070228 21 21 26
0.039062 -0.046875 -0.070455 21 21 27
0.042969 -0.046875 -0.070692 21 21 26
0.046875 -0.046875 -0.070841 21 21 26
0.050781 -0.046875 -0.070797 21 21 26
0.054688 -0.046875 -0.070752 22 21 26
0.058594 -0.046875 -0.070626 23 22 27
0.062500 -0.046875 -0.070252 23 22 26
0.066406 -0.046875 -0.069642 23 23 26
0.070312 -0.046875 -0.068505 24 24 26
0.074219 -0.046875 -0.067102 22 23 25
0.078125 -0.046875 -0.065159 26 26 28
0.082031 -0.046875 -0.062938 26 23 25
0.085938 -0.046875 -0.060523 36 28 28
0.089844 -0.046875 -0.058073 123 89 85
0.093750 -0.046875 -0.055436 197 154 139
0.097656 -0.046875 -0.052155 203 159 137
0.101562 -0.046875 -0.048447 204 160 143
0.105469 -0.046875 -0.044951 163 112 99
0.109375 -0.046875 -0.039857 110 70 61
0.113281 -0.046875 -0.033968 170 124 110
0.117188 -0.046875 -0.026139 210 170 153
0.121094 -0.046875 -0.013424 207 162 144
0.125000 -0.046875 0.018854 205 159 141
0.128906 -0.046875 0.032088 193 145 127
0.132812 -0.046875 0.029484 187 137 119
0.136719 -0.046875 0.030277 184 132 114
0.140625 -0.046875 0.030764 172 118 101
0.144531 -0.046875 0.034945 170 121 102
0.148438 -0.046875 0.045935 161 122 108
-0.230469 -0.050781 0.072903 128 86 72
-0.226562 -0.050781 0.064805 161 106 86
-0.222656 -0.050781 0.062618 186 134 108
-0.218750 -0.050781 0.061172 186 135 111
-0.214844 -0.050781 0.064393 195 145 123
-0.210938 -0.050781 0.067172 205 164 141
-0.207031 -0.050781 0.076961 207 169 147
-0.203125 -0.050781 0.009063 214 180 158
-0.199219 -0.050781 -0.036833 205 166 143
-0.195312 -0.050781 -0.045326 190 138 118
-0.191406 -0.050781 -0.051934 207 156 137
-0.187500 -0.050781 -0.059442 214 164 145
-0.183594 -0.050781 -0.063769 211 153 133
-0.179688 -0.050781 -0.067584 215 171 147
-0.175781 -0.050781 -0.071467 179 144 126
-0.171875 -0.050781 -0.075474 69 51 48
-0.167969 -0.050781 -0.078090 24 19 20
-0.164062 -0.050781 -0.080224 20 19 21
-0.160156 -0.050781 -0.082471 21 20 23
-0.156250 -0.050781 -0.084158 22 20 23
-0.152344 -0.050781 -0.085190 24 21 26
-0.148438 -0.050781 -0.086137 22 20 25
-0.144531 -0.050781 -0.086867 22 19 25
-0.140625 -0.050781 -0.087623 22 19 26
-0.136719 -0.050781 -0.088104 20 18 25
-0.132812 -0.050781 -0.088403 21 19 26
-0.128906 -0.050781 -0.088678 22 20 27
-0.125000 -0.050781 -0.088874 22 20 27
-0.121094 -0.050781 -0.088609 25 23 30
-0.117188 -0.050781 -0.087955 24 22 29
-0.113281 -0.050781 -0.087419 21 20 26
-0.109375 -0.050781 -0.086811 21 20 26
-0.105469 -0.050781 -0.085928 21 20 26
-0.101562 -0.050781 -0.084795 21 20 27
-0.097656 -0.050781 -0.083621 22 21 27
-0.093750 -0.050781 -0.082291 21 21 27
-0.089844 -0.050781 -0.080780 22 21 27
-0.085938 -0.050781 -0.079120 21 21 27
-0.082031 -0.050781 -0.077290 21 21 27
-0.078125 -0.050781 -0.075393 21 20 26
-0.074219 -0.050781 -0.073295 20 20 26
-0.070312 -0.050781 -0.071085 20 20 26
-0.066406 -0.050781 -0.068957 19 19 25
-0.062500 -0.050781 -0.066382 19 19 25
-0.058594 -0.050781 -0.063946 15 14 21
-0.054688 -0.050781 -0.061366 13 11 18
-0.050781 -0.050781 -0.059023 10 7 13
-0.046875 -0.050781 -0.056263 2 1 3
-0.042969 -0.050781 -0.052676 5 5 1
-0.039062 -0.050781 -0.048078 1 1 1
-0.035156 -0.050781 -0.033219 1 1 3
-0.031250 -0.050781 -0.026867 5 5 9
-0.027344 -0.050781 -0.033829 13 13 19
-0.023438 -0.050781 -0.041847 19 19 24
-0.019531 -0.050781 -0.048344 18 18 23
-0.015625 -0.050781 -0.053170 19 18 24
-0.011719 -0.050781 -0.056491 20 19 24
-0.007812 -0.050781 -0.058797 20 20 26
-0.003906 -0.050781 -0.060876 21 21 27
0.000000 -0.050781 -0.062668 20 20 26
0.003906 -0.050781 -0.063685 20 20 26
0.007812 -0.050781 -0.064491 20 20 26
0.011719 -0.050781 -0.065227 21 20 26
0.015625 -0.050781 -0.066021 21 21 27
0.019531 -0.050781 -0.066609 21 20 27
0.023438 -0.050781 -0.066994 20 20 26
0.027344 -0.050781 -0.067514 21 20 26
0.031250 -0.050781 -0.068044 21 20 26
0.035156 -0.050781 -0.068460 21 20 26
0.039062 -0.050781 -0.068659 21 21 26
0.042969 -0.050781 -0.068873 21 22 27
0.046875 -0.050781 -0.069016 21 21 26
0.050781 -0.050781 -0.068917 21 21 26
0.054688 -0.050781 -0.068807 22 21 26
0.058594 -0.050781 -0.068626 23 22 27
0.062500 -0.050781 -0.068222 23 22 26
0.066406 -0.050781 -0.067650 23 23 27
0.070312 -0.050781 -0.066584 23 23 26
0.074219 -0.050781 -0.065263 23 23 25
0.078125 -0.050781 -0.063432 27 26 29
0.082031 -0.050781 -0.061313 26 21 23
0.085938 -0.050781 -0.058943 39 29 29
0.089844 -0.050781 -0.056635 135 98 91
0.093750 -0.050781 -0.054032 200 155 138
0.097656 -0.050781 -0.050673 205 161 138
0.101562 -0.050781 -0.047016 201 156 139
0.105469 -0.050781 -0.043605 128 84 75
0.109375 -0.050781 -0.038315 79 52 47
0.113281 -0.050781 -0.032391 173 132 121
0.117188 -0.050781 -0.024273 215 179 164
0.121094 -0.050781 -0.011426 209 164 145
0.125000 -0.050781 0.019442 208 160 142
0.128906 -0.050781 0.032196 195 148 129
0.132812 -0.050781 0.029688 192 142 124
0.136719 -0.050781 0.030294 186 133 115
0.140625 -0.050781 0.031275 172 117 99
0.144531 -0.050781 0.035587 172 121 101
0.148438 -0.050781 0.039431 154 110 99
-0.230469 -0.054688 0.073211 129 90 76
-0.226562 -0.054688 0.065155 157 102 83
-0.222656 -0.054688 0.062794 187 134 107
-0.218750 -0.054688 0.061302 189 135 111
-0.214844 -0.054688 0.065182 194 141 118
-0.210938 -0.054688 0.068759 207 161 138
-0.207031 -0.054688 0.077131 209 168 146
-0.203125 -0.054688 0.037997 217 184 162
-0.199219 -0.054688 -0.037046 207 169 146
-0.195312 -0.054688 -0.043202 170 116 99
-0.191406 -0.054688 -0.050735 188 132 114
-0.187500 -0.054688 -0.058912 210 160 140
-0.183594 -0.054688 -0.062847 207 147 127
-0.179688 -0.054688 -0.066963 207 158 135
-0.175781 -0.054688 -0.070880 183 146 128
-0.171875 -0.054688 -0.074858 80 57 53
-0.167969 -0.054688 -0.077402 23 18 19
-0.164062 -0.054688 -0.079342 20 19 22
-0.160156 -0.054688 -0.081552 21 20 24
-0.156250 -0.054688 -0.083180 21 19 23
-0.152344 -0.054688 -0.084191 23 21 26
-0.148438 -0.054688 -0.085111 21 19 24
-0.144531 -0.054688 -0.085791 21 19 25
-0.140625 -0.054688 -0.086525 22 19 26
-0.136719 -0.054688 -0.086991 20 17 25
-0.132812 -0.054688 -0.087284 21 18 25
-0.128906 -0.054688 -0.087549 21 19 26
-0.125000 -0.054688 -0.087748 21 19 26
-0.121094 -0.054688 -0.087495 24 22 29
-0.117188 -0.054688 -0.086856 23 21 28
-0.113281 -0.054688 -0.086341 21 19 26
-0.109375 -0.054688 -0.085758 21 20 26
-0.105469 -0.054688 -0.084890 21 20 26
-0.101562 -0.054688 -0.083759 21 20 26
-0.097656 -0.054688 -0.082596 21 21 27
-0.093750 -0.054688 -0.081274 21 21 27
-0.089844 -0.054688 -0.079783 21 21 27
-0.085938 -0.054688 -0.078134 21 20 26
-0.082031 -0.054688 -0.076336 21 20 26
-0.078125 -0.054688 -0.074461 21 21 26
-0.074219 -0.054688 -0.072372 21 20 26
-0.070312 -0.054688 -0.070149 20 20 26
-0.066406 -0.054688 -0.068053 19 19 25
-0.062500 -0.054688 -0.065495 19 19 26
-0.058594 -0.054688 -0.062895 17 16 23
-0.054688 -0.054688 -0.059965 15 13 20
-0.050781 -0.054688 -0.057365 9 7 12
-0.046875 -0.054688 -0.054105 2 1 3
-0.042969 -0.054688 -0.050017 7 7 1
-0.039062 -0.054688 -0.042817 1 1 2
-0.035156 -0.054688 -0.020774 2 2 6
-0.031250 -0.054688 -0.019149 7 7 13
-0.027344 -0.054688 -0.029223 14 14 21
-0.023438 -0.054688 -0.038043 20 19 25
-0.019531 -0.054688 -0.044990 18 17 23
-0.015625 -0.054688 -0.050214 20 19 24
-0.011719 -0.054688 -0.053837 21 20 25
-0.007812 -0.054688 -0.056267 21 21 26
-0.003906 -0.054688 -0.058455 21 21 27
0.000000 -0.054688 -0.060375 20 20 26
0.003906 -0.054688 -0.061526 19 19 25
0.007812 -0.054688 -0.062453 20 19 25
0.011719 -0.054688 -0.063327 20 20 26
0.015625 -0.054688 -0.064230 21 20 27
0.019531 -0.054688 -0.064904 21 20 27
0.023438 -0.054688 -0.065362 21 20 26
0.027344 -0.054688 -0.065929 21 20 26
0.031250 -0.054688 -0.066504 21 20 26
0.035156 -0.054688 -0.066928 21 20 26
0.039062 -0.054688 -0.067091 21 21 26
0.042969 -0.054688 -0.067294 22 22 27
0.046875 -0.054688 -0.067435 22 21 26
0.050781 -0.054688 -0.067291 21 21 26
0.054688 -0.054688 -0.067122 22 21 26
0.058594 -0.054688 -0.066883 22 21 27
0.062500 -0.054688 -0.066457 22 21 26
0.066406 -0.054688 -0.065915 23 22 27
0.070312 -0.054688 -0.064889 23 22 26
0.074219 -0.054688 -0.063609 23 23 24
0.078125 -0.054688 -0.061874 28 26 28
0.082031 -0.054688 -0.059829 26 20 22
0.085938 -0.054688 -0.057454 47 34 32
0.089844 -0.054688 -0.055238 152 110 97
0.093750 -0.054688 -0.052610 200 151 131
0.097656 -0.054688 -0.049073 205 157 133
0.101562 -0.054688 -0.045346 197 149 131
0.105469 -0.054688 -0.041891 96 61 57
0.109375 -0.054688 -0.036431 53 36 35
0.113281 -0.054688 -0.030438 162 122 113
0.117188 -0.054688 -0.022123 215 179 164
0.121094 -0.054688 -0.009025 212 166 148
0.125000 -0.054688 0.021033 210 162 143
0.128906 -0.054688 0.032559 198 151 131
0.132812 -0.054688 0.030289 195 145 126
0.136719 -0.054688 0.030524 185 129 112
0.140625 -0.054688 0.030944 173 115 97
0.144531 -0.054688 0.035175 179 125 104
0.148438 -0.054688 0.030706 140 89 80
-0.230469 -0.058594 0.072269 125 88 75
-0.226562 -0.058594 0.065479 156 102 83
-0.222656 -0.058594 0.062615 190 136 109
-0.218750 -0.058594 0.061583 192 137 112
-0.214844 -0.058594 0.066380 194 136 114
-0.210938 -0.058594 0.070771 208 158 135
-0.207031 -0.058594 0.077089 212 167 147
-0.203125 -0.058594 0.068263 219 183 162
-0.199219 -0.058594 -0.035358 209 171 150
-0.195312 -0.058594 -0.041131 155 102 88
-0.191406 -0.058594 -0.050641 162 105 90
-0.187500 -0.058594 -0.059047 208 157 136
-0.183594 -0.058594 -0.061633 211 153 133
-0.179688 -0.058594 -0.066454 208 160 137
-0.175781 -0.058594 -0.070583 193 157 138
-0.171875 -0.058594 -0.074212 92 66 60
-0.167969 -0.058594 -0.076530 23 18 20
-0.164062 -0.058594 -0.078423 20 19 22
-0.160156 -0.058594 -0.080650 21 20 24
-0.156250 -0.058594 -0.082169 20 18 22
-0.152344 -0.058594 -0.083170 24 21 26
-0.148438 -0.058594 -0.084096 21 19 24
-0.144531 -0.058594 -0.084754 21 19 25
-0.140625 -0.058594 -0.085499 22 19 26
-0.136719 -0.058594 -0.085966 20 17 24
-0.132812 -0.058594 -0.086271 20 18 25
-0.128906 -0.058594 -0.086549 21 18 26
-0.125000 -0.058594 -0.086771 20 18 25
-0.121094 -0.058594 -0.086542 21 19 26
-0.117188 -0.058594 -0.085933 21 19 26
-0.113281 -0.058594 -0.085451 21 19 26
-0.109375 -0.058594 -0.084899 21 19 26
-0.105469 -0.058594 -0.084053 21 19 26
-0.101562 -0.058594 -0.082928 20 20 26
-0.097656 -0.058594 -0.081778 21 20 26
-0.093750 -0.058594 -0.080467 21 21 26
-0.089844 -0.058594 -0.078992 22 21 27
-0.085938 -0.058594 -0.077357 21 20 26
-0.082031 -0.058594 -0.075594 21 20 26
-0.078125 -0.058594 -0.073740 21 20 26
-0.074219 -0.058594 -0.071692 20 20 25
-0.070312 -0.058594 -0.069541 19 20 25
-0.066406 -0.058594 -0.067504 19 19 25
-0.062500 -0.058594 -0.064930 19 19 26
-0.058594 -0.058594 -0.062201 19 18 25
-0.054688 -0.058594 -0.059065 17 15 22
-0.050781 -0.058594 -0.056273 9 7 12
-0.046875 -0.058594 -0.052658 2 1 4
-0.042969 -0.058594 -0.048288 9 9 2
-0.039062 -0.058594 -0.038335 1 1 3
-0.035156 -0.058594 -0.012721 3 4 10
-0.031250 -0.058594 -0.016328 9 9 18
-0.027344 -0.058594 -0.026475 15 15 23
-0.023438 -0.058594 -0.035223 20 19 25
-0.019531 -0.058594 -0.042422 18 17 23
-0.015625 -0.058594 -0.047872 20 19 24
-0.011719 -0.058594 -0.051676 20 20 25
-0.007812 -0.058594 -0.054191 20 20 25
-0.003906 -0.058594 -0.056455 21 21 27
0.000000 -0.058594 -0.058498 20 20 26
0.003906 -0.058594 -0.059771 19 19 25
0.007812 -0.058594 -0.060799 20 19 25
0.011719 -0.058594 -0.061801 20 19 26
0.015625 -0.058594 -0.062803 21 20 27
0.019531 -0.058594 -0.063555 22 21 27
0.023438 -0.058594 -0.064076 22 21 27
0.027344 -0.058594 -0.064692 22 20 27
0.031250 -0.058594 -0.065261 22 21 27
0.035156 -0.058594 -0.065647 21 20 26
0.039062 -0.058594 -0.065784 21 20 26
0.042969 -0.058594 -0.065974 22 21 27
0.046875 -0.058594 -0.066091 22 21 26
0.050781 -0.058594 -0.065896 21 21 26
0.054688 -0.058594 -0.065666 22 21 26
0.058594 -0.058594 -0.065358 22 21 27
0.062500 -0.058594 -0.064896 22 21 26
0.066406 -0.058594 -0.064349 23 22 27
0.070312 -0.058594 -0.063347 23 22 26
0.074219 -0.058594 -0.062041 23 23 25
0.078125 -0.058594 -0.060307 27 25 27
0.082031 -0.058594 -0.058347 28 21 23
0.085938 -0.058594 -0.056003 64 44 39
0.089844 -0.058594 -0.053829 167 120 102
0.093750 -0.058594 -0.051176 195 136 115
0.097656 -0.058594 -0.047471 201 145 119
0.101562 -0.058594 -0.043657 192 141 123
0.105469 -0.058594 -0.040091 81 51 49
0.109375 -0.058594 -0.034343 44 31 30
0.113281 -0.058594 -0.028188 153 113 105
0.117188 -0.058594 -0.019890 214 173 159
0.121094 -0.058594 -0.006204 214 166 148
0.125000 -0.058594 0.023600 211 159 141
0.128906 -0.058594 0.033065 198 148 129
0.132812 -0.058594 0.030598 193 140 123
0.136719 -0.058594 0.030367 178 118 103
0.140625 -0.058594 0.031024 172 111 95
0.144531 -0.058594 0.036530 188 130 107
0.148438 -0.058594 0.030837 147 90 78
-0.230469 -0.062500 0.071684 137 100 86
-0.226562 -0.062500 0.065627 160 105 86
-0.222656 -0.062500 0.062134 190 135 107
-0.218750 -0.062500 0.061804 195 140 114
-0.214844 -0.062500 0.067593 193 134 112
-0.210938 -0.062500 0.073106 207 154 131
-0.207031 -0.062500 0.079557 216 169 150
-0.203125 -0.062500 0.088855 217 180 159
-0.199219 -0.062500 -0.024823 217 184 162
-0.195312 -0.062500 -0.039391 169 117 103
-0.191406 -0.062500 -0.050295 140 87 75
-0.187500 -0.062500 -0.058403 202 151 129
-0.183594 -0.062500 -0.060529 218 165 144
-0.179688 -0.062500 -0.065839 214 169 145
-0.175781 -0.062500 -0.070044 205 171 152
-0.171875 -0.062500 -0.073608 106 77 71
-0.167969 -0.062500 -0.075642 24 19 20
-0.164062 -0.062500 -0.077499 21 19 22
-0.160156 -0.062500 -0.079730 21 19 23
-0.156250 -0.062500 -0.081189 19 17 22
-0.152344 -0.062500 -0.082187 24 21 27
-0.148438 -0.062500 -0.083129 21 18 24
-0.144531 -0.062500 -0.083784 21 18 24
-0.140625 -0.062500 -0.084543 21 18 25
-0.136719 -0.062500 -0.085025 19 17 24
-0.132812 -0.062500 -0.085351 20 17 25
-0.128906 -0.062500 -0.085649 21 19 26
-0.125000 -0.062500 -0.085900 21 19 26
-0.121094 -0.062500 -0.085702 21 19 26
-0.117188 -0.062500 -0.085132 21 19 26
-0.113281 -0.062500 -0.084692 21 19 26
-0.109375 -0.062500 -0.084176 21 19 26
-0.105469 -0.062500 -0.083361 21 20 26
-0.101562 -0.062500 -0.082249 21 20 26
-0.097656 -0.062500 -0.081120 20 20 26
-0.093750 -0.062500 -0.079834 20 20 26
-0.089844 -0.062500 -0.078382 21 21 27
-0.085938 -0.062500 -0.076760 21 20 26
-0.082031 -0.062500 -0.075033 21 20 26
-0.078125 -0.062500 -0.073187 21 20 26
-0.074219 -0.062500 -0.071180 20 20 25
-0.070312 -0.062500 -0.069113 20 20 25
-0.066406 -0.062500 -0.067126 19 19 25
-0.062500 -0.062500 -0.064611 18 19 25
-0.058594 -0.062500 -0.061838 18 18 24
-0.054688 -0.062500 -0.058514 16 14 21
-0.050781 -0.062500 -0.055523 7 6 10
-0.046875 -0.062500 -0.051692 1 1 3
-0.042969 -0.062500 -0.047284 10 11 1
-0.039062 -0.062500 -0.034604 1 1 3
-0.035156 -0.062500 -0.008304 4 4 12
-0.031250 -0.062500 -0.013995 10 11 20
-0.027344 -0.062500 -0.023910 16 16 25
-0.023438 -0.062500 -0.032788 20 20 26
-0.019531 -0.062500 -0.040216 18 17 23
-0.015625 -0.062500 -0.045848 20 19 24
-0.011719 -0.062500 -0.049778 19 19 24
-0.007812 -0.062500 -0.052351 19 19 24
-0.003906 -0.062500 -0.054687 21 21 26
0.000000 -0.062500 -0.056849 20 20 26
0.003906 -0.062500 -0.058245 19 19 26
0.007812 -0.062500 -0.059378 20 19 26
0.011719 -0.062500 -0.060496 20 20 26
0.015625 -0.062500 -0.061585 21 20 27
0.019531 -0.062500 -0.062405 22 21 27
0.023438 -0.062500 -0.062975 22 21 27
0.027344 -0.062500 -0.063585 22 20 27
0.031250 -0.062500 -0.064131 21 20 26
0.035156 -0.062500 -0.064504 21 20 26
0.039062 -0.062500 -0.064629 21 20 26
0.042969 -0.062500 -0.064808 21 20 26
0.046875 -0.062500 -0.064906 21 21 26
0.050781 -0.062500 -0.064675 21 20 26
0.054688 -0.062500 -0.064391 21 21 26
0.058594 -0.062500 -0.064024 22 21 27
0.062500 -0.062500 -0.063514 21 21 26
0.066406 -0.062500 -0.062943 23 22 28
0.070312 -0.062500 -0.061959 23 22 26
0.074219 -0.062500 -0.060654 24 23 26
0.078125 -0.062500 -0.058951 27 24 27
0.082031 -0.062500 -0.056993 33 24 25
0.085938 -0.062500 -0.054635 88 58 49
0.089844 -0.062500 -0.052470 175 122 101
0.093750 -0.062500 -0.049680 184 117 98
0.097656 -0.062500 -0.045695 191 128 103
0.101562 -0.062500 -0.041851 184 128 110
0.105469 -0.062500 -0.038135 76 48 45
0.109375 -0.062500 -0.032051 45 31 30
0.113281 -0.062500 -0.025898 147 106 96
0.117188 -0.062500 -0.017626 210 165 149
0.121094 -0.062500 -0.002432 214 163 144
0.125000 -0.062500 0.026928 209 153 135
0.128906 -0.062500 0.033641 195 141 122
0.132812 -0.062500 0.031123 187 130 113
0.136719 -0.062500 0.030420 169 108 95
0.140625 -0.062500 0.030913 171 108 93
0.144531 -0.062500 0.036416 182 120 97
0.148438 -0.062500 0.039029 135 76 64
-0.230469 -0.066406 0.070180 147 112 94
-0.226562 -0.066406 0.065115 162 110 89
-0.222656 -0.066406 0.062210 187 134 106
-0.218750 -0.066406 0.062040 198 144 118
-0.214844 -0.066406 0.068611 196 137 115
-0.210938 -0.066406 0.075558 207 152 129
-0.207031 -0.066406 0.084294 220 174 155
-0.203125 -0.066406 0.098645 216 178 158
-0.199219 -0.066406 -0.001430 224 196 175
-0.195312 -0.066406 -0.039372 187 137 122
-0.191406 -0.066406 -0.051643 108 62 56
-0.187500 -0.066406 -0.058160 184 131 111
-0.183594 -0.066406 -0.060832 222 173 152
-0.179688 -0.066406 -0.064832 219 173 149
-0.175781 -0.066406 -0.069382 214 179 160
-0.171875 -0.066406 -0.073251 120 85 80
-0.167969 -0.066406 -0.074762 23 17 20
-0.164062 -0.066406 -0.076504 19 17 22
-0.160156 -0.066406 -0.078744 21 19 24
-0.156250 -0.066406 -0.080160 18 16 21
-0.152344 -0.066406 -0.081221 24 21 27
-0.148438 -0.066406 -0.082182 21 19 25
-0.144531 -0.066406 -0.082867 20 17 24
-0.140625 -0.066406 -0.083674 20 17 24
-0.136719 -0.066406 -0.084192 19 16 24
-0.132812 -0.066406 -0.084547 19 17 24
-0.128906 -0.066406 -0.084867 20 18 25
-0.125000 -0.066406 -0.085154 20 18 25
-0.121094 -0.066406 -0.085001 20 18 25
-0.117188 -0.066406 -0.084481 21 19 26
-0.113281 -0.066406 -0.084091 21 19 26
-0.109375 -0.066406 -0.083619 21 19 26
-0.105469 -0.066406 -0.082838 21 20 26
-0.101562 -0.066406 -0.081741 21 20 27
-0.097656 -0.066406 -0.080638 20 20 26
-0.093750 -0.066406 -0.079383 20 20 26
-0.089844 -0.066406 -0.077948 21 21 27
-0.085938 -0.066406 -0.076329 21 20 26
-0.082031 -0.066406 -0.074610 21 20 26
-0.078125 -0.066406 -0.072760 21 20 26
-0.074219 -0.066406 -0.070809 20 19 25
-0.070312 -0.066406 -0.068815 20 20 25
-0.066406 -0.066406 -0.066894 20 20 25
-0.062500 -0.066406 -0.064469 19 19 25
-0.058594 -0.066406 -0.061663 20 19 25
-0.054688 -0.066406 -0.058227 17 16 21
-0.050781 -0.066406 -0.055025 7 6 10
-0.046875 -0.066406 -0.050934 1 1 3
-0.042969 -0.066406 -0.046430 10 11 1
-0.039062 -0.066406 -0.032853 1 1 3
-0.035156 -0.066406 -0.006254 4 5 11
-0.031250 -0.066406 -0.012381 10 11 20
-0.027344 -0.066406 -0.022053 16 16 25
-0.023438 -0.066406 -0.030937 20 20 27
-0.019531 -0.066406 -0.038446 18 18 23
-0.015625 -0.066406 -0.044174 20 19 24
-0.011719 -0.066406 -0.048159 19 19 24
-0.007812 -0.066406 -0.050782 18 18 24
-0.003906 -0.066406 -0.053197 20 20 26
0.000000 -0.066406 -0.055482 19 20 26
0.003906 -0.066406 -0.056999 19 19 25
0.007812 -0.066406 -0.058231 19 19 25
0.011719 -0.066406 -0.059468 19 19 25
0.015625 -0.066406 -0.060657 20 19 25
0.019531 -0.066406 -0.061507 21 20 26
0.023438 -0.066406 -0.062065 21 20 26
0.027344 -0.066406 -0.062667 21 19 26
0.031250 -0.066406 -0.063194 20 19 26
0.035156 -0.066406 -0.063551 20 19 25
0.039062 -0.066406 -0.063646 20 19 25
0.042969 -0.066406 -0.063795 21 20 26
0.046875 -0.066406 -0.063864 22 21 26
0.050781 -0.066406 -0.063590 21 20 26
0.054688 -0.066406 -0.063248 21 21 26
0.058594 -0.066406 -0.062810 21 21 27
0.062500 -0.066406 -0.062250 21 21 27
0.066406 -0.066406 -0.061674 23 22 28
0.070312 -0.066406 -0.060691 23 22 26
0.074219 -0.066406 -0.059340 25 23 26
0.078125 -0.066406 -0.057599 26 23 25
0.082031 -0.066406 -0.055563 36 26 27
0.085938 -0.066406 -0.053167 105 70 56
0.089844 -0.066406 -0.050922 180 124 99
0.093750 -0.066406 -0.048061 182 113 93
0.097656 -0.066406 -0.043926 187 122 97
0.101562 -0.066406 -0.040017 174 115 97
0.105469 -0.066406 -0.036080 73 44 41
0.109375 -0.066406 -0.029212 46 31 28
0.113281 -0.066406 -0.023050 140 98 88
0.117188 -0.066406 -0.015300 204 154 139
0.121094 -0.066406 0.002268 212 157 138
0.125000 -0.066406 0.030804 206 148 130
0.128906 -0.066406 0.034296 189 131 112
0.132812 -0.066406 0.031148 173 114 98
0.136719 -0.066406 0.030084 163 102 90
0.140625 -0.066406 0.030665 179 116 101
0.144531 -0.066406 0.034734 168 104 82
0.148438 -0.066406 0.044910 117 67 50
-0.230469 -0.070312 0.069991 132 98 83
-0.226562 -0.070312 0.063725 162 110 89
-0.222656 -0.070312 0.061866 185 132 104
-0.218750 -0.070312 0.061971 198 143 118
-0.214844 -0.070312 0.069418 197 139 118
-0.210938 -0.070312 0.077914 204 148 127
-0.207031 -0.070312 0.089372 222 177 158
-0.203125 -0.070312 0.103937 216 178 159
-0.199219 -0.070312 0.031611 225 199 178
-0.195312 -0.070312 -0.039029 186 139 124
-0.191406 -0.070312 -0.051326 64 36 35
-0.187500 -0.070312 -0.057004 146 96 83
-0.183594 -0.070312 -0.060453 220 171 152
-0.179688 -0.070312 -0.064052 218 168 145
-0.175781 -0.070312 -0.068285 220 179 159
-0.171875 -0.070312 -0.072483 143 98 91
-0.167969 -0.070312 -0.073728 25 19 23
-0.164062 -0.070312 -0.075526 19 16 21
-0.160156 -0.070312 -0.077707 23 19 25
-0.156250 -0.070312 -0.079145 19 16 21
-0.152344 -0.070312 -0.080329 23 20 26
-0.148438 -0.070312 -0.081304 22 19 25
-0.144531 -0.070312 -0.082043 19 17 23
-0.140625 -0.070312 -0.082913 19 17 24
-0.136719 -0.070312 -0.083471 19 17 24
-0.132812 -0.070312 -0.083862 20 18 25
-0.128906 -0.070312 -0.084212 20 18 25
-0.125000 -0.070312 -0.084537 20 18 25
-0.121094 -0.070312 -0.084434 20 18 25
-0.117188 -0.070312 -0.083970 20 18 26
-0.113281 -0.070312 -0.083630 21 20 27
-0.109375 -0.070312 -0.083203 21 20 27
-0.105469 -0.070312 -0.082455 21 20 27
-0.101562 -0.070312 -0.081373 21 20 27
-0.097656 -0.070312 -0.080295 20 19 26
-0.093750 -0.070312 -0.079072 20 20 26
-0.089844 -0.070312 -0.077650 21 20 27
-0.085938 -0.070312 -0.076030 20 20 26
-0.082031 -0.070312 -0.074317 20 19 26
-0.078125 -0.070312 -0.072466 21 20 26
-0.074219 -0.070312 -0.070572 19 18 24
-0.070312 -0.070312 -0.068626 20 19 25
-0.066406 -0.070312 -0.066746 19 19 24
-0.062500 -0.070312 -0.064391 19 19 24
-0.058594 -0.070312 -0.061553 19 19 24
-0.054688 -0.070312 -0.058007 16 14 20
-0.050781 -0.070312 -0.054597 7 5 9
-0.046875 -0.070312 -0.050577 1 1 2
-0.042969 -0.070312 -0.046084 8 9 1
-0.039062 -0.070312 -0.031333 1 1 2
-0.035156 -0.070312 -0.004242 3 3 8
-0.031250 -0.070312 -0.010991 8 9 16
-0.027344 -0.070312 -0.020404 15 15 23
-0.023438 -0.070312 -0.029291 20 20 27
-0.019531 -0.070312 -0.036905 19 18 24
-0.015625 -0.070312 -0.042649 19 19 24
-0.011719 -0.070312 -0.046676 19 19 24
-0.007812 -0.070312 -0.049332 18 18 24
-0.003906 -0.070312 -0.051807 19 20 25
0.000000 -0.070312 -0.054201 19 19 25
0.003906 -0.070312 -0.055830 19 19 25
0.007812 -0.070312 -0.057153 20 20 26
0.011719 -0.070312 -0.058490 19 19 25
0.015625 -0.070312 -0.059722 19 19 25
0.019531 -0.070312 -0.060605 20 19 25
0.023438 -0.070312 -0.061188 20 19 25
0.027344 -0.070312 -0.061795 20 19 25
0.031250 -0.070312 -0.062324 20 18 25
0.035156 -0.070312 -0.062672 20 19 25
0.039062 -0.070312 -0.062739 20 19 25
0.042969 -0.070312 -0.062863 21 20 26
0.046875 -0.070312 -0.062908 22 21 26
0.050781 -0.070312 -0.062590 22 20 26
0.054688 -0.070312 -0.062191 22 21 27
0.058594 -0.070312 -0.061695 22 21 27
0.062500 -0.070312 -0.061072 22 21 27
0.066406 -0.070312 -0.060475 23 22 28
0.070312 -0.070312 -0.059542 23 22 26
0.074219 -0.070312 -0.058158 24 23 25
0.078125 -0.070312 -0.056348 24 21 24
0.082031 -0.070312 -0.054365 38 28 30
0.085938 -0.070312 -0.051908 114 77 64
0.089844 -0.070312 -0.049430 176 118 95
0.093750 -0.070312 -0.046409 184 114 93
0.097656 -0.070312 -0.042252 191 127 101
0.101562 -0.070312 -0.038390 165 107 90
0.105469 -0.070312 -0.034213 69 40 37
0.109375 -0.070312 -0.026779 46 31 27
0.113281 -0.070312 -0.020521 140 96 86
0.117188 -0.070312 -0.012622 206 155 139
0.121094 -0.070312 0.008715 213 159 140
0.125000 -0.070312 0.033947 207 149 130
0.128906 -0.070312 0.034684 181 121 103
0.132812 -0.070312 0.031067 153 97 83
0.136719 -0.070312 0.029652 162 104 93
0.140625 -0.070312 0.030685 190 130 114
0.144531 -0.070312 0.033466 141 83 63
0.148438 -0.070312 0.043150 99 64 44
-0.230469 -0.074219 0.067302 118 83 72
-0.226562 -0.074219 0.061724 168 114 94
-0.222656 -0.074219 0.061140 181 126 101
-0.218750 -0.074219 0.062142 187 130 107
-0.214844 -0.074219 0.070090 194 138 117
-0.210938 -0.074219 0.079530 201 146 126
-0.207031 -0.074219 0.093521 223 178 159
-0.203125 -0.074219 0.108896 219 180 161
-0.199219 -0.074219 0.064712 225 199 177
-0.195312 -0.074219 -0.041502 183 139 124
-0.191406 -0.074219 -0.048299 43 26 26
-0.187500 -0.074219 -0.053624 108 68 61
-0.183594 -0.074219 -0.060303 213 162 146
-0.179688 -0.074219 -0.063785 215 158 137
-0.175781 -0.074219 -0.067570 221 173 153
-0.171875 -0.074219 -0.071640 172 119 109
-0.167969 -0.074219 -0.073031 36 26 30
-0.164062 -0.074219 -0.074653 19 15 21
-0.160156 -0.074219 -0.076574 22 17 24
-0.156250 -0.074219 -0.078132 18 15 21
-0.152344 -0.074219 -0.079510 21 18 24
-0.148438 -0.074219 -0.080518 20 18 24
-0.144531 -0.074219 -0.081319 19 16 23
-0.140625 -0.074219 -0.082258 19 16 23
-0.136719 -0.074219 -0.082871 19 17 24
-0.132812 -0.074219 -0.083304 20 18 25
-0.128906 -0.074219 -0.083686 20 18 25
-0.125000 -0.074219 -0.084051 20 18 25
-0.121094 -0.074219 -0.084001 20 19 26
-0.117188 -0.074219 -0.083585 21 19 26
-0.113281 -0.074219 -0.083287 22 20 27
-0.109375 -0.074219 -0.082897 21 20 27
-0.105469 -0.074219 -0.082176 21 20 27
-0.101562 -0.074219 -0.081104 21 20 27
-0.097656 -0.074219 -0.080050 20 19 26
-0.093750 -0.074219 -0.078864 20 19 26
-0.089844 -0.074219 -0.077442 21 20 26
-0.085938 -0.074219 -0.075805 20 19 25
-0.082031 -0.074219 -0.074086 20 19 25
-0.078125 -0.074219 -0.072224 20 19 25
-0.074219 -0.074219 -0.070371 19 18 24
-0.070312 -0.074219 -0.068475 19 19 24
-0.066406 -0.074219 -0.066644 18 18 23
-0.062500 -0.074219 -0.064389 19 18 24
-0.058594 -0.074219 -0.061571 19 18 23
-0.054688 -0.074219 -0.057921 15 14 19
-0.050781 -0.074219 -0.054187 6 5 9
-0.046875 -0.074219 -0.050122 1 1 2
-0.042969 -0.074219 -0.045292 7 6 1
-0.039062 -0.074219 -0.030022 1 1 1
-0.035156 -0.074219 -0.002883 2 2 5
-0.031250 -0.074219 -0.009919 7 6 12
-0.027344 -0.074219 -0.019024 14 14 21
-0.023438 -0.074219 -0.027890 20 20 26
-0.019531 -0.074219 -0.035552 19 18 24
-0.015625 -0.074219 -0.041293 19 18 24
-0.011719 -0.074219 -0.045339 18 18 24
-0.007812 -0.074219 -0.048045 18 18 24
-0.003906 -0.074219 -0.050585 18 19 24
0.000000 -0.074219 -0.053075 18 18 24
0.003906 -0.074219 -0.054807 18 19 24
0.007812 -0.074219 -0.056206 19 19 25
0.011719 -0.074219 -0.057613 19 19 25
0.015625 -0.074219 -0.058892 18 18 25
0.019531 -0.074219 -0.059817 19 18 25
0.023438 -0.074219 -0.060423 19 18 24
0.027344 -0.074219 -0.061039 19 18 24
0.031250 -0.074219 -0.061573 19 18 24
0.035156 -0.074219 -0.061907 19 18 24
0.039062 -0.074219 -0.061948 20 18 24
0.042969 -0.074219 -0.062048 20 19 25
0.046875 -0.074219 -0.062070 21 20 25
0.050781 -0.074219 -0.061716 21 20 25
0.054688 -0.074219 -0.061262 22 21 26
0.058594 -0.074219 -0.060703 22 21 27
0.062500 -0.074219 -0.060012 22 22 28
0.066406 -0.074219 -0.059387 23 23 29
0.070312 -0.074219 -0.058529 23 23 27
0.074219 -0.074219 -0.057154 25 23 25
0.078125 -0.074219 -0.055263 26 22 24
0.082031 -0.074219 -0.053241 55 39 42
0.085938 -0.074219 -0.050787 156 113 98
0.089844 -0.074219 -0.048162 186 130 106
0.093750 -0.074219 -0.044593 183 115 98
0.097656 -0.074219 -0.040158 191 131 109
0.101562 -0.074219 -0.036850 152 96 82
0.105469 -0.074219 -0.031815 60 35 32
0.109375 -0.074219 -0.024213 45 29 26
0.113281 -0.074219 -0.017571 140 94 84
0.117188 -0.074219 -0.009339 207 155 139
0.121094 -0.074219 0.017094 214 160 140
0.125000 -0.074219 0.036244 207 149 131
0.128906 -0.074219 0.034972 173 115 98
0.132812 -0.074219 0.031296 149 98 84
0.136719 -0.074219 0.029925 177 124 108
0.140625 -0.074219 0.031096 192 133 110
0.144531 -0.074219 0.034017 111 59 44
0.148438 -0.074219 0.042974 135 76 64
-0.230469 -0.078125 0.066150 86 53 47
-0.226562 -0.078125 0.059605 172 113 92
-0.222656 -0.078125 0.060758 179 122 97
-0.218750 -0.078125 0.061814 173 113 92
-0.214844 -0.078125 0.070260 195 139 119
-0.210938 -0.078125 0.081057 201 147 127
-0.207031 -0.078125 0.096043 221 174 154
-0.203125 -0.078125 0.110566 219 180 159
-0.199219 -0.078125 0.085581 221 193 171
-0.195312 -0.078125 -0.042505 182 138 124
-0.191406 -0.078125 -0.044653 41 26 26
-0.187500 -0.078125 -0.052806 85 55 50
-0.183594 -0.078125 -0.059089 205 152 137
-0.179688 -0.078125 -0.063512 209 146 126
-0.175781 -0.078125 -0.066723 219 159 138
-0.171875 -0.078125 -0.070689 194 137 124
-0.167969 -0.078125 -0.071881 59 40 46
-0.164062 -0.078125 -0.073649 22 17 24
-0.160156 -0.078125 -0.075450 23 17 24
-0.156250 -0.078125 -0.077142 19 15 22
-0.152344 -0.078125 -0.078692 21 18 24
-0.148438 -0.078125 -0.079748 21 18 24
-0.144531 -0.078125 -0.080647 19 16 23
-0.140625 -0.078125 -0.081686 19 17 24
-0.136719 -0.078125 -0.082356 19 17 24
-0.132812 -0.078125 -0.082836 19 17 25
-0.128906 -0.078125 -0.083262 19 17 25
-0.125000 -0.078125 -0.083666 20 18 25
-0.121094 -0.078125 -0.083667 20 18 25
-0.117188 -0.078125 -0.083300 20 19 26
-0.113281 -0.078125 -0.083042 21 19 26
-0.109375 -0.078125 -0.082691 21 20 26
-0.105469 -0.078125 -0.081998 21 20 26
-0.101562 -0.078125 -0.080941 21 20 26
-0.097656 -0.078125 -0.079913 20 19 25
-0.093750 -0.078125 -0.078760 20 19 25
-0.089844 -0.078125 -0.077342 20 20 26
-0.085938 -0.078125 -0.075695 20 19 25
-0.082031 -0.078125 -0.073966 20 19 25
-0.078125 -0.078125 -0.072078 21 19 25
-0.074219 -0.078125 -0.070243 19 18 24
-0.070312 -0.078125 -0.068378 20 19 25
-0.066406 -0.078125 -0.066580 18 18 23
-0.062500 -0.078125 -0.064374 19 18 24
-0.058594 -0.078125 -0.061514 18 18 23
-0.054688 -0.078125 -0.057730 14 14 19
-0.050781 -0.078125 -0.053633 7 5 9
-0.046875 -0.078125 -0.049844 1 1 2
-0.042969 -0.078125 -0.044801 6 5 1
-0.039062 -0.078125 -0.027680 1 1 1
-0.035156 -0.078125 -0.000751 2 1 3
-0.031250 -0.078125 -0.008802 6 5 10
-0.027344 -0.078125 -0.017723 14 13 20
-0.023438 -0.078125 -0.026620 21 20 26
-0.019531 -0.078125 -0.034338 20 20 25
-0.015625 -0.078125 -0.040030 19 19 24
-0.011719 -0.078125 -0.044073 18 18 24
-0.007812 -0.078125 -0.046818 18 18 24
-0.003906 -0.078125 -0.049436 18 19 24
0.000000 -0.078125 -0.052023 17 18 24
0.003906 -0.078125 -0.053846 17 18 24
0.007812 -0.078125 -0.055316 18 19 24
0.011719 -0.078125 -0.056798 18 18 24
0.015625 -0.078125 -0.058137 18 18 24
0.019531 -0.078125 -0.059104 18 18 24
0.023438 -0.078125 -0.059737 18 18 24
0.027344 -0.078125 -0.060371 18 17 24
0.031250 -0.078125 -0.060912 19 18 24
0.035156 -0.078125 -0.061235 19 18 24
0.039062 -0.078125 -0.061254 20 18 24
0.042969 -0.078125 -0.061329 20 19 24
0.046875 -0.078125 -0.061327 21 20 25
0.050781 -0.078125 -0.060937 21 20 25
0.054688 -0.078125 -0.060424 22 21 27
0.058594 -0.078125 -0.059807 22 21 28
0.062500 -0.078125 -0.059050 22 22 28
0.066406 -0.078125 -0.058367 23 23 29
0.070312 -0.078125 -0.057561 22 22 26
0.074219 -0.078125 -0.056131 23 22 24
0.078125 -0.078125 -0.054129 25 22 25
0.082031 -0.078125 -0.052046 84 60 65
0.085938 -0.078125 -0.049620 215 181 158
0.089844 -0.078125 -0.047050 218 177 145
0.093750 -0.078125 -0.043177 196 135 118
0.097656 -0.078125 -0.038579 193 139 124
0.101562 -0.078125 -0.035142 123 77 69
0.105469 -0.078125 -0.029072 44 26 25
0.109375 -0.078125 -0.021524 47 30 27
0.113281 -0.078125 -0.014076 148 100 91
0.117188 -0.078125 -0.004080 209 157 142
0.121094 -0.078125 0.025701 214 161 140
0.125000 -0.078125 0.037018 203 146 127
0.128906 -0.078125 0.035244 163 107 91
0.132812 -0.078125 0.031275 157 110 93
0.136719 -0.078125 0.030080 186 139 116
0.140625 -0.078125 0.031182 170 106 81
0.144531 -0.078125 0.034954 102 44 35
0.148438 -0.078125 0.043299 117 67 50
-0.234375 -0.082031 0.077363 183 123 98
-0.230469 -0.082031 0.059811 67 39 35
-0.226562 -0.082031 0.059636 166 104 84
-0.222656 -0.082031 0.059730 183 123 98
-0.218750 -0.082031 0.059950 163 102 82
-0.214844 -0.082031 0.069923 198 141 120
-0.210938 -0.082031 0.082968 202 146 126
-0.207031 -0.082031 0.097831 217 163 144
-0.203125 -0.082031 0.110034 218 175 154
-0.199219 -0.082031 0.098313 217 185 163
-0.195312 -0.082031 -0.038532 182 140 126
-0.191406 -0.082031 -0.041075 49 33 32
-0.187500 -0.082031 -0.053925 75 50 47
-0.183594 -0.082031 -0.056758 193 138 125
