ply
    format ascii 1.0
    element vertex 70512
    property float x
    property float y
    property float z
    property uchar red
    property uchar green
    property uchar blue
    end_header
0.066406 0.269531 -0.100027 145 145 171
0.070312 0.269531 -0.098832 145 146 167
0.074219 0.269531 -0.097417 148 147 165
0.078125 0.269531 -0.095806 149 148 162
0.082031 0.269531 -0.094025 151 150 158
0.085938 0.269531 -0.092114 151 150 155
0.089844 0.269531 -0.090209 147 145 146
0.093750 0.269531 -0.088195 148 144 141
0.097656 0.269531 -0.086032 146 143 138
0.101562 0.269531 -0.083664 149 145 136
0.105469 0.269531 -0.081155 156 152 143
0.109375 0.269531 -0.078589 162 158 147
0.113281 0.269531 -0.075336 160 153 143
0.117188 0.269531 -0.071428 151 145 133
0.121094 0.269531 -0.066721 148 148 136
0.125000 0.269531 -0.061380 152 152 142
0.128906 0.269531 -0.056002 149 149 141
0.132812 0.269531 -0.050872 148 149 143
0.136719 0.269531 -0.045239 154 154 152
0.140625 0.269531 -0.059232 150 151 153
0.144531 0.269531 -0.068286 152 153 157
0.148438 0.269531 -0.074407 166 167 172
0.152344 0.269531 -0.076812 161 162 166
0.156250 0.269531 -0.079258 151 151 156
0.160156 0.269531 -0.080671 177 178 181
0.164062 0.269531 -0.080914 153 152 155
0.167969 0.269531 -0.081113 182 182 181
0.171875 0.269531 -0.081106 219 218 216
0.175781 0.269531 -0.080452 229 226 222
0.179688 0.269531 -0.078962 230 229 225
0.183594 0.269531 -0.077385 226 225 226
0.187500 0.269531 -0.075392 219 219 219
0.191406 0.269531 -0.072780 212 212 212
0.195312 0.269531 -0.068870 207 207 207
0.199219 0.269531 -0.064892 205 205 205
0.203125 0.269531 -0.060136 202 202 202
0.207031 0.269531 -0.055088 202 201 201
0.210938 0.269531 -0.047908 199 194 196
-0.230469 0.265625 -0.020546 120 116 107
-0.226562 0.265625 -0.031247 169 149 124
-0.222656 0.265625 -0.037059 175 139 106
-0.218750 0.265625 -0.040895 179 135 101
-0.214844 0.265625 -0.043365 196 150 113
-0.210938 0.265625 -0.045131 204 156 118
-0.207031 0.265625 -0.046206 208 159 122
-0.203125 0.265625 -0.046477 215 166 130
-0.199219 0.265625 -0.045546 217 168 133
-0.195312 0.265625 -0.043510 221 174 141
-0.191406 0.265625 -0.041195 224 178 146
-0.187500 0.265625 -0.038435 224 179 150
-0.183594 0.265625 -0.034689 222 178 150
-0.179688 0.265625 -0.030067 214 169 144
-0.175781 0.265625 -0.025004 206 171 143
-0.171875 0.265625 -0.018804 190 159 133
-0.167969 0.265625 -0.010075 149 123 118
-0.164062 0.265625 0.002756 162 159 159
-0.125000 0.265625 -0.002567 135 142 138
-0.121094 0.265625 -0.010464 140 146 140
-0.117188 0.265625 -0.017923 137 142 136
-0.113281 0.265625 -0.024039 141 144 136
-0.109375 0.265625 -0.029199 148 150 140
-0.105469 0.265625 -0.034087 151 153 142
-0.101562 0.265625 -0.038738 149 149 138
-0.097656 0.265625 -0.043005 155 155 143
-0.093750 0.265625 -0.046913 153 153 141
-0.089844 0.265625 -0.050228 155 155 145
-0.085938 0.265625 -0.053039 158 160 149
-0.082031 0.265625 -0.055857 157 160 151
-0.078125 0.265625 -0.058549 155 158 151
-0.074219 0.265625 -0.060628 156 161 154
-0.070312 0.265625 -0.062191 162 167 161
-0.066406 0.265625 -0.063804 153 147 157
-0.062500 0.265625 -0.065589 148 143 150
-0.058594 0.265625 -0.067286 146 141 148
-0.054688 0.265625 -0.069023 147 142 148
-0.050781 0.265625 -0.070885 147 142 146
-0.046875 0.265625 -0.072770 146 142 141
-0.042969 0.265625 -0.074601 148 144 141
-0.039062 0.265625 -0.076438 153 149 146
-0.035156 0.265625 -0.078206 151 148 143
-0.031250 0.265625 -0.079869 150 147 142
-0.027344 0.265625 -0.081741 149 146 141
-0.023438 0.265625 -0.083693 149 145 142
-0.019531 0.265625 -0.085547 151 147 144
-0.015625 0.265625 -0.087232 153 149 148
-0.011719 0.265625 -0.088636 156 152 151
-0.007812 0.265625 -0.089776 158 154 153
-0.003906 0.265625 -0.090827 149 148 154
0.000000 0.265625 -0.091807 148 147 155
0.003906 0.265625 -0.092668 149 146 155
0.007812 0.265625 -0.093469 149 146 157
0.011719 0.265625 -0.094199 151 145 157
0.015625 0.265625 -0.094949 152 146 156
0.019531 0.265625 -0.095619 154 148 152
0.023438 0.265625 -0.096334 155 149 149
0.027344 0.265625 -0.096903 152 149 144
0.031250 0.265625 -0.097397 151 148 141
0.035156 0.265625 -0.098046 144 143 138
0.039062 0.265625 -0.098716 139 139 137
0.042969 0.265625 -0.099379 142 143 148
0.046875 0.265625 -0.099910 149 151 166
0.050781 0.265625 -0.100418 153 155 178
0.054688 0.265625 -0.100813 153 154 182
0.058594 0.265625 -0.101036 159 156 187
0.062500 0.265625 -0.101053 157 154 183
0.066406 0.265625 -0.100498 154 151 178
0.070312 0.265625 -0.099436 152 150 172
0.074219 0.265625 -0.098167 151 150 168
0.078125 0.265625 -0.096714 154 152 165
0.082031 0.265625 -0.095096 157 156 164
0.085938 0.265625 -0.093341 159 157 160
0.089844 0.265625 -0.091585 153 152 150
0.093750 0.265625 -0.089708 153 149 146
0.097656 0.265625 -0.087652 151 148 141
0.101562 0.265625 -0.085355 154 150 141
0.105469 0.265625 -0.082942 161 157 148
0.109375 0.265625 -0.080441 166 162 151
0.113281 0.265625 -0.077172 160 156 145
0.117188 0.265625 -0.073327 149 145 134
0.121094 0.265625 -0.068686 139 139 127
0.125000 0.265625 -0.063241 148 148 138
0.128906 0.265625 -0.057465 151 151 143
0.132812 0.265625 -0.051898 154 155 150
0.136719 0.265625 -0.045921 159 161 158
0.140625 0.265625 -0.049187 153 157 158
0.144531 0.265625 -0.062764 152 155 160
0.148438 0.265625 -0.071050 163 168 174
0.152344 0.265625 -0.075079 169 174 180
0.156250 0.265625 -0.077395 153 156 163
0.160156 0.265625 -0.079270 176 178 183
0.164062 0.265625 -0.079568 163 164 167
0.167969 0.265625 -0.079762 169 169 170
0.171875 0.265625 -0.079813 211 211 210
0.175781 0.265625 -0.079115 222 221 218
0.179688 0.265625 -0.077569 228 228 224
0.183594 0.265625 -0.075960 225 225 225
0.187500 0.265625 -0.073970 219 219 219
0.191406 0.265625 -0.071393 213 213 213
0.195312 0.265625 -0.067538 209 209 209
0.199219 0.265625 -0.063658 207 207 207
0.203125 0.265625 -0.059002 205 205 205
0.207031 0.265625 -0.053906 205 204 204
0.210938 0.265625 -0.047091 196 190 192
-0.230469 0.261719 -0.017191 115 110 107
-0.226562 0.261719 -0.028049 164 144 122
-0.222656 0.261719 -0.034143 175 139 107
-0.218750 0.261719 -0.038102 179 136 103
-0.214844 0.261719 -0.040630 195 150 113
-0.210938 0.261719 -0.042476 202 156 118
-0.207031 0.261719 -0.043637 207 159 121
-0.203125 0.261719 -0.043964 214 166 129
-0.199219 0.261719 -0.043022 216 168 132
-0.195312 0.261719 -0.040948 220 174 140
-0.191406 0.261719 -0.038594 224 178 146
-0.187500 0.261719 -0.035796 224 181 151
-0.183594 0.261719 -0.031962 223 180 151
-0.179688 0.261719 -0.027273 217 173 146
-0.175781 0.261719 -0.022183 211 175 147
-0.171875 0.261719 -0.016097 197 164 137
-0.167969 0.261719 -0.007209 158 133 121
-0.164062 0.261719 0.005134 157 153 151
-0.128906 0.261719 0.006418 118 128 144
-0.125000 0.261719 -0.004291 133 141 141
-0.121094 0.261719 -0.011292 137 145 144
-0.117188 0.261719 -0.018589 135 141 139
-0.113281 0.261719 -0.024591 135 140 136
-0.109375 0.261719 -0.029650 144 145 141
-0.105469 0.261719 -0.034494 150 151 145
-0.101562 0.261719 -0.039024 153 153 145
-0.097656 0.261719 -0.043200 152 152 144
-0.093750 0.261719 -0.047056 151 151 143
-0.089844 0.261719 -0.050373 153 153 145
-0.085938 0.261719 -0.053226 155 154 149
-0.082031 0.261719 -0.056089 155 156 150
-0.078125 0.261719 -0.058831 156 157 152
-0.074219 0.261719 -0.060968 158 160 155
-0.070312 0.261719 -0.062631 163 165 160
-0.066406 0.261719 -0.064302 157 150 157
-0.062500 0.261719 -0.066109 152 146 150
-0.058594 0.261719 -0.067844 149 143 147
-0.054688 0.261719 -0.069596 149 143 143
-0.050781 0.261719 -0.071461 149 144 141
-0.046875 0.261719 -0.073341 149 144 140
-0.042969 0.261719 -0.075151 152 147 141
-0.039062 0.261719 -0.076959 157 152 146
-0.035156 0.261719 -0.078689 153 148 142
-0.031250 0.261719 -0.080312 152 147 141
-0.027344 0.261719 -0.082133 151 146 140
-0.023438 0.261719 -0.084032 151 146 142
-0.019531 0.261719 -0.085850 151 146 143
-0.015625 0.261719 -0.087516 152 146 146
-0.011719 0.261719 -0.088910 154 148 148
-0.007812 0.261719 -0.090043 155 149 151
-0.003906 0.261719 -0.091093 144 145 147
0.000000 0.261719 -0.092074 145 146 150
0.003906 0.261719 -0.092924 147 146 152
0.007812 0.261719 -0.093708 147 145 156
0.011719 0.261719 -0.094414 149 145 159
0.015625 0.261719 -0.095133 148 145 156
0.019531 0.261719 -0.095766 149 143 153
0.023438 0.261719 -0.096436 149 144 150
0.027344 0.261719 -0.096974 145 143 144
0.031250 0.261719 -0.097434 143 142 138
0.035156 0.261719 -0.098080 136 136 134
0.039062 0.261719 -0.098763 131 133 132
0.042969 0.261719 -0.099441 134 137 142
0.046875 0.261719 -0.100014 145 149 161
0.050781 0.261719 -0.100569 151 156 175
0.054688 0.261719 -0.101035 153 158 180
0.058594 0.261719 -0.101333 164 159 191
0.062500 0.261719 -0.101428 160 155 185
0.066406 0.261719 -0.100976 155 151 176
0.070312 0.261719 -0.100036 151 148 169
0.074219 0.261719 -0.098900 151 148 165
0.078125 0.261719 -0.097585 156 153 164
0.082031 0.261719 -0.096110 161 158 165
0.085938 0.261719 -0.094509 165 163 166
0.089844 0.261719 -0.092891 157 156 154
0.093750 0.261719 -0.091132 158 155 150
0.097656 0.261719 -0.089176 156 153 146
0.101562 0.261719 -0.086947 156 153 144
0.105469 0.261719 -0.084621 161 158 149
0.109375 0.261719 -0.082219 165 161 152
0.113281 0.261719 -0.078955 158 154 145
0.117188 0.261719 -0.075095 148 144 135
0.121094 0.261719 -0.070672 143 143 131
0.125000 0.261719 -0.065106 150 150 138
0.128906 0.261719 -0.059141 152 153 145
0.132812 0.261719 -0.053135 156 158 153
0.136719 0.261719 -0.046970 161 165 164
0.140625 0.261719 -0.038677 156 161 164
0.144531 0.261719 -0.054811 155 160 166
0.148438 0.261719 -0.066967 164 171 179
0.152344 0.261719 -0.072831 167 174 182
0.156250 0.261719 -0.074959 165 172 180
0.160156 0.261719 -0.077465 159 164 169
0.164062 0.261719 -0.077954 180 182 187
0.167969 0.261719 -0.078246 161 161 164
0.171875 0.261719 -0.078380 201 202 202
0.175781 0.261719 -0.077654 221 221 218
0.179688 0.261719 -0.076066 226 226 223
0.183594 0.261719 -0.074439 225 225 225
0.187500 0.261719 -0.072465 220 220 220
0.191406 0.261719 -0.069919 215 215 215
0.195312 0.261719 -0.066133 212 211 211
0.199219 0.261719 -0.062341 211 211 211
0.203125 0.261719 -0.057797 210 210 210
0.207031 0.261719 -0.052688 213 211 211
0.210938 0.261719 -0.046621 207 200 202
-0.230469 0.257812 -0.013904 105 101 104
-0.226562 0.257812 -0.024726 160 142 127
-0.222656 0.257812 -0.030978 173 139 111
-0.218750 0.257812 -0.035021 177 137 104
-0.214844 0.257812 -0.037672 193 150 113
-0.210938 0.257812 -0.039642 200 156 118
-0.207031 0.257812 -0.040911 205 158 120
-0.203125 0.257812 -0.041297 212 165 128
-0.199219 0.257812 -0.040355 216 168 132
-0.195312 0.257812 -0.038210 220 174 140
-0.191406 0.257812 -0.035779 223 178 146
-0.187500 0.257812 -0.032899 224 182 151
-0.183594 0.257812 -0.028997 224 181 152
-0.179688 0.257812 -0.024289 219 176 148
-0.175781 0.257812 -0.019166 214 178 150
-0.171875 0.257812 -0.013314 202 168 141
-0.167969 0.257812 -0.004443 168 144 126
-0.164062 0.257812 0.008132 169 163 154
-0.128906 0.257812 0.004321 120 128 136
-0.125000 0.257812 -0.004985 130 140 146
-0.121094 0.257812 -0.012119 131 142 146
-0.117188 0.257812 -0.019368 132 139 142
-0.113281 0.257812 -0.025288 132 137 139
-0.109375 0.257812 -0.030309 138 142 141
-0.105469 0.257812 -0.035062 148 150 147
-0.101562 0.257812 -0.039459 154 154 152
-0.097656 0.257812 -0.043539 153 152 148
-0.093750 0.257812 -0.047332 151 150 146
-0.089844 0.257812 -0.050641 148 147 143
-0.085938 0.257812 -0.053532 148 147 143
-0.082031 0.257812 -0.056434 148 147 145
-0.078125 0.257812 -0.059219 148 148 146
-0.074219 0.257812 -0.061402 150 150 150
-0.070312 0.257812 -0.063140 152 152 152
-0.066406 0.257812 -0.064875 161 152 155
-0.062500 0.257812 -0.066709 157 148 149
-0.058594 0.257812 -0.068476 155 146 147
-0.054688 0.257812 -0.070255 157 149 147
-0.050781 0.257812 -0.072108 157 150 144
-0.046875 0.257812 -0.073975 155 148 140
-0.042969 0.257812 -0.075762 157 150 142
-0.039062 0.257812 -0.077537 161 154 144
-0.035156 0.257812 -0.079228 156 149 139
-0.031250 0.257812 -0.080813 157 150 142
-0.027344 0.257812 -0.082581 158 151 145
-0.023438 0.257812 -0.084433 158 150 147
-0.019531 0.257812 -0.086204 159 151 149
-0.015625 0.257812 -0.087830 160 151 152
-0.011719 0.257812 -0.089195 160 151 154
-0.007812 0.257812 -0.090303 161 152 155
-0.003906 0.257812 -0.091336 150 155 151
0.000000 0.257812 -0.092304 150 154 153
0.003906 0.257812 -0.093143 153 154 158
0.007812 0.257812 -0.093917 152 152 162
0.011719 0.257812 -0.094609 152 150 164
0.015625 0.257812 -0.095310 149 147 161
0.019531 0.257812 -0.095928 148 144 158
0.023438 0.257812 -0.096575 147 144 155
0.027344 0.257812 -0.097106 146 145 151
0.031250 0.257812 -0.097555 147 147 149
0.035156 0.257812 -0.098215 144 146 145
0.039062 0.257812 -0.098924 139 143 144
0.042969 0.257812 -0.099621 142 147 151
0.046875 0.257812 -0.100223 146 153 163
0.050781 0.257812 -0.100806 147 155 168
0.054688 0.257812 -0.101318 145 152 170
0.058594 0.257812 -0.101666 156 149 180
0.062500 0.257812 -0.101819 153 147 175
0.066406 0.257812 -0.101450 147 141 167
0.070312 0.257812 -0.100614 144 139 161
0.074219 0.257812 -0.099589 146 142 157
0.078125 0.257812 -0.098386 151 148 159
0.082031 0.257812 -0.097044 158 156 161
0.085938 0.257812 -0.095579 163 161 162
0.089844 0.257812 -0.094072 156 155 151
0.093750 0.257812 -0.092422 159 156 151
0.097656 0.257812 -0.090572 157 154 147
0.101562 0.257812 -0.088426 154 151 142
0.105469 0.257812 -0.086186 156 153 144
0.109375 0.257812 -0.083845 158 155 146
0.113281 0.257812 -0.080634 153 150 141
0.117188 0.257812 -0.076817 146 143 134
0.121094 0.257812 -0.072584 154 154 142
0.125000 0.257812 -0.067107 155 155 143
0.128906 0.257812 -0.060987 150 151 143
0.132812 0.257812 -0.054846 150 152 147
0.136719 0.257812 -0.047910 157 161 160
0.140625 0.257812 -0.037800 154 162 165
0.144531 0.257812 -0.043177 154 161 167
0.148438 0.257812 -0.061480 164 173 182
0.152344 0.257812 -0.069281 155 164 173
0.156250 0.257812 -0.072181 170 179 188
0.160156 0.257812 -0.075222 148 155 163
0.164062 0.257812 -0.076105 184 188 192
0.167969 0.257812 -0.076488 158 160 163
0.171875 0.257812 -0.076706 188 188 190
0.175781 0.257812 -0.075965 214 214 214
0.179688 0.257812 -0.074356 222 222 219
0.183594 0.257812 -0.072717 224 224 224
0.187500 0.257812 -0.070755 219 219 219
0.191406 0.257812 -0.068248 214 214 214
0.195312 0.257812 -0.064544 212 212 212
0.199219 0.257812 -0.060835 213 213 213
0.203125 0.257812 -0.056405 215 215 215
0.207031 0.257812 -0.051391 222 220 221
0.210938 0.257812 -0.045606 230 223 224
0.214844 0.257812 -0.030080 194 176 178
-0.230469 0.253906 -0.010332 74 70 85
-0.226562 0.253906 -0.021341 158 144 136
-0.222656 0.253906 -0.027525 173 143 115
-0.218750 0.253906 -0.031662 174 137 104
-0.214844 0.253906 -0.034479 190 149 113
-0.210938 0.253906 -0.036566 197 155 117
-0.207031 0.253906 -0.037907 203 157 120
-0.203125 0.253906 -0.038362 211 165 128
-0.199219 0.253906 -0.037440 215 168 133
-0.195312 0.253906 -0.035286 220 175 140
-0.191406 0.253906 -0.032873 223 179 146
-0.187500 0.253906 -0.029970 224 183 150
-0.183594 0.253906 -0.026086 224 183 151
-0.179688 0.253906 -0.021376 221 179 149
-0.175781 0.253906 -0.016011 217 181 152
-0.171875 0.253906 -0.009934 205 171 143
-0.167969 0.253906 -0.000926 173 150 128
-0.164062 0.253906 0.011716 171 162 152
-0.128906 0.253906 0.002547 119 130 142
-0.125000 0.253906 -0.006029 125 136 148
-0.121094 0.253906 -0.013137 129 139 148
-0.117188 0.253906 -0.020426 132 140 149
-0.113281 0.253906 -0.026112 133 140 145
-0.109375 0.253906 -0.031110 140 143 148
-0.105469 0.253906 -0.035766 145 146 150
-0.101562 0.253906 -0.040022 147 147 149
-0.097656 0.253906 -0.044002 157 155 156
-0.093750 0.253906 -0.047729 152 150 151
-0.089844 0.253906 -0.051033 148 144 145
-0.085938 0.253906 -0.053964 144 140 141
-0.082031 0.253906 -0.056894 143 141 144
-0.078125 0.253906 -0.059718 145 143 146
-0.074219 0.253906 -0.061954 146 144 147
-0.070312 0.253906 -0.063744 144 142 147
-0.066406 0.253906 -0.065543 158 150 148
-0.062500 0.253906 -0.067397 155 147 145
-0.058594 0.253906 -0.069191 155 147 144
-0.054688 0.253906 -0.070982 158 151 145
-0.050781 0.253906 -0.072837 158 151 143
-0.046875 0.253906 -0.074693 155 148 138
-0.042969 0.253906 -0.076451 155 149 137
-0.039062 0.253906 -0.078185 158 152 140
-0.035156 0.253906 -0.079833 157 151 139
-0.031250 0.253906 -0.081377 158 151 141
-0.027344 0.253906 -0.083096 160 153 145
-0.023438 0.253906 -0.084910 162 155 149
-0.019531 0.253906 -0.086621 162 154 152
-0.015625 0.253906 -0.088198 161 152 153
-0.011719 0.253906 -0.089536 160 151 154
-0.007812 0.253906 -0.090618 159 150 153
-0.003906 0.253906 -0.091625 154 161 153
0.000000 0.253906 -0.092571 154 159 155
0.003906 0.253906 -0.093390 152 156 157
0.007812 0.253906 -0.094151 152 152 162
0.011719 0.253906 -0.094829 150 149 163
0.015625 0.253906 -0.095507 150 147 166
0.019531 0.253906 -0.096122 150 147 164
0.023438 0.253906 -0.096755 150 148 162
0.027344 0.253906 -0.097288 156 154 165
0.031250 0.253906 -0.097743 156 157 162
0.035156 0.253906 -0.098415 153 157 160
0.039062 0.253906 -0.099150 149 154 157
0.042969 0.253906 -0.099862 148 156 159
0.046875 0.253906 -0.100483 149 158 165
0.050781 0.253906 -0.101078 146 154 165
0.054688 0.253906 -0.101614 140 150 162
0.058594 0.253906 -0.101995 151 142 173
0.062500 0.253906 -0.102194 149 140 169
0.066406 0.253906 -0.101900 146 138 162
0.070312 0.253906 -0.101150 144 136 157
0.074219 0.253906 -0.100216 145 138 154
0.078125 0.253906 -0.099126 149 143 153
0.082031 0.253906 -0.097903 153 148 154
0.085938 0.253906 -0.096545 156 152 153
0.089844 0.253906 -0.095137 154 150 147
0.093750 0.253906 -0.093589 157 154 149
0.097656 0.253906 -0.091846 155 155 147
0.101562 0.253906 -0.089791 151 151 143
0.105469 0.253906 -0.087655 149 149 141
0.109375 0.253906 -0.085369 151 151 143
0.113281 0.253906 -0.082238 150 150 142
0.117188 0.253906 -0.078576 147 147 139
0.121094 0.253906 -0.074407 151 151 139
0.125000 0.253906 -0.069140 150 150 140
0.128906 0.253906 -0.063131 144 145 137
0.132812 0.253906 -0.056787 147 149 144
0.136719 0.253906 -0.048562 156 162 162
0.140625 0.253906 -0.038910 154 162 165
0.144531 0.253906 -0.033742 150 159 166
0.148438 0.253906 -0.054605 156 166 175
0.152344 0.253906 -0.065292 155 165 175
0.156250 0.253906 -0.069563 162 172 181
0.160156 0.253906 -0.072491 154 163 172
0.164062 0.253906 -0.073911 161 167 173
0.167969 0.253906 -0.074511 161 164 167
0.171875 0.253906 -0.074870 171 172 174
0.175781 0.253906 -0.074180 201 202 202
0.179688 0.253906 -0.072608 219 220 218
0.183594 0.253906 -0.070988 223 223 223
0.187500 0.253906 -0.069067 219 219 219
0.191406 0.253906 -0.066603 215 215 215
0.195312 0.253906 -0.062982 213 213 213
0.199219 0.253906 -0.059369 214 214 214
0.203125 0.253906 -0.055054 218 217 217
0.207031 0.253906 -0.050253 226 224 225
0.210938 0.253906 -0.044249 237 230 232
0.214844 0.253906 -0.032920 226 215 217
-0.226562 0.250000 -0.017198 130 119 122
-0.222656 0.250000 -0.023759 168 142 112
-0.218750 0.250000 -0.028282 172 138 104
-0.214844 0.250000 -0.031197 189 151 114
-0.210938 0.250000 -0.033381 196 156 118
-0.207031 0.250000 -0.034760 202 158 121
-0.203125 0.250000 -0.035221 210 165 128
-0.199219 0.250000 -0.034316 214 168 132
-0.195312 0.250000 -0.032232 219 174 140
-0.191406 0.250000 -0.029903 223 179 146
-0.187500 0.250000 -0.027057 225 184 151
-0.183594 0.250000 -0.023237 225 184 152
-0.179688 0.250000 -0.018502 223 182 152
-0.175781 0.250000 -0.013002 220 184 154
-0.171875 0.250000 -0.006501 209 175 146
-0.167969 0.250000 0.002902 179 155 134
-0.164062 0.250000 0.015132 173 161 152
-0.128906 0.250000 0.000110 118 128 144
-0.125000 0.250000 -0.007648 125 137 150
-0.121094 0.250000 -0.014467 129 140 151
-0.117188 0.250000 -0.021561 134 143 153
-0.113281 0.250000 -0.027164 139 145 154
-0.109375 0.250000 -0.032153 142 146 155
-0.105469 0.250000 -0.036689 142 143 148
-0.101562 0.250000 -0.040787 139 138 143
-0.097656 0.250000 -0.044665 160 158 163
-0.093750 0.250000 -0.048322 155 150 154
-0.089844 0.250000 -0.051620 146 141 145
-0.085938 0.250000 -0.054587 142 137 141
-0.082031 0.250000 -0.057539 144 139 145
-0.078125 0.250000 -0.060391 147 145 150
-0.074219 0.250000 -0.062678 147 145 150
-0.070312 0.250000 -0.064510 144 141 148
-0.066406 0.250000 -0.066381 154 144 142
-0.062500 0.250000 -0.068248 152 142 140
-0.058594 0.250000 -0.070064 153 144 139
-0.054688 0.250000 -0.071872 157 148 141
-0.050781 0.250000 -0.073731 157 148 139
-0.046875 0.250000 -0.075577 153 145 134
-0.042969 0.250000 -0.077295 152 144 133
-0.039062 0.250000 -0.078985 154 146 135
-0.035156 0.250000 -0.080592 157 149 138
-0.031250 0.250000 -0.082099 158 149 140
-0.027344 0.250000 -0.083780 160 151 144
-0.023438 0.250000 -0.085563 162 153 148
-0.019531 0.250000 -0.087202 161 151 150
-0.015625 0.250000 -0.088719 158 148 149
-0.011719 0.250000 -0.090000 155 144 148
-0.007812 0.250000 -0.091032 152 141 147
-0.003906 0.250000 -0.091996 147 155 144
0.000000 0.250000 -0.092909 145 152 145
0.003906 0.250000 -0.093706 143 147 148
0.007812 0.250000 -0.094454 140 143 152
0.011719 0.250000 -0.095122 142 141 157
0.015625 0.250000 -0.095785 144 143 161
0.019531 0.250000 -0.096407 148 145 164
0.023438 0.250000 -0.097041 150 147 164
0.027344 0.250000 -0.097586 159 159 171
0.031250 0.250000 -0.098046 159 159 167
0.035156 0.250000 -0.098719 153 157 160
0.039062 0.250000 -0.099458 146 151 154
0.042969 0.250000 -0.100169 144 152 155
0.046875 0.250000 -0.100798 145 154 161
0.050781 0.250000 -0.101401 143 153 162
0.054688 0.250000 -0.101960 139 149 159
0.058594 0.250000 -0.102366 152 143 174
0.062500 0.250000 -0.102607 151 142 171
0.066406 0.250000 -0.102376 149 141 165
0.070312 0.250000 -0.101706 148 140 161
0.074219 0.250000 -0.100868 147 140 156
0.078125 0.250000 -0.099877 147 141 151
0.082031 0.250000 -0.098747 147 142 148
0.085938 0.250000 -0.097481 148 144 143
0.089844 0.250000 -0.096156 152 148 145
0.093750 0.250000 -0.094690 155 154 149
0.097656 0.250000 -0.093037 156 156 148
0.101562 0.250000 -0.091072 151 151 143
0.105469 0.250000 -0.089043 148 148 140
0.109375 0.250000 -0.086818 150 150 142
0.113281 0.250000 -0.083784 153 153 145
0.117188 0.250000 -0.080260 152 152 144
0.121094 0.250000 -0.076148 137 137 125
0.125000 0.250000 -0.070994 140 140 130
0.128906 0.250000 -0.065573 138 139 131
0.132812 0.250000 -0.059191 146 151 145
0.136719 0.250000 -0.049922 161 167 167
0.140625 0.250000 -0.039906 157 165 168
0.144531 0.250000 -0.031811 145 156 162
0.148438 0.250000 -0.046455 147 157 167
0.152344 0.250000 -0.059904 165 175 185
0.156250 0.250000 -0.066092 156 166 176
0.160156 0.250000 -0.069464 165 175 184
0.164062 0.250000 -0.071362 131 139 144
0.167969 0.250000 -0.072297 163 166 170
0.171875 0.250000 -0.072816 156 158 160
0.175781 0.250000 -0.072209 184 187 188
0.179688 0.250000 -0.070704 217 218 217
0.183594 0.250000 -0.069128 224 223 224
0.187500 0.250000 -0.067264 220 220 220
0.191406 0.250000 -0.064844 215 215 215
0.195312 0.250000 -0.061327 213 213 213
0.199219 0.250000 -0.057851 214 214 214
0.203125 0.250000 -0.053686 219 218 218
0.207031 0.250000 -0.049179 227 226 226
0.210938 0.250000 -0.043242 237 231 232
0.214844 0.250000 -0.034158 232 222 223
-0.226562 0.246094 -0.012445 134 129 134
-0.222656 0.246094 -0.019768 177 155 123
-0.218750 0.246094 -0.024629 173 140 106
-0.214844 0.246094 -0.027662 188 153 115
-0.210938 0.246094 -0.029945 195 156 119
-0.207031 0.246094 -0.031422 201 159 122
-0.203125 0.246094 -0.031948 208 165 128
-0.199219 0.246094 -0.031095 213 168 132
-0.195312 0.246094 -0.029104 218 174 140
-0.191406 0.246094 -0.026829 223 179 146
-0.187500 0.246094 -0.024063 225 185 152
-0.183594 0.246094 -0.020342 225 186 153
-0.179688 0.246094 -0.015518 225 184 153
-0.175781 0.246094 -0.010002 223 186 157
-0.171875 0.246094 -0.003249 213 178 151
-0.167969 0.246094 0.006615 187 161 141
-0.164062 0.246094 0.018694 180 166 156
-0.128906 0.246094 -0.002309 112 122 132
-0.125000 0.246094 -0.009385 115 128 136
-0.121094 0.246094 -0.016051 123 136 145
-0.117188 0.246094 -0.022933 134 150 157
-0.113281 0.246094 -0.028469 139 156 163
-0.109375 0.246094 -0.033430 138 155 164
-0.105469 0.246094 -0.037848 140 158 167
-0.101562 0.246094 -0.041778 148 167 174
-0.097656 0.246094 -0.045558 124 141 149
-0.093750 0.246094 -0.049138 143 156 165
-0.089844 0.246094 -0.052427 143 153 161
-0.085938 0.246094 -0.055428 131 138 146
-0.082031 0.246094 -0.058398 134 137 146
-0.078125 0.246094 -0.061261 143 143 151
-0.074219 0.246094 -0.063583 149 148 156
-0.070312 0.246094 -0.065451 155 152 161
-0.066406 0.246094 -0.067351 155 152 147
-0.062500 0.246094 -0.069233 153 149 146
-0.058594 0.246094 -0.071053 150 146 145
-0.054688 0.246094 -0.072864 147 142 146
-0.050781 0.246094 -0.074712 145 140 146
-0.046875 0.246094 -0.076538 141 135 145
-0.042969 0.246094 -0.078235 136 130 142
-0.039062 0.246094 -0.079899 132 126 140
-0.035156 0.246094 -0.081469 148 141 157
-0.031250 0.246094 -0.082954 151 144 160
-0.027344 0.246094 -0.084606 154 148 162
-0.023438 0.246094 -0.086329 155 149 163
-0.019531 0.246094 -0.087919 153 147 159
-0.015625 0.246094 -0.089381 153 147 157
-0.011719 0.246094 -0.090602 157 152 159
-0.007812 0.246094 -0.091587 160 155 162
-0.003906 0.246094 -0.092520 154 146 167
0.000000 0.246094 -0.093408 151 144 160
0.003906 0.246094 -0.094193 149 143 153
0.007812 0.246094 -0.094931 148 144 145
0.011719 0.246094 -0.095590 147 146 141
0.015625 0.246094 -0.096235 149 149 141
0.019531 0.246094 -0.096863 149 149 141
0.023438 0.246094 -0.097499 149 148 144
0.027344 0.246094 -0.098054 151 150 155
0.031250 0.246094 -0.098518 147 145 158
0.035156 0.246094 -0.099193 141 138 157
0.039062 0.246094 -0.099930 139 137 159
0.042969 0.246094 -0.100629 148 146 170
0.046875 0.246094 -0.101259 159 157 181
0.050781 0.246094 -0.101858 161 159 183
0.054688 0.246094 -0.102430 156 154 178
0.058594 0.246094 -0.102849 136 138 179
0.062500 0.246094 -0.103113 147 150 191
0.066406 0.246094 -0.102932 147 151 189
0.070312 0.246094 -0.102328 139 145 181
0.074219 0.246094 -0.101566 134 143 172
0.078125 0.246094 -0.100648 129 140 162
0.082031 0.246094 -0.099588 131 143 155
0.085938 0.246094 -0.098395 144 158 158
0.089844 0.246094 -0.097132 145 158 148
0.093750 0.246094 -0.095731 142 155 137
0.097656 0.246094 -0.094155 143 152 131
0.101562 0.246094 -0.092275 147 152 132
0.105469 0.246094 -0.090339 155 156 142
0.109375 0.246094 -0.088170 162 159 152
0.113281 0.246094 -0.085262 167 158 159
0.117188 0.246094 -0.081902 167 158 163
0.121094 0.246094 -0.077942 141 128 146
0.125000 0.246094 -0.073014 128 117 133
0.128906 0.246094 -0.067598 149 142 150
0.132812 0.246094 -0.061446 175 173 176
0.136719 0.246094 -0.051678 167 169 168
0.140625 0.246094 -0.041141 155 160 163
0.144531 0.246094 -0.032650 153 160 168
0.148438 0.246094 -0.039146 145 153 172
0.152344 0.246094 -0.054556 154 163 192
0.156250 0.246094 -0.062449 154 162 199
0.160156 0.246094 -0.066381 169 177 214
0.164062 0.246094 -0.068555 132 141 172
0.167969 0.246094 -0.069903 146 152 170
0.171875 0.246094 -0.070621 149 153 157
0.175781 0.246094 -0.070175 180 184 186
0.179688 0.246094 -0.068769 202 211 205
0.183594 0.246094 -0.067260 222 222 222
0.187500 0.246094 -0.065473 219 219 219
0.191406 0.246094 -0.063114 215 215 215
0.195312 0.246094 -0.059683 213 213 213
0.199219 0.246094 -0.056329 214 214 214
0.203125 0.246094 -0.052269 218 218 218
0.207031 0.246094 -0.048037 226 224 225
0.210938 0.246094 -0.041996 235 228 229
0.214844 0.246094 -0.033813 230 219 220
-0.226562 0.242188 -0.007084 134 133 141
-0.222656 0.242188 -0.015422 181 159 129
-0.218750 0.242188 -0.020831 173 140 106
-0.214844 0.242188 -0.023925 186 151 114
-0.210938 0.242188 -0.026454 193 155 118
-0.207031 0.242188 -0.028132 200 160 123
-0.203125 0.242188 -0.028788 207 165 128
-0.199219 0.242188 -0.028022 212 168 132
-0.195312 0.242188 -0.026126 217 174 140
-0.191406 0.242188 -0.023971 222 178 146
-0.187500 0.242188 -0.021315 225 186 152
-0.183594 0.242188 -0.017702 227 188 154
-0.179688 0.242188 -0.012939 227 188 156
-0.175781 0.242188 -0.007346 226 189 160
-0.171875 0.242188 -0.000536 217 181 154
-0.167969 0.242188 0.009667 193 165 145
-0.164062 0.242188 0.022935 184 167 157
-0.132812 0.242188 0.004899 130 135 140
-0.128906 0.242188 -0.004966 118 127 139
-0.125000 0.242188 -0.011532 117 128 139
-0.121094 0.242188 -0.018046 118 131 141
-0.117188 0.242188 -0.024619 129 142 152
-0.113281 0.242188 -0.030045 134 150 159
-0.109375 0.242188 -0.034941 134 150 159
-0.105469 0.242188 -0.039239 132 150 159
-0.101562 0.242188 -0.042993 135 152 162
-0.097656 0.242188 -0.046673 128 142 151
-0.093750 0.242188 -0.050183 137 150 159
-0.089844 0.242188 -0.053456 143 153 162
-0.085938 0.242188 -0.056481 143 150 160
-0.082031 0.242188 -0.059459 142 145 154
-0.078125 0.242188 -0.062328 149 148 156
-0.074219 0.242188 -0.064678 155 152 161
-0.070312 0.242188 -0.066586 154 151 160
-0.066406 0.242188 -0.068486 153 152 148
-0.062500 0.242188 -0.070403 151 150 148
-0.058594 0.242188 -0.072232 148 146 147
-0.054688 0.242188 -0.074037 146 144 147
-0.050781 0.242188 -0.075881 146 143 150
-0.046875 0.242188 -0.077693 145 142 151
-0.042969 0.242188 -0.079368 143 139 153
-0.039062 0.242188 -0.081006 141 137 152
-0.035156 0.242188 -0.082546 147 143 158
-0.031250 0.242188 -0.084011 148 144 159
-0.027344 0.242188 -0.085621 149 145 160
-0.023438 0.242188 -0.087304 148 144 158
-0.019531 0.242188 -0.088864 145 142 153
-0.015625 0.242188 -0.090291 142 139 148
-0.011719 0.242188 -0.091472 140 137 146
-0.007812 0.242188 -0.092416 139 136 143
-0.003906 0.242188 -0.093309 154 146 167
0.000000 0.242188 -0.094160 155 148 164
0.003906 0.242188 -0.094920 156 150 160
0.007812 0.242188 -0.095637 157 153 154
0.011719 0.242188 -0.096286 155 154 149
0.015625 0.242188 -0.096920 156 156 146
0.019531 0.242188 -0.097561 156 156 148
0.023438 0.242188 -0.098204 157 156 152
0.027344 0.242188 -0.098774 150 150 152
0.031250 0.242188 -0.099248 148 146 157
0.035156 0.242188 -0.099916 144 141 158
0.039062 0.242188 -0.100646 143 141 162
0.042969 0.242188 -0.101328 150 148 170
0.046875 0.242188 -0.101943 158 156 178
0.050781 0.242188 -0.102526 157 155 177
0.054688 0.242188 -0.103088 151 149 171
0.058594 0.242188 -0.103501 138 140 179
0.062500 0.242188 -0.103773 149 153 191
0.066406 0.242188 -0.103622 151 155 193
0.070312 0.242188 -0.103058 146 152 188
0.074219 0.242188 -0.102343 145 151 183
0.078125 0.242188 -0.101482 135 146 168
0.082031 0.242188 -0.100469 130 142 154
0.085938 0.242188 -0.099319 139 150 152
0.089844 0.242188 -0.098096 142 155 146
0.093750 0.242188 -0.096746 144 155 139
0.097656 0.242188 -0.095231 146 155 134
0.101562 0.242188 -0.093430 152 157 137
0.105469 0.242188 -0.091588 157 158 144
0.109375 0.242188 -0.089481 162 159 152
0.113281 0.242188 -0.086705 166 158 156
0.117188 0.242188 -0.083481 166 157 160
0.121094 0.242188 -0.079678 160 148 160
0.125000 0.242188 -0.075067 145 135 144
0.128906 0.242188 -0.069655 152 146 150
0.132812 0.242188 -0.062885 164 162 163
0.136719 0.242188 -0.054202 157 157 157
0.140625 0.242188 -0.043154 154 158 159
0.144531 0.242188 -0.034183 160 167 175
0.148438 0.242188 -0.034805 156 163 179
0.152344 0.242188 -0.048928 152 160 183
0.156250 0.242188 -0.058192 167 174 203
0.160156 0.242188 -0.063040 152 159 187
0.164062 0.242188 -0.065483 159 166 191
0.167969 0.242188 -0.067318 145 150 165
0.171875 0.242188 -0.068282 158 164 169
0.175781 0.242188 -0.068026 171 177 176
0.179688 0.242188 -0.066750 209 215 211
0.183594 0.242188 -0.065333 223 223 223
0.187500 0.242188 -0.063625 221 221 221
0.191406 0.242188 -0.061324 217 217 217
0.195312 0.242188 -0.057994 216 216 216
0.199219 0.242188 -0.054743 216 216 215
0.203125 0.242188 -0.050756 218 218 218
0.207031 0.242188 -0.046786 224 222 222
0.210938 0.242188 -0.040901 230 224 225
0.214844 0.242188 -0.033259 223 212 213
-0.226562 0.238281 -0.002369 93 91 116
-0.222656 0.238281 -0.010555 170 148 126
-0.218750 0.238281 -0.016403 169 137 108
-0.214844 0.238281 -0.020151 185 150 115
-0.210938 0.238281 -0.022743 192 154 117
-0.207031 0.238281 -0.024478 201 162 124
-0.203125 0.238281 -0.025353 205 165 128
-0.199219 0.238281 -0.024732 210 167 131
-0.195312 0.238281 -0.022959 216 174 140
-0.191406 0.238281 -0.020985 221 179 146
-0.187500 0.238281 -0.018501 225 186 152
-0.183594 0.238281 -0.014993 228 191 155
-0.179688 0.238281 -0.010330 229 191 158
-0.175781 0.238281 -0.004617 228 191 162
-0.171875 0.238281 0.001702 221 184 158
-0.167969 0.238281 0.011570 201 171 151
-0.164062 0.238281 0.026909 195 175 163
-0.132812 0.238281 0.000247 133 139 144
-0.128906 0.238281 -0.007485 131 138 154
-0.125000 0.238281 -0.014066 124 132 148
-0.121094 0.238281 -0.020231 120 131 145
-0.117188 0.238281 -0.026475 127 137 150
-0.113281 0.238281 -0.031861 132 144 156
-0.109375 0.238281 -0.036716 131 144 157
-0.105469 0.238281 -0.040882 128 142 154
-0.101562 0.238281 -0.044448 127 141 152
-0.097656 0.238281 -0.048034 131 143 155
-0.093750 0.238281 -0.051477 126 136 146
-0.089844 0.238281 -0.054722 141 148 158
-0.085938 0.238281 -0.057759 155 159 170
-0.082031 0.238281 -0.060727 149 149 159
-0.078125 0.238281 -0.063590 151 148 157
-0.074219 0.238281 -0.065951 157 151 161
-0.070312 0.238281 -0.067880 148 142 152
-0.066406 0.238281 -0.069783 148 150 149
-0.062500 0.238281 -0.071696 146 148 147
-0.058594 0.238281 -0.073536 145 146 148
-0.054688 0.238281 -0.075323 145 146 150
-0.050781 0.238281 -0.077144 147 147 155
-0.046875 0.238281 -0.078929 149 149 159
-0.042969 0.238281 -0.080574 149 149 161
-0.039062 0.238281 -0.082183 148 147 161
-0.035156 0.238281 -0.083698 148 147 163
-0.031250 0.238281 -0.085148 148 147 163
-0.027344 0.238281 -0.086734 148 147 161
-0.023438 0.238281 -0.088393 148 147 161
-0.019531 0.238281 -0.089934 145 145 157
-0.015625 0.238281 -0.091352 139 139 149
-0.011719 0.238281 -0.092508 132 132 142
-0.007812 0.238281 -0.093419 126 126 134
-0.003906 0.238281 -0.094289 149 142 160
0.000000 0.238281 -0.095119 153 147 161
0.003906 0.238281 -0.095864 158 153 160
0.007812 0.238281 -0.096561 159 155 154
0.011719 0.238281 -0.097206 155 155 147
0.015625 0.238281 -0.097834 153 153 143
0.019531 0.238281 -0.098488 152 152 142
0.023438 0.238281 -0.099143 152 153 147
0.027344 0.238281 -0.099734 146 146 146
0.031250 0.238281 -0.100223 145 144 152
0.035156 0.238281 -0.100883 143 141 155
0.039062 0.238281 -0.101604 142 141 159
0.042969 0.238281 -0.102255 147 145 166
0.046875 0.238281 -0.102832 152 151 169
0.050781 0.238281 -0.103384 148 147 165
0.054688 0.238281 -0.103918 140 139 155
0.058594 0.238281 -0.104312 126 128 166
0.062500 0.238281 -0.104587 138 140 178
0.066406 0.238281 -0.104443 141 145 182
0.070312 0.238281 -0.103893 145 149 186
0.074219 0.238281 -0.103209 151 157 189
0.078125 0.238281 -0.102385 145 152 178
0.082031 0.238281 -0.101393 136 145 162
0.085938 0.238281 -0.100258 137 148 154
0.089844 0.238281 -0.099054 144 155 151
0.093750 0.238281 -0.097729 147 158 144
0.097656 0.238281 -0.096252 152 161 144
0.101562 0.238281 -0.094521 156 160 143
0.105469 0.238281 -0.092768 157 158 144
0.109375 0.238281 -0.090722 158 155 146
0.113281 0.238281 -0.088093 159 154 150
0.117188 0.238281 -0.085009 162 154 152
0.121094 0.238281 -0.081382 167 159 157
0.125000 0.238281 -0.077140 156 148 146
0.128906 0.238281 -0.071932 154 149 146
0.132812 0.238281 -0.064731 151 150 148
0.136719 0.238281 -0.055970 147 147 147
0.140625 0.238281 -0.046399 153 157 158
0.144531 0.238281 -0.036257 163 168 174
0.148438 0.238281 -0.033189 157 164 174
0.152344 0.238281 -0.043691 154 162 175
0.156250 0.238281 -0.053754 171 178 194
0.160156 0.238281 -0.059630 147 154 170
0.164062 0.238281 -0.062355 173 179 190
0.167969 0.238281 -0.064647 150 157 162
0.171875 0.238281 -0.065881 154 158 159
0.175781 0.238281 -0.065835 168 173 169
0.179688 0.238281 -0.064696 210 213 209
0.183594 0.238281 -0.063371 223 223 223
0.187500 0.238281 -0.061757 222 222 222
0.191406 0.238281 -0.059518 219 219 219
0.195312 0.238281 -0.056277 217 217 217
0.199219 0.238281 -0.053094 216 216 216
0.203125 0.238281 -0.049163 217 217 217
0.207031 0.238281 -0.045318 221 220 220
0.210938 0.238281 -0.039659 227 221 222
0.214844 0.238281 -0.032289 220 208 209
-0.226562 0.234375 0.006028 134 129 134
-0.222656 0.234375 -0.006217 188 176 152
-0.218750 0.234375 -0.011755 175 146 118
-0.214844 0.234375 -0.015869 185 148 115
-0.210938 0.234375 -0.018930 190 152 116
-0.207031 0.234375 -0.020814 200 162 124
-0.203125 0.234375 -0.021792 204 164 128
-0.199219 0.234375 -0.021266 208 166 131
-0.195312 0.234375 -0.019642 215 174 140
-0.191406 0.234375 -0.017901 221 180 147
-0.187500 0.234375 -0.015662 225 187 152
-0.183594 0.234375 -0.012260 228 192 156
-0.179688 0.234375 -0.007509 230 192 159
-0.175781 0.234375 -0.001810 229 192 162
-0.171875 0.234375 0.004170 223 186 159
-0.167969 0.234375 0.013304 206 176 154
-0.164062 0.234375 0.028072 196 176 160
-0.160156 0.234375 0.000996 76 48 51
-0.132812 0.234375 -0.003815 111 114 122
-0.128906 0.234375 -0.010627 146 150 169
-0.125000 0.234375 -0.016726 135 141 159
-0.121094 0.234375 -0.022710 131 137 155
-0.117188 0.234375 -0.028704 133 140 157
-0.113281 0.234375 -0.033960 134 142 157
-0.109375 0.234375 -0.038726 134 142 158
-0.105469 0.234375 -0.042756 133 141 156
-0.101562 0.234375 -0.046143 134 144 156
-0.097656 0.234375 -0.049631 136 144 157
-0.093750 0.234375 -0.053001 115 121 133
-0.089844 0.234375 -0.056213 134 138 149
-0.085938 0.234375 -0.059247 159 159 169
-0.082031 0.234375 -0.062193 146 145 153
-0.078125 0.234375 -0.065039 145 139 149
-0.074219 0.234375 -0.067404 151 144 152
-0.070312 0.234375 -0.069342 138 131 139
-0.066406 0.234375 -0.071241 140 146 146
-0.062500 0.234375 -0.073134 140 146 146
-0.058594 0.234375 -0.074969 140 145 148
-0.054688 0.234375 -0.076740 143 148 152
-0.050781 0.234375 -0.078527 146 151 157
-0.046875 0.234375 -0.080277 147 151 162
-0.042969 0.234375 -0.081889 146 150 162
-0.039062 0.234375 -0.083465 145 148 163
-0.035156 0.234375 -0.084952 143 146 161
-0.031250 0.234375 -0.086383 142 145 160
-0.027344 0.234375 -0.087951 144 147 162
-0.023438 0.234375 -0.089587 146 150 162
-0.019531 0.234375 -0.091107 146 150 161
-0.015625 0.234375 -0.092523 141 145 156
-0.011719 0.234375 -0.093680 131 135 144
-0.007812 0.234375 -0.094599 123 127 136
-0.003906 0.234375 -0.095473 145 138 154
0.000000 0.234375 -0.096294 152 146 158
0.003906 0.234375 -0.097032 157 155 160
0.007812 0.234375 -0.097727 158 157 153
0.011719 0.234375 -0.098375 153 153 143
0.015625 0.234375 -0.099002 148 148 136
0.019531 0.234375 -0.099667 146 146 134
0.023438 0.234375 -0.100329 146 147 139
0.027344 0.234375 -0.100935 150 150 148
0.031250 0.234375 -0.101433 149 148 153
0.035156 0.234375 -0.102074 145 145 155
0.039062 0.234375 -0.102765 143 142 156
0.042969 0.234375 -0.103367 146 145 159
0.046875 0.234375 -0.103893 149 148 162
0.050781 0.234375 -0.104400 146 146 158
0.054688 0.234375 -0.104894 139 139 151
0.058594 0.234375 -0.105261 131 134 167
0.062500 0.234375 -0.105521 136 139 172
0.066406 0.234375 -0.105370 135 138 173
0.070312 0.234375 -0.104823 139 143 180
0.074219 0.234375 -0.104150 151 155 190
0.078125 0.234375 -0.103345 149 156 185
0.082031 0.234375 -0.102361 138 146 167
0.085938 0.234375 -0.101236 138 146 157
0.089844 0.234375 -0.100037 148 158 159
0.093750 0.234375 -0.098726 153 160 152
0.097656 0.234375 -0.097272 156 162 148
0.101562 0.234375 -0.095589 155 159 144
0.105469 0.234375 -0.093903 152 153 139
0.109375 0.234375 -0.091911 151 149 137
0.113281 0.234375 -0.089426 153 149 140
0.117188 0.234375 -0.086473 156 149 143
0.121094 0.234375 -0.083018 159 153 137
0.125000 0.234375 -0.079068 159 153 139
0.128906 0.234375 -0.074013 156 152 143
0.132812 0.234375 -0.066802 151 148 143
0.136719 0.234375 -0.057879 150 150 150
0.140625 0.234375 -0.049011 161 162 166
0.144531 0.234375 -0.039282 163 166 171
0.148438 0.234375 -0.033060 155 160 164
0.152344 0.234375 -0.039231 157 162 165
0.156250 0.234375 -0.049424 157 163 163
0.160156 0.234375 -0.056043 159 165 161
0.164062 0.234375 -0.059108 157 164 157
0.167969 0.234375 -0.061914 167 172 166
0.171875 0.234375 -0.063461 129 131 125
0.175781 0.234375 -0.063615 169 171 166
0.179688 0.234375 -0.062612 207 207 202
0.183594 0.234375 -0.061387 220 220 220
0.187500 0.234375 -0.059855 220 220 220
0.191406 0.234375 -0.057663 217 217 217
0.195312 0.234375 -0.054501 216 216 216
0.199219 0.234375 -0.051354 214 214 214
0.203125 0.234375 -0.047437 215 215 215
0.207031 0.234375 -0.043715 217 215 216
0.210938 0.234375 -0.038209 223 217 218
0.214844 0.234375 -0.030751 214 201 202
-0.222656 0.230469 0.000448 178 165 151
-0.218750 0.230469 -0.006730 174 150 128
-0.214844 0.230469 -0.011358 184 149 116
-0.210938 0.230469 -0.014837 188 151 114
-0.207031 0.230469 -0.016909 198 161 123
-0.203125 0.230469 -0.017985 202 163 127
-0.199219 0.230469 -0.017691 207 165 129
-0.195312 0.230469 -0.016227 214 173 138
-0.191406 0.230469 -0.014725 220 180 147
-0.187500 0.230469 -0.012702 225 188 154
-0.183594 0.230469 -0.009399 229 193 159
-0.179688 0.230469 -0.004750 230 193 161
-0.175781 0.230469 0.000577 230 194 163
-0.171875 0.230469 0.006388 226 190 162
-0.167969 0.230469 0.015558 212 182 158
-0.164062 0.230469 0.026263 198 179 160
-0.160156 0.230469 0.006546 87 61 61
-0.136719 0.230469 0.002678 143 144 166
-0.132812 0.230469 -0.007669 130 135 140
-0.128906 0.230469 -0.014211 148 149 173
-0.125000 0.230469 -0.019738 143 144 166
-0.121094 0.230469 -0.025250 141 143 164
-0.117188 0.230469 -0.031068 138 143 161
-0.113281 0.230469 -0.036257 136 140 158
-0.109375 0.230469 -0.040948 137 141 159
-0.105469 0.230469 -0.044837 141 147 162
-0.101562 0.230469 -0.048050 146 152 166
-0.097656 0.230469 -0.051445 143 147 159
-0.093750 0.230469 -0.054730 118 120 132
-0.089844 0.230469 -0.057894 134 134 144
-0.085938 0.230469 -0.060903 156 155 163
-0.082031 0.230469 -0.063808 145 140 147
-0.078125 0.230469 -0.066615 140 133 140
-0.074219 0.230469 -0.068964 146 139 146
-0.070312 0.230469 -0.070893 136 126 134
-0.066406 0.230469 -0.072776 136 142 142
-0.062500 0.230469 -0.074653 137 142 145
-0.058594 0.230469 -0.076455 140 145 148
-0.054688 0.230469 -0.078206 143 148 152
-0.050781 0.230469 -0.079965 145 150 156
-0.046875 0.230469 -0.081678 144 148 157
-0.042969 0.230469 -0.083254 141 145 156
-0.039062 0.230469 -0.084789 137 141 153
-0.035156 0.230469 -0.086248 135 139 151
-0.031250 0.230469 -0.087654 136 140 152
-0.027344 0.230469 -0.089187 138 142 154
-0.023438 0.230469 -0.090804 141 145 156
-0.019531 0.230469 -0.092339 143 147 158
-0.015625 0.230469 -0.093765 138 142 151
-0.011719 0.230469 -0.094922 129 133 142
-0.007812 0.230469 -0.095843 122 126 135
-0.003906 0.230469 -0.096709 145 141 155
0.000000 0.230469 -0.097522 152 149 158
0.003906 0.230469 -0.098268 160 158 161
0.007812 0.230469 -0.098971 161 160 155
0.011719 0.230469 -0.099634 157 157 145
0.015625 0.230469 -0.100275 152 153 139
0.019531 0.230469 -0.100957 150 152 138
0.023438 0.230469 -0.101629 152 154 143
0.027344 0.230469 -0.102252 160 161 156
0.031250 0.230469 -0.102770 158 159 161
0.035156 0.230469 -0.103395 153 154 159
0.039062 0.230469 -0.104047 149 149 159
0.042969 0.230469 -0.104605 150 150 160
0.046875 0.230469 -0.105074 151 154 161
0.050781 0.230469 -0.105536 150 153 158
0.054688 0.230469 -0.105991 145 148 153
0.058594 0.230469 -0.106317 157 158 186
0.062500 0.230469 -0.106547 153 154 184
0.066406 0.230469 -0.106382 138 141 174
0.070312 0.230469 -0.105825 136 139 174
0.074219 0.230469 -0.105146 147 151 188
0.078125 0.230469 -0.104345 147 152 184
0.082031 0.230469 -0.103360 138 144 170
0.085938 0.230469 -0.102235 138 143 162
0.089844 0.230469 -0.101029 149 156 162
0.093750 0.230469 -0.099724 152 158 154
0.097656 0.230469 -0.098283 152 158 148
0.101562 0.230469 -0.096640 151 153 139
0.105469 0.230469 -0.095011 147 148 134
0.109375 0.230469 -0.093073 147 145 132
0.113281 0.230469 -0.090714 151 147 136
0.117188 0.230469 -0.087891 155 151 142
0.121094 0.230469 -0.084633 151 148 117
0.125000 0.230469 -0.080953 156 154 129
0.128906 0.230469 -0.076090 154 151 136
0.132812 0.230469 -0.069094 149 146 141
0.136719 0.230469 -0.060408 157 155 158
0.140625 0.230469 -0.051393 167 166 172
0.144531 0.230469 -0.041923 165 166 171
0.148438 0.230469 -0.033906 158 160 159
0.152344 0.230469 -0.035472 155 158 149
0.156250 0.230469 -0.044750 145 149 132
0.160156 0.230469 -0.052275 163 168 145
0.164062 0.230469 -0.055845 147 150 128
0.167969 0.230469 -0.059030 166 169 150
0.171875 0.230469 -0.060943 115 116 105
0.175781 0.230469 -0.061345 160 160 153
0.179688 0.230469 -0.060518 195 193 188
0.183594 0.230469 -0.059424 212 213 212
0.187500 0.230469 -0.057997 213 213 213
0.191406 0.230469 -0.055862 210 210 210
0.195312 0.230469 -0.052763 209 209 209
0.199219 0.230469 -0.049631 207 207 207
0.203125 0.230469 -0.045735 206 206 206
0.207031 0.230469 -0.042038 206 205 205
0.210938 0.230469 -0.036740 211 206 207
0.214844 0.230469 -0.029140 201 188 189
-0.222656 0.226562 0.007787 170 148 126
-0.218750 0.226562 -0.001110 158 138 128
-0.214844 0.226562 -0.006504 183 153 117
-0.210938 0.226562 -0.010368 186 151 114
-0.207031 0.226562 -0.012421 196 160 124
-0.203125 0.226562 -0.013942 200 162 127
-0.199219 0.226562 -0.014004 205 164 130
-0.195312 0.226562 -0.012700 213 172 138
-0.191406 0.226562 -0.011431 219 178 145
-0.187500 0.226562 -0.009603 224 187 154
-0.183594 0.226562 -0.006426 229 193 159
-0.179688 0.226562 -0.002033 230 193 161
-0.175781 0.226562 0.002927 231 194 164
-0.171875 0.226562 0.008513 227 191 164
-0.167969 0.226562 0.017025 218 185 162
-0.164062 0.226562 0.028617 207 181 163
-0.160156 0.226562 0.021367 130 103 99
-0.136719 0.226562 -0.001312 143 142 164
-0.132812 0.226562 -0.011282 133 139 144
-0.128906 0.226562 -0.017830 144 141 167
-0.125000 0.226562 -0.022885 143 142 164
-0.121094 0.226562 -0.028026 143 143 165
-0.117188 0.226562 -0.033671 142 143 162
-0.113281 0.226562 -0.038744 139 140 158
-0.109375 0.226562 -0.043342 141 143 157
-0.105469 0.226562 -0.047104 148 149 162
-0.101562 0.226562 -0.050177 154 156 168
-0.097656 0.226562 -0.053480 152 152 160
-0.093750 0.226562 -0.056668 134 133 139
-0.089844 0.226562 -0.059762 142 140 145
-0.085938 0.226562 -0.062732 158 153 157
-0.082031 0.226562 -0.065591 150 144 148
-0.078125 0.226562 -0.068348 144 138 140
-0.074219 0.226562 -0.070665 149 140 143
-0.070312 0.226562 -0.072575 143 134 137
-0.066406 0.226562 -0.074440 139 145 145
-0.062500 0.226562 -0.076298 140 146 146
-0.058594 0.226562 -0.078068 142 148 148
-0.054688 0.226562 -0.079779 144 149 152
-0.050781 0.226562 -0.081490 145 150 154
-0.046875 0.226562 -0.083159 143 148 154
-0.042969 0.226562 -0.084695 138 143 149
-0.039062 0.226562 -0.086184 134 138 147
-0.035156 0.226562 -0.087606 138 142 151
-0.031250 0.226562 -0.088990 139 143 152
-0.027344 0.226562 -0.090515 141 145 154
-0.023438 0.226562 -0.092137 143 148 154
-0.019531 0.226562 -0.093677 143 148 154
-0.015625 0.226562 -0.095110 139 144 150
-0.011719 0.226562 -0.096273 133 138 142
-0.007812 0.226562 -0.097208 128 133 137
-0.003906 0.226562 -0.098083 145 142 153
0.000000 0.226562 -0.098900 150 147 154
0.003906 0.226562 -0.099657 156 154 155
0.007812 0.226562 -0.100369 158 158 150
0.011719 0.226562 -0.101044 156 157 143
0.015625 0.226562 -0.101691 154 157 140
0.019531 0.226562 -0.102378 155 158 141
0.023438 0.226562 -0.103055 156 158 145
0.027344 0.226562 -0.103684 158 161 154
0.031250 0.226562 -0.104210 157 159 156
0.035156 0.226562 -0.104813 153 154 158
0.039062 0.226562 -0.105425 148 149 154
0.042969 0.226562 -0.105935 146 149 154
0.046875 0.226562 -0.106351 150 154 157
0.050781 0.226562 -0.106773 150 154 155
0.054688 0.226562 -0.107188 146 150 149
0.058594 0.226562 -0.107469 156 158 181
0.062500 0.226562 -0.107663 149 151 176
0.066406 0.226562 -0.107467 132 133 163
0.070312 0.226562 -0.106892 129 129 163
0.074219 0.226562 -0.106199 141 143 181
0.078125 0.226562 -0.105391 146 149 184
0.082031 0.226562 -0.104395 141 144 175
0.085938 0.226562 -0.103258 144 146 167
0.089844 0.226562 -0.102035 148 152 163
0.093750 0.226562 -0.100724 148 152 153
