ply
    format ascii 1.0
    element vertex 35130
    property float x
    property float y
    property float z
    property uchar red
    property uchar green
    property uchar blue
    end_header
0.074219 -0.113281 0.110399 254 118 122
0.078125 -0.113281 0.110116 254 118 116
0.082031 -0.113281 0.109780 249 114 110
0.085938 -0.113281 0.109369 241 110 102
0.089844 -0.113281 0.108845 228 106 95
0.093750 -0.113281 0.108114 223 111 99
0.097656 -0.113281 0.107334 214 116 105
0.101562 -0.113281 0.106537 212 130 119
0.105469 -0.113281 0.105627 233 162 154
0.109375 -0.113281 0.104642 250 200 191
0.113281 -0.113281 0.103382 249 214 207
0.117188 -0.113281 0.101846 251 209 206
0.121094 -0.113281 0.100267 237 215 218
0.125000 -0.113281 0.098861 240 206 209
0.128906 -0.113281 0.097056 243 192 197
0.132812 -0.113281 0.094567 247 179 188
0.136719 -0.113281 0.091898 247 173 184
0.140625 -0.113281 0.088901 243 169 179
0.144531 -0.113281 0.085853 229 157 166
0.148438 -0.113281 0.082588 203 128 138
0.152344 -0.113281 0.078917 164 82 98
0.156250 -0.113281 0.075195 114 42 65
0.160156 -0.113281 0.070969 77 27 54
0.164062 -0.113281 0.065532 75 43 68
0.167969 -0.113281 0.058076 71 67 88
0.171875 -0.113281 0.045688 67 87 108
-0.050781 -0.117188 0.031226 246 199 195
-0.046875 -0.117188 0.042053 241 163 170
-0.042969 -0.117188 0.049595 244 178 183
-0.039062 -0.117188 0.054941 243 191 193
-0.035156 -0.117188 0.058612 241 194 195
-0.031250 -0.117188 0.062259 241 193 194
-0.027344 -0.117188 0.065188 243 187 188
-0.023438 -0.117188 0.067540 246 178 180
-0.019531 -0.117188 0.070040 248 171 173
-0.015625 -0.117188 0.072559 249 168 171
-0.011719 -0.117188 0.074760 250 169 172
-0.007812 -0.117188 0.076717 251 172 174
-0.003906 -0.117188 0.078620 251 168 174
0.000000 -0.117188 0.080659 250 169 175
0.003906 -0.117188 0.082655 249 175 177
0.007812 -0.117188 0.084967 234 172 166
0.011719 -0.117188 0.087354 232 177 171
0.015625 -0.117188 0.089900 250 213 204
0.019531 -0.117188 0.092243 238 162 170
0.023438 -0.117188 0.094185 249 106 134
0.027344 -0.117188 0.096018 254 105 138
0.031250 -0.117188 0.097721 254 117 135
0.035156 -0.117188 0.099455 233 134 137
0.039062 -0.117188 0.101122 230 144 143
0.042969 -0.117188 0.102648 249 143 147
0.046875 -0.117188 0.104043 254 135 147
0.050781 -0.117188 0.105437 254 128 142
0.054688 -0.117188 0.106897 253 126 137
0.058594 -0.117188 0.108167 254 122 128
0.062500 -0.117188 0.109220 252 117 121
0.066406 -0.117188 0.109945 250 114 114
0.070312 -0.117188 0.110222 253 115 113
0.074219 -0.117188 0.110277 253 114 109
0.078125 -0.117188 0.110079 246 109 99
0.082031 -0.117188 0.109868 237 105 93
0.085938 -0.117188 0.109556 227 105 92
0.089844 -0.117188 0.109128 219 109 94
0.093750 -0.117188 0.108512 206 114 99
0.097656 -0.117188 0.107816 218 144 131
0.101562 -0.117188 0.107119 244 188 179
0.105469 -0.117188 0.106280 240 203 196
0.109375 -0.117188 0.105406 241 191 188
0.113281 -0.117188 0.104306 244 188 189
0.117188 -0.117188 0.102978 250 204 206
0.121094 -0.117188 0.101577 239 208 215
0.125000 -0.117188 0.100170 241 198 206
0.128906 -0.117188 0.098252 243 184 193
0.132812 -0.117188 0.095468 243 173 182
0.136719 -0.117188 0.092294 237 166 176
0.140625 -0.117188 0.088740 224 157 165
0.144531 -0.117188 0.085228 185 123 132
0.148438 -0.117188 0.081858 142 64 83
0.152344 -0.117188 0.078439 118 33 66
0.156250 -0.117188 0.075015 89 36 63
0.160156 -0.117188 0.070797 59 41 57
0.164062 -0.117188 0.065201 49 52 59
0.167969 -0.117188 0.058442 42 52 61
0.171875 -0.117188 0.049816 57 73 87
0.175781 -0.117188 0.007702 51 66 70
-0.050781 -0.121094 0.025650 232 175 171
-0.046875 -0.121094 0.038397 235 161 166
-0.042969 -0.121094 0.046608 243 187 193
-0.039062 -0.121094 0.052255 244 202 206
-0.035156 -0.121094 0.056481 244 207 209
-0.031250 -0.121094 0.060415 243 204 205
-0.027344 -0.121094 0.063499 243 193 195
-0.023438 -0.121094 0.065875 245 178 180
-0.019531 -0.121094 0.068449 246 166 169
-0.015625 -0.121094 0.071013 247 161 164
-0.011719 -0.121094 0.073235 249 163 166
-0.007812 -0.121094 0.075223 250 168 171
-0.003906 -0.121094 0.077134 250 168 174
0.000000 -0.121094 0.079192 250 168 174
0.003906 -0.121094 0.081233 250 175 177
0.007812 -0.121094 0.083632 235 173 169
0.011719 -0.121094 0.086048 231 178 175
0.015625 -0.121094 0.088573 248 207 199
0.019531 -0.121094 0.090924 253 188 193
0.023438 -0.121094 0.092912 254 110 136
0.027344 -0.121094 0.094780 254 105 138
0.031250 -0.121094 0.096476 254 116 135
0.035156 -0.121094 0.098228 229 133 135
0.039062 -0.121094 0.100008 224 139 136
0.042969 -0.121094 0.101679 237 131 135
0.046875 -0.121094 0.103159 251 119 132
0.050781 -0.121094 0.104635 251 115 129
0.054688 -0.121094 0.106238 242 115 126
0.058594 -0.121094 0.107634 254 112 108
0.062500 -0.121094 0.108827 253 112 105
0.066406 -0.121094 0.109674 254 112 104
0.070312 -0.121094 0.110064 254 114 104
0.074219 -0.121094 0.110266 250 110 97
0.078125 -0.121094 0.110191 241 105 89
0.082031 -0.121094 0.110101 236 109 92
0.085938 -0.121094 0.109847 235 120 102
0.089844 -0.121094 0.109452 228 130 113
0.093750 -0.121094 0.108832 251 180 165
0.097656 -0.121094 0.108113 244 206 194
0.101562 -0.121094 0.107390 232 182 175
0.105469 -0.121094 0.106495 222 158 155
0.109375 -0.121094 0.105580 223 154 158
0.113281 -0.121094 0.104498 224 158 164
0.117188 -0.121094 0.103201 223 177 185
0.121094 -0.121094 0.101755 248 189 199
0.125000 -0.121094 0.100201 246 184 194
0.128906 -0.121094 0.098017 240 174 185
0.132812 -0.121094 0.094915 227 160 170
0.136719 -0.121094 0.091477 210 144 155
0.140625 -0.121094 0.087825 179 116 129
0.144531 -0.121094 0.084299 119 63 81
0.148438 -0.121094 0.081186 95 36 64
0.152344 -0.121094 0.078222 92 54 78
0.156250 -0.121094 0.075073 67 57 68
0.160156 -0.121094 0.070845 44 50 54
0.164062 -0.121094 0.065601 42 56 56
0.167969 -0.121094 0.059155 42 54 57
0.171875 -0.121094 0.051784 61 77 80
0.175781 -0.121094 0.032778 74 83 85
-0.050781 -0.125000 0.020401 123 54 53
-0.046875 -0.125000 0.033935 166 71 74
-0.042969 -0.125000 0.042484 206 114 124
-0.039062 -0.125000 0.048193 215 151 158
-0.035156 -0.125000 0.052875 226 181 185
-0.031250 -0.125000 0.057397 232 192 195
-0.027344 -0.125000 0.060840 239 189 193
-0.023438 -0.125000 0.063495 242 180 184
-0.019531 -0.125000 0.066307 244 171 176
-0.015625 -0.125000 0.069001 244 167 171
-0.011719 -0.125000 0.071304 246 168 172
-0.007812 -0.125000 0.073437 248 174 178
-0.003906 -0.125000 0.075502 249 175 181
0.000000 -0.125000 0.077683 250 171 178
0.003906 -0.125000 0.079816 250 175 178
0.007812 -0.125000 0.082346 236 174 173
0.011719 -0.125000 0.084860 231 181 179
0.015625 -0.125000 0.087387 247 204 197
0.019531 -0.125000 0.089746 253 205 210
0.023438 -0.125000 0.091785 254 113 141
0.027344 -0.125000 0.093676 254 102 136
0.031250 -0.125000 0.095383 253 114 133
0.035156 -0.125000 0.097196 226 130 132
0.039062 -0.125000 0.099110 217 132 129
0.042969 -0.125000 0.100942 230 121 126
0.046875 -0.125000 0.102542 244 109 123
0.050781 -0.125000 0.104161 245 107 122
0.054688 -0.125000 0.105942 238 111 122
0.058594 -0.125000 0.107517 254 111 100
0.062500 -0.125000 0.108889 254 108 98
0.066406 -0.125000 0.109867 254 109 96
0.070312 -0.125000 0.110377 252 109 93
0.074219 -0.125000 0.110680 245 104 86
0.078125 -0.125000 0.110695 241 106 87
0.082031 -0.125000 0.110605 246 121 101
0.085938 -0.125000 0.110347 251 138 119
0.089844 -0.125000 0.109973 251 202 185
0.093750 -0.125000 0.109349 249 201 188
0.097656 -0.125000 0.108732 247 198 189
0.101562 -0.125000 0.108091 244 185 182
0.105469 -0.125000 0.107177 236 171 175
0.109375 -0.125000 0.106056 223 162 170
0.113281 -0.125000 0.104598 218 157 167
0.117188 -0.125000 0.102746 217 159 172
0.121094 -0.125000 0.100603 234 155 172
0.125000 -0.125000 0.098457 221 146 161
0.128906 -0.125000 0.095828 204 127 145
0.132812 -0.125000 0.092551 170 96 116
0.136719 -0.125000 0.089265 134 69 88
0.140625 -0.125000 0.086056 113 51 75
0.144531 -0.125000 0.083105 78 44 62
0.148438 -0.125000 0.080503 65 55 63
0.152344 -0.125000 0.077994 57 61 64
0.156250 -0.125000 0.075212 42 50 53
0.160156 -0.125000 0.071183 33 42 45
0.164062 -0.125000 0.066306 39 50 52
0.167969 -0.125000 0.060414 35 45 49
0.171875 -0.125000 0.053094 42 54 60
0.175781 -0.125000 0.038283 50 53 63
-0.054688 -0.128906 -0.014081 166 149 118
-0.050781 -0.128906 0.017609 114 68 54
-0.046875 -0.128906 0.030849 142 74 63
-0.042969 -0.128906 0.039177 162 78 75
-0.039062 -0.128906 0.044622 133 53 63
-0.035156 -0.128906 0.049271 139 75 85
-0.031250 -0.128906 0.054353 165 109 117
-0.027344 -0.128906 0.058148 199 134 142
-0.023438 -0.128906 0.061050 217 150 157
-0.019531 -0.128906 0.064036 226 162 167
-0.015625 -0.128906 0.066856 233 172 177
-0.011719 -0.128906 0.069239 242 185 189
-0.007812 -0.128906 0.071522 248 196 201
-0.003906 -0.128906 0.073787 245 202 205
0.000000 -0.128906 0.076107 242 197 198
0.003906 -0.128906 0.078318 244 188 193
0.007812 -0.128906 0.081005 244 182 187
0.011719 -0.128906 0.083677 245 183 187
0.015625 -0.128906 0.086224 253 199 207
0.019531 -0.128906 0.088604 254 209 223
0.023438 -0.128906 0.090719 221 143 166
0.027344 -0.128906 0.092645 228 116 148
0.031250 -0.128906 0.094370 252 111 146
0.035156 -0.128906 0.096221 254 103 138
0.039062 -0.128906 0.098262 254 96 126
0.042969 -0.128906 0.100244 254 96 118
0.046875 -0.128906 0.101957 254 105 118
0.050781 -0.128906 0.103727 254 112 117
0.054688 -0.128906 0.105625 254 113 113
0.058594 -0.128906 0.107328 239 103 105
0.062500 -0.128906 0.108836 240 112 113
0.066406 -0.128906 0.109918 232 117 120
0.070312 -0.128906 0.110551 212 118 119
0.074219 -0.128906 0.110951 197 126 127
0.078125 -0.128906 0.111099 207 158 158
0.082031 -0.128906 0.111090 237 203 202
0.085938 -0.128906 0.110878 247 219 219
0.089844 -0.128906 0.110340 238 198 200
0.093750 -0.128906 0.109282 238 193 198
0.097656 -0.128906 0.107884 238 196 201
0.101562 -0.128906 0.106306 238 197 204
0.105469 -0.128906 0.104250 242 192 202
0.109375 -0.128906 0.102060 242 181 194
0.113281 -0.128906 0.099896 239 166 179
0.117188 -0.128906 0.097808 226 144 162
0.121094 -0.128906 0.095853 201 118 139
0.125000 -0.128906 0.094116 163 85 108
0.128906 -0.128906 0.092073 136 58 87
0.132812 -0.128906 0.089469 100 41 67
0.136719 -0.128906 0.086804 67 35 52
0.140625 -0.128906 0.084232 61 44 56
0.144531 -0.128906 0.081951 47 48 54
0.148438 -0.128906 0.079858 39 49 49
0.152344 -0.128906 0.077727 40 52 51
0.156250 -0.128906 0.075212 38 49 49
0.160156 -0.128906 0.071305 41 50 52
0.164062 -0.128906 0.066682 53 62 64
0.167969 -0.128906 0.061418 48 58 63
0.171875 -0.128906 0.054443 55 71 76
0.175781 -0.128906 0.040946 58 66 73
-0.054688 -0.132812 -0.018370 200 202 169
-0.050781 -0.132812 0.014943 102 83 66
-0.046875 -0.132812 0.029206 92 70 59
-0.042969 -0.132812 0.037141 102 85 68
-0.039062 -0.132812 0.042411 70 56 46
-0.035156 -0.132812 0.046918 61 44 38
-0.031250 -0.132812 0.051996 68 37 36
-0.027344 -0.132812 0.055905 93 37 43
-0.023438 -0.132812 0.058814 113 49 58
-0.019531 -0.132812 0.061815 147 79 89
-0.015625 -0.132812 0.064769 190 122 132
-0.011719 -0.132812 0.067306 223 165 174
-0.007812 -0.132812 0.069716 239 195 202
-0.003906 -0.132812 0.072068 244 209 213
0.000000 -0.132812 0.074470 241 208 209
0.003906 -0.132812 0.076808 243 198 204
0.007812 -0.132812 0.079637 244 185 191
0.011719 -0.132812 0.082393 243 175 182
0.015625 -0.132812 0.084938 252 187 196
0.019531 -0.132812 0.087373 253 207 222
0.023438 -0.132812 0.089640 242 168 189
0.027344 -0.132812 0.091678 230 126 155
0.031250 -0.132812 0.093416 249 118 150
0.035156 -0.132812 0.095234 254 113 145
0.039062 -0.132812 0.097295 254 108 135
0.042969 -0.132812 0.099271 254 105 123
0.046875 -0.132812 0.100965 249 103 113
0.050781 -0.132812 0.102804 240 106 107
0.054688 -0.132812 0.104795 236 108 105
0.058594 -0.132812 0.106684 231 111 110
0.062500 -0.132812 0.108417 221 107 107
0.066406 -0.132812 0.109682 221 121 121
0.070312 -0.132812 0.110417 245 163 162
0.074219 -0.132812 0.110867 248 208 207
0.078125 -0.132812 0.111058 244 216 214
0.082031 -0.132812 0.110961 243 201 202
0.085938 -0.132812 0.110384 230 169 172
0.089844 -0.132812 0.109038 238 174 182
0.093750 -0.132812 0.106409 238 184 194
0.097656 -0.132812 0.102496 238 194 204
0.101562 -0.132812 0.098907 239 197 208
0.105469 -0.132812 0.096237 240 190 202
0.109375 -0.132812 0.094346 234 170 186
0.113281 -0.132812 0.093039 209 130 151
0.117188 -0.132812 0.091974 166 83 109
0.121094 -0.132812 0.091207 119 49 78
0.125000 -0.132812 0.090489 81 37 59
0.128906 -0.132812 0.089367 70 44 59
0.132812 -0.132812 0.087505 58 52 58
0.136719 -0.132812 0.085421 43 49 49
0.140625 -0.132812 0.083281 42 54 53
0.144531 -0.132812 0.081335 38 51 53
0.148438 -0.132812 0.079491 38 51 52
0.152344 -0.132812 0.077543 45 58 57
0.156250 -0.132812 0.075162 45 55 56
0.160156 -0.132812 0.071409 46 55 57
0.164062 -0.132812 0.067014 52 61 63
0.167969 -0.132812 0.062096 44 53 58
0.171875 -0.132812 0.055688 52 65 72
0.175781 -0.132812 0.044577 47 54 62
-0.050781 -0.136719 0.011773 57 52 47
-0.046875 -0.136719 0.028221 53 49 47
-0.042969 -0.136719 0.035933 58 62 54
-0.039062 -0.136719 0.041158 47 54 45
-0.035156 -0.136719 0.045846 47 54 43
-0.031250 -0.136719 0.051002 44 44 36
-0.027344 -0.136719 0.054857 45 33 31
-0.023438 -0.136719 0.057675 45 22 26
-0.019531 -0.136719 0.060573 58 21 29
-0.015625 -0.136719 0.063515 84 29 43
-0.011719 -0.136719 0.066058 113 48 64
-0.007812 -0.136719 0.068395 149 87 101
-0.003906 -0.136719 0.070564 194 129 141
0.000000 -0.136719 0.072899 216 155 163
0.003906 -0.136719 0.075320 225 167 175
0.007812 -0.136719 0.078161 230 166 173
0.011719 -0.136719 0.080871 234 160 168
0.015625 -0.136719 0.083397 248 174 186
0.019531 -0.136719 0.085877 253 206 221
0.023438 -0.136719 0.088208 254 199 219
0.027344 -0.136719 0.090256 210 123 148
0.031250 -0.136719 0.091970 220 109 136
0.035156 -0.136719 0.093724 233 105 132
0.039062 -0.136719 0.095665 243 114 134
0.042969 -0.136719 0.097481 246 120 132
0.046875 -0.136719 0.099074 232 117 120
0.050781 -0.136719 0.100946 218 115 110
0.054688 -0.136719 0.102980 213 116 107
0.058594 -0.136719 0.104949 223 132 127
0.062500 -0.136719 0.106759 253 174 169
0.066406 -0.136719 0.108045 252 216 212
0.070312 -0.136719 0.108666 250 216 213
0.074219 -0.136719 0.108930 246 193 193
0.078125 -0.136719 0.108689 244 175 177
0.082031 -0.136719 0.107821 243 173 179
0.085938 -0.136719 0.105887 240 165 176
0.089844 -0.136719 0.102045 233 163 176
0.093750 -0.136719 0.097944 231 169 183
0.097656 -0.136719 0.095807 230 171 187
0.101562 -0.136719 0.094841 225 161 178
0.105469 -0.136719 0.093971 208 138 158
0.109375 -0.136719 0.093144 177 101 124
0.113281 -0.136719 0.092385 129 60 86
0.117188 -0.136719 0.091423 92 42 66
0.121094 -0.136719 0.090866 67 41 60
0.125000 -0.136719 0.090371 48 42 54
0.128906 -0.136719 0.089281 44 51 55
0.132812 -0.136719 0.087427 41 55 55
0.136719 -0.136719 0.085430 37 52 51
0.140625 -0.136719 0.083361 41 57 56
0.144531 -0.136719 0.081387 40 54 56
0.148438 -0.136719 0.079390 41 52 55
0.152344 -0.136719 0.077293 45 56 57
0.156250 -0.136719 0.074947 43 52 54
0.160156 -0.136719 0.071367 42 51 53
0.164062 -0.136719 0.066989 45 53 55
0.167969 -0.136719 0.062204 41 48 53
0.171875 -0.136719 0.056389 54 62 69
0.175781 -0.136719 0.047823 52 55 62
-0.050781 -0.140625 0.010472 52 50 46
-0.046875 -0.140625 0.027821 57 55 55
-0.042969 -0.140625 0.035645 51 54 54
-0.039062 -0.140625 0.040577 47 51 51
-0.035156 -0.140625 0.045417 51 56 55
-0.031250 -0.140625 0.050578 45 50 47
-0.027344 -0.140625 0.054246 42 45 42
-0.023438 -0.140625 0.056965 40 40 37
-0.019531 -0.140625 0.059750 44 41 38
-0.015625 -0.140625 0.062549 47 41 39
-0.011719 -0.140625 0.064952 48 38 37
-0.007812 -0.140625 0.067171 55 33 37
-0.003906 -0.140625 0.069224 79 33 44
0.000000 -0.140625 0.071482 108 37 54
0.003906 -0.140625 0.073809 123 51 66
0.007812 -0.140625 0.076468 147 70 83
0.011719 -0.140625 0.079014 181 86 100
0.015625 -0.140625 0.081457 218 114 132
0.019531 -0.140625 0.083874 242 172 189
0.023438 -0.140625 0.086077 252 210 226
0.027344 -0.140625 0.087947 196 128 149
0.031250 -0.140625 0.089572 211 125 146
0.035156 -0.140625 0.091275 220 123 144
0.039062 -0.140625 0.093119 216 117 132
0.042969 -0.140625 0.094824 199 103 111
0.046875 -0.140625 0.096286 198 111 109
0.050781 -0.140625 0.098038 231 157 147
0.054688 -0.140625 0.099876 249 206 192
0.058594 -0.140625 0.101554 250 221 212
0.062500 -0.140625 0.103028 251 215 207
0.066406 -0.140625 0.104005 250 207 203
0.070312 -0.140625 0.104318 249 203 201
0.074219 -0.140625 0.104232 246 196 199
0.078125 -0.140625 0.103469 242 186 193
0.082031 -0.140625 0.101955 237 166 179
0.085938 -0.140625 0.099485 221 137 156
0.089844 -0.140625 0.096451 210 123 144
0.093750 -0.140625 0.095090 183 105 124
0.097656 -0.140625 0.094049 161 84 104
0.101562 -0.140625 0.093560 138 64 85
0.105469 -0.140625 0.093227 103 51 67
0.109375 -0.140625 0.092840 75 44 54
0.113281 -0.140625 0.092367 59 45 51
0.117188 -0.140625 0.091787 55 52 56
0.121094 -0.140625 0.091480 51 57 60
0.125000 -0.140625 0.090914 45 57 60
0.128906 -0.140625 0.089751 45 59 62
0.132812 -0.140625 0.087878 42 57 61
0.136719 -0.140625 0.085865 40 53 57
0.140625 -0.140625 0.083768 41 54 57
0.144531 -0.140625 0.081657 40 51 55
0.148438 -0.140625 0.079362 40 50 53
0.152344 -0.140625 0.077012 42 51 53
0.156250 -0.140625 0.074569 42 50 52
0.160156 -0.140625 0.070971 44 51 53
0.164062 -0.140625 0.066656 44 52 54
0.167969 -0.140625 0.062194 42 48 52
0.171875 -0.140625 0.057390 54 60 64
0.175781 -0.140625 0.049628 49 50 53
-0.050781 -0.144531 0.011987 51 52 48
-0.046875 -0.144531 0.028218 52 53 53
-0.042969 -0.144531 0.035661 41 46 48
-0.039062 -0.144531 0.040341 38 41 44
-0.035156 -0.144531 0.045185 41 44 48
-0.031250 -0.144531 0.050188 37 40 44
-0.027344 -0.144531 0.053692 36 39 41
-0.023438 -0.144531 0.056234 37 41 40
-0.019531 -0.144531 0.058855 41 46 42
-0.015625 -0.144531 0.061499 40 47 41
-0.011719 -0.144531 0.063788 39 46 38
-0.007812 -0.144531 0.065956 42 45 38
-0.003906 -0.144531 0.068031 48 41 39
0.000000 -0.144531 0.070291 55 33 38
0.003906 -0.144531 0.072511 57 22 33
0.007812 -0.144531 0.074995 66 18 33
0.011719 -0.144531 0.077380 89 21 40
0.015625 -0.144531 0.079666 113 28 48
0.019531 -0.144531 0.081899 130 47 64
0.023438 -0.144531 0.083907 175 98 113
0.027344 -0.144531 0.085585 176 95 112
0.031250 -0.144531 0.087108 177 90 105
0.035156 -0.144531 0.088764 181 84 96
0.039062 -0.144531 0.090574 186 85 88
0.042969 -0.144531 0.092253 168 76 76
0.046875 -0.144531 0.093550 161 75 71
0.050781 -0.144531 0.095028 156 79 73
0.054688 -0.144531 0.096561 163 92 86
0.058594 -0.144531 0.097784 188 123 119
0.062500 -0.144531 0.098780 209 148 145
0.066406 -0.144531 0.099341 218 158 157
0.070312 -0.144531 0.099345 217 151 155
0.074219 -0.144531 0.099076 204 136 143
0.078125 -0.144531 0.098317 187 122 132
0.082031 -0.144531 0.097153 172 99 113
0.085938 -0.144531 0.095860 160 79 95
0.089844 -0.144531 0.094960 131 62 76
0.093750 -0.144531 0.094134 95 47 58
0.097656 -0.144531 0.093485 78 42 51
0.101562 -0.144531 0.093518 70 46 52
0.105469 -0.144531 0.093438 58 52 51
0.109375 -0.144531 0.093295 47 52 48
0.113281 -0.144531 0.093484 40 51 47
0.117188 -0.144531 0.093185 40 53 51
0.121094 -0.144531 0.092534 40 55 55
0.125000 -0.144531 0.091714 38 52 54
0.128906 -0.144531 0.090397 39 52 56
0.132812 -0.144531 0.088417 39 52 57
0.136719 -0.144531 0.086259 41 53 58
0.140625 -0.144531 0.084033 43 55 59
0.144531 -0.144531 0.081781 44 55 59
0.148438 -0.144531 0.079218 45 55 57
0.152344 -0.144531 0.076602 43 51 53
0.156250 -0.144531 0.074057 42 49 51
0.160156 -0.144531 0.070452 45 50 52
0.164062 -0.144531 0.066411 42 47 49
0.167969 -0.144531 0.062307 39 44 48
0.171875 -0.144531 0.057332 46 51 55
0.175781 -0.144531 0.048677 37 38 42
0.179688 -0.144531 0.028523 4 3 6
-0.050781 -0.148438 0.013646 67 67 61
-0.046875 -0.148438 0.028901 58 59 58
-0.042969 -0.148438 0.035947 55 59 59
-0.039062 -0.148438 0.040410 50 53 54
-0.035156 -0.148438 0.045260 47 49 53
-0.031250 -0.148438 0.050133 41 42 47
-0.027344 -0.148438 0.053607 37 38 44
-0.023438 -0.148438 0.056000 33 35 39
-0.019531 -0.148438 0.058404 34 36 38
-0.015625 -0.148438 0.060879 32 35 36
-0.011719 -0.148438 0.063045 31 34 34
-0.007812 -0.148438 0.065075 30 33 31
-0.003906 -0.148438 0.067035 28 31 30
0.000000 -0.148438 0.069253 31 31 31
0.003906 -0.148438 0.071439 33 31 32
0.007812 -0.148438 0.073854 35 30 32
0.011719 -0.148438 0.076180 40 30 32
0.015625 -0.148438 0.078375 42 29 31
0.019531 -0.148438 0.080459 39 26 26
0.023438 -0.148438 0.082319 46 30 29
0.027344 -0.148438 0.083892 70 46 39
0.031250 -0.148438 0.085351 80 51 41
0.035156 -0.148438 0.086900 82 53 38
0.039062 -0.148438 0.088566 83 55 36
0.042969 -0.148438 0.090149 87 58 36
0.046875 -0.148438 0.091343 89 62 38
0.050781 -0.148438 0.092674 80 57 35
0.054688 -0.148438 0.094111 79 59 36
0.058594 -0.148438 0.095259 83 64 42
0.062500 -0.148438 0.096169 89 69 49
0.066406 -0.148438 0.096631 97 74 56
0.070312 -0.148438 0.096630 93 66 55
0.074219 -0.148438 0.096481 78 49 47
0.078125 -0.148438 0.096088 66 41 43
0.082031 -0.148438 0.095536 63 45 44
0.085938 -0.148438 0.094848 64 52 48
0.089844 -0.148438 0.094220 57 52 46
0.093750 -0.148438 0.093527 53 53 48
0.097656 -0.148438 0.093165 55 59 53
0.101562 -0.148438 0.093412 54 62 56
0.105469 -0.148438 0.093809 54 67 61
0.109375 -0.148438 0.093889 50 65 62
0.113281 -0.148438 0.093601 46 61 60
0.117188 -0.148438 0.093047 47 62 63
0.121094 -0.148438 0.092405 47 61 64
0.125000 -0.148438 0.091635 44 57 61
0.128906 -0.148438 0.090348 45 57 62
0.132812 -0.148438 0.088380 45 57 62
0.136719 -0.148438 0.086167 48 58 63
0.140625 -0.148438 0.083887 47 56 61
0.144531 -0.148438 0.081579 46 54 58
0.148438 -0.148438 0.078889 43 50 54
0.152344 -0.148438 0.076101 37 43 46
0.156250 -0.148438 0.073468 36 41 44
0.160156 -0.148438 0.069937 39 43 45
0.164062 -0.148438 0.065997 36 40 43
0.167969 -0.148438 0.062139 38 42 46
0.171875 -0.148438 0.057534 49 53 56
0.175781 -0.148438 0.048711 50 53 56
0.179688 -0.148438 0.032194 34 32 40
-0.054688 -0.152344 -0.019948 38 37 41
-0.050781 -0.152344 0.014890 57 59 55
-0.046875 -0.152344 0.029257 45 46 48
-0.042969 -0.152344 0.036226 51 53 54
-0.039062 -0.152344 0.040564 52 53 55
-0.035156 -0.152344 0.045400 54 56 57
-0.031250 -0.152344 0.050143 53 55 57
-0.027344 -0.152344 0.053614 54 56 58
-0.023438 -0.152344 0.055937 49 51 54
-0.019531 -0.152344 0.058224 46 47 50
-0.015625 -0.152344 0.060609 42 44 46
-0.011719 -0.152344 0.062739 39 41 43
-0.007812 -0.152344 0.064680 35 37 38
-0.003906 -0.152344 0.066517 31 33 34
0.000000 -0.152344 0.068646 30 33 34
0.003906 -0.152344 0.070795 30 34 35
0.007812 -0.152344 0.073143 29 34 34
0.011719 -0.152344 0.075406 26 31 30
0.015625 -0.152344 0.077593 25 31 28
0.019531 -0.152344 0.079639 24 31 26
0.023438 -0.152344 0.081407 26 34 28
0.027344 -0.152344 0.082877 36 44 33
0.031250 -0.152344 0.084240 43 48 34
0.035156 -0.152344 0.085662 48 50 34
0.039062 -0.152344 0.087155 56 53 35
0.042969 -0.152344 0.088615 67 61 38
0.046875 -0.152344 0.089733 69 63 38
0.050781 -0.152344 0.091003 61 57 34
0.054688 -0.152344 0.092587 63 64 37
0.058594 -0.152344 0.094063 59 66 39
0.062500 -0.152344 0.095200 46 57 36
0.066406 -0.152344 0.095783 42 54 37
0.070312 -0.152344 0.095902 38 49 36
0.074219 -0.152344 0.095851 34 42 33
0.078125 -0.152344 0.095676 33 40 35
0.082031 -0.152344 0.095397 35 45 39
0.085938 -0.152344 0.094914 35 46 40
0.089844 -0.152344 0.094274 33 44 39
0.093750 -0.152344 0.093630 38 51 46
0.097656 -0.152344 0.093306 44 57 54
0.101562 -0.152344 0.093451 44 57 56
0.105469 -0.152344 0.093435 47 60 61
0.109375 -0.152344 0.093246 48 60 63
0.113281 -0.152344 0.092877 49 60 64
0.117188 -0.152344 0.092350 53 64 68
0.121094 -0.152344 0.091755 53 63 68
0.125000 -0.152344 0.090985 50 59 63
0.128906 -0.152344 0.089732 48 56 61
0.132812 -0.152344 0.087810 45 53 58
0.136719 -0.152344 0.085636 44 51 56
0.140625 -0.152344 0.083418 41 47 52
0.144531 -0.152344 0.081184 41 46 51
0.148438 -0.152344 0.078550 42 47 51
0.152344 -0.152344 0.075781 39 44 48
0.156250 -0.152344 0.073183 41 45 48
0.160156 -0.152344 0.069840 43 46 49
0.164062 -0.152344 0.065842 38 41 45
0.167969 -0.152344 0.062067 41 45 49
0.171875 -0.152344 0.057899 49 54 56
0.175781 -0.152344 0.050588 47 51 53
0.179688 -0.152344 0.037242 52 53 59
-0.054688 -0.156250 -0.015511 36 35 42
-0.050781 -0.156250 0.017293 56 58 56
-0.046875 -0.156250 0.030048 43 45 46
-0.042969 -0.156250 0.036952 46 47 49
-0.039062 -0.156250 0.041268 47 48 50
-0.035156 -0.156250 0.045970 50 51 53
-0.031250 -0.156250 0.050540 48 50 52
-0.027344 -0.156250 0.053917 51 52 54
-0.023438 -0.156250 0.056143 49 50 53
-0.019531 -0.156250 0.058355 49 50 53
-0.015625 -0.156250 0.060625 48 50 53
-0.011719 -0.156250 0.062678 47 49 52
-0.007812 -0.156250 0.064526 45 47 50
-0.003906 -0.156250 0.066249 41 43 46
0.000000 -0.156250 0.068241 40 43 46
0.003906 -0.156250 0.070282 41 45 48
0.007812 -0.156250 0.072521 42 47 50
0.011719 -0.156250 0.074663 38 44 46
0.015625 -0.156250 0.076798 36 43 43
0.019531 -0.156250 0.078785 36 44 43
0.023438 -0.156250 0.080445 36 46 43
0.027344 -0.156250 0.081777 38 48 44
0.031250 -0.156250 0.083002 37 45 40
0.035156 -0.156250 0.084324 38 44 38
0.039062 -0.156250 0.085766 40 44 36
0.042969 -0.156250 0.087225 45 48 37
0.046875 -0.156250 0.088322 44 45 34
0.050781 -0.156250 0.089580 36 38 28
0.054688 -0.156250 0.091306 39 42 32
0.058594 -0.156250 0.093026 40 47 37
0.062500 -0.156250 0.094325 36 45 37
0.066406 -0.156250 0.094953 35 45 39
0.070312 -0.156250 0.095092 33 43 39
0.074219 -0.156250 0.095077 33 43 40
0.078125 -0.156250 0.094975 36 48 46
0.082031 -0.156250 0.094755 40 53 51
0.085938 -0.156250 0.094256 41 53 52
0.089844 -0.156250 0.093615 39 51 51
0.093750 -0.156250 0.092996 42 54 56
0.097656 -0.156250 0.092653 44 56 59
0.101562 -0.156250 0.092651 43 54 57
0.105469 -0.156250 0.092505 44 53 57
0.109375 -0.156250 0.092258 43 52 56
0.113281 -0.156250 0.091916 43 51 55
0.117188 -0.156250 0.091361 44 51 56
0.121094 -0.156250 0.090751 42 48 53
0.125000 -0.156250 0.090009 40 45 50
0.128906 -0.156250 0.088806 39 44 48
0.132812 -0.156250 0.086979 39 44 49
0.136719 -0.156250 0.084915 41 46 51
0.140625 -0.156250 0.082852 40 45 50
0.144531 -0.156250 0.080777 42 47 51
0.148438 -0.156250 0.078327 44 48 53
0.152344 -0.156250 0.075747 44 47 52
0.156250 -0.156250 0.073278 46 49 53
0.160156 -0.156250 0.070129 44 47 51
0.164062 -0.156250 0.066200 41 45 49
0.167969 -0.156250 0.062366 49 53 57
0.171875 -0.156250 0.057872 53 58 60
0.175781 -0.156250 0.050618 43 48 50
0.179688 -0.156250 0.039631 40 42 48
-0.054688 -0.160156 -0.012421 33 33 42
-0.050781 -0.160156 0.019716 67 67 65
-0.046875 -0.160156 0.031601 59 59 59
-0.042969 -0.160156 0.038290 57 57 58
-0.039062 -0.160156 0.042533 56 55 57
-0.035156 -0.160156 0.047100 60 60 61
-0.031250 -0.160156 0.051548 55 55 57
-0.027344 -0.160156 0.054732 51 51 53
-0.023438 -0.160156 0.056762 45 46 50
-0.019531 -0.160156 0.058823 42 44 48
-0.015625 -0.160156 0.060857 40 41 46
-0.011719 -0.160156 0.062649 36 39 43
-0.007812 -0.160156 0.064260 35 38 42
-0.003906 -0.160156 0.065797 33 35 40
0.000000 -0.160156 0.067579 33 36 40
0.003906 -0.160156 0.069393 37 40 45
0.007812 -0.160156 0.071426 42 45 49
0.011719 -0.160156 0.073392 42 46 50
0.015625 -0.160156 0.075409 42 47 50
0.019531 -0.160156 0.077266 45 50 52
0.023438 -0.160156 0.078815 46 52 54
0.027344 -0.160156 0.080104 42 49 50
0.031250 -0.160156 0.081284 36 42 43
0.035156 -0.160156 0.082563 33 39 39
0.039062 -0.160156 0.084064 32 38 36
0.042969 -0.160156 0.085615 35 41 36
0.046875 -0.160156 0.086756 32 37 31
0.050781 -0.160156 0.088069 25 29 25
0.054688 -0.160156 0.089889 26 32 27
0.058594 -0.160156 0.091700 30 38 34
0.062500 -0.160156 0.093086 34 41 39
0.066406 -0.160156 0.093810 37 44 44
0.070312 -0.160156 0.094077 36 44 44
0.074219 -0.160156 0.094198 39 47 47
0.078125 -0.160156 0.094173 44 53 53
0.082031 -0.160156 0.093967 46 56 57
0.085938 -0.160156 0.093504 46 55 57
0.089844 -0.160156 0.092908 42 51 55
0.093750 -0.160156 0.092301 42 50 54
0.097656 -0.160156 0.091893 39 47 53
0.101562 -0.160156 0.091745 37 44 50
0.105469 -0.160156 0.091539 37 44 49
0.109375 -0.160156 0.091257 38 44 49
0.113281 -0.160156 0.090891 39 45 49
0.117188 -0.160156 0.090328 41 47 51
0.121094 -0.160156 0.089731 44 49 52
0.125000 -0.160156 0.089045 45 50 53
0.128906 -0.160156 0.087907 48 52 55
0.132812 -0.160156 0.086166 50 55 58
0.136719 -0.160156 0.084235 50 54 58
0.140625 -0.160156 0.082386 46 49 54
0.144531 -0.160156 0.080524 43 46 51
0.148438 -0.160156 0.078296 41 45 51
0.152344 -0.160156 0.075973 41 45 51
0.156250 -0.160156 0.073680 44 47 52
0.160156 -0.160156 0.070624 41 45 49
0.164062 -0.160156 0.066669 42 46 50
0.167969 -0.160156 0.062645 51 55 59
0.171875 -0.160156 0.058045 54 58 61
0.175781 -0.160156 0.050664 55 61 61
0.179688 -0.160156 0.040117 63 67 69
-0.054688 -0.164062 -0.003088 27 27 36
-0.050781 -0.164062 0.022265 56 55 55
-0.046875 -0.164062 0.033328 57 56 56
-0.042969 -0.164062 0.039626 55 55 57
-0.039062 -0.164062 0.043858 57 56 58
-0.035156 -0.164062 0.048240 64 63 64
-0.031250 -0.164062 0.052597 62 62 64
-0.027344 -0.164062 0.055629 61 61 62
-0.023438 -0.164062 0.057504 57 58 59
-0.019531 -0.164062 0.059377 53 55 58
-0.015625 -0.164062 0.061201 49 51 54
-0.011719 -0.164062 0.062750 44 46 50
-0.007812 -0.164062 0.064130 42 44 48
-0.003906 -0.164062 0.065477 37 40 44
0.000000 -0.164062 0.067019 35 37 41
0.003906 -0.164062 0.068553 35 38 41
0.007812 -0.164062 0.070306 34 37 41
0.011719 -0.164062 0.072058 34 36 41
0.015625 -0.164062 0.073922 35 37 42
0.019531 -0.164062 0.075604 37 40 44
0.023438 -0.164062 0.077026 40 43 47
0.027344 -0.164062 0.078300 38 42 46
0.031250 -0.164062 0.079518 36 40 43
0.035156 -0.164062 0.080843 36 40 42
0.039062 -0.164062 0.082408 37 42 42
0.042969 -0.164062 0.083998 44 50 47
0.046875 -0.164062 0.085167 41 46 42
0.050781 -0.164062 0.086541 33 38 35
0.054688 -0.164062 0.088439 38 44 41
0.058594 -0.164062 0.090247 42 50 47
0.062500 -0.164062 0.091547 42 48 47
0.066406 -0.164062 0.092235 41 47 47
0.070312 -0.164062 0.092541 37 42 43
0.074219 -0.164062 0.092720 37 42 43
0.078125 -0.164062 0.092755 38 43 45
0.082031 -0.164062 0.092643 37 42 45
0.085938 -0.164062 0.092351 36 41 44
0.089844 -0.164062 0.091956 34 39 44
0.093750 -0.164062 0.091537 35 39 45
0.097656 -0.164062 0.091254 35 40 46
0.101562 -0.164062 0.091147 36 41 47
0.105469 -0.164062 0.090987 40 45 50
0.109375 -0.164062 0.090736 45 51 54
0.113281 -0.164062 0.090377 48 54 57
0.117188 -0.164062 0.089786 52 58 61
0.121094 -0.164062 0.089150 57 62 64
0.125000 -0.164062 0.088436 56 62 64
0.128906 -0.164062 0.087281 56 61 63
0.132812 -0.164062 0.085557 52 57 59
0.136719 -0.164062 0.083727 46 50 54
0.140625 -0.164062 0.082110 43 46 50
0.144531 -0.164062 0.080508 41 44 49
0.148438 -0.164062 0.078490 43 46 52
0.152344 -0.164062 0.076332 45 49 55
0.156250 -0.164062 0.074141 48 52 56
0.160156 -0.164062 0.071103 45 48 52
0.164062 -0.164062 0.067112 45 49 53
0.167969 -0.164062 0.062951 48 52 56
0.171875 -0.164062 0.058181 43 48 52
0.175781 -0.164062 0.050951 50 57 57
0.179688 -0.164062 0.040743 62 66 68
0.183594 -0.164062 0.008612 1 1 3
-0.054688 -0.167969 0.005206 48 48 55
-0.050781 -0.167969 0.024741 65 64 61
-0.046875 -0.167969 0.034947 60 59 58
-0.042969 -0.167969 0.040874 59 59 59
-0.039062 -0.167969 0.045133 63 62 62
-0.035156 -0.167969 0.049224 69 67 66
-0.031250 -0.167969 0.053374 68 67 67
-0.027344 -0.167969 0.056290 65 64 65
-0.023438 -0.167969 0.058072 59 60 61
-0.019531 -0.167969 0.059813 54 56 59
-0.015625 -0.167969 0.061508 49 51 55
-0.011719 -0.167969 0.062928 46 48 52
-0.007812 -0.167969 0.064155 46 49 53
-0.003906 -0.167969 0.065344 46 48 52
0.000000 -0.167969 0.066701 46 48 52
0.003906 -0.167969 0.068046 46 48 51
0.007812 -0.167969 0.069587 42 43 47
0.011719 -0.167969 0.071163 41 42 46
0.015625 -0.167969 0.072871 40 41 45
0.019531 -0.167969 0.074377 38 39 44
0.023438 -0.167969 0.075629 38 39 44
0.027344 -0.167969 0.076781 36 38 43
0.031250 -0.167969 0.077956 36 38 42
0.035156 -0.167969 0.079247 37 40 44
0.039062 -0.167969 0.080775 38 41 44
0.042969 -0.167969 0.082344 42 46 47
0.046875 -0.167969 0.083545 38 42 43
0.050781 -0.167969 0.084941 33 37 37
0.054688 -0.167969 0.086841 43 47 45
0.058594 -0.167969 0.088597 47 51 50
0.062500 -0.167969 0.089781 43 47 46
0.066406 -0.167969 0.090431 40 42 43
0.070312 -0.167969 0.090780 35 37 39
0.074219 -0.167969 0.091038 34 36 38
0.078125 -0.167969 0.091204 35 38 40
0.082031 -0.167969 0.091310 36 39 43
0.085938 -0.167969 0.091299 36 39 44
0.089844 -0.167969 0.091170 36 40 45
0.093750 -0.167969 0.091019 39 43 48
0.097656 -0.167969 0.090972 41 46 51
0.101562 -0.167969 0.090999 44 49 54
0.105469 -0.167969 0.090916 47 52 56
0.109375 -0.167969 0.090710 51 57 60
0.113281 -0.167969 0.090347 52 58 61
0.117188 -0.167969 0.089726 52 58 60
0.121094 -0.167969 0.089072 53 59 61
0.125000 -0.167969 0.088355 51 57 59
0.128906 -0.167969 0.087206 51 56 58
0.132812 -0.167969 0.085504 48 53 56
0.136719 -0.167969 0.083750 47 51 54
0.140625 -0.167969 0.082266 49 53 55
0.144531 -0.167969 0.080777 50 53 57
0.148438 -0.167969 0.078802 49 52 57
0.152344 -0.167969 0.076635 46 50 55
0.156250 -0.167969 0.074433 44 47 52
0.160156 -0.167969 0.071418 40 43 48
0.164062 -0.167969 0.067442 42 45 49
0.167969 -0.167969 0.063262 44 47 51
0.171875 -0.167969 0.058532 39 43 47
0.175781 -0.167969 0.051132 50 57 57
0.179688 -0.167969 0.040427 65 70 71
0.183594 -0.167969 0.013062 1 1 4
-0.058594 -0.171875 -0.016286 16 14 21
-0.054688 -0.171875 0.011454 52 52 57
-0.050781 -0.171875 0.027006 64 64 61
-0.046875 -0.171875 0.036475 58 57 56
-0.042969 -0.171875 0.042120 56 55 55
-0.039062 -0.171875 0.046356 58 57 57
-0.035156 -0.171875 0.050181 61 60 60
-0.031250 -0.171875 0.054056 62 61 61
-0.027344 -0.171875 0.056843 59 58 59
-0.023438 -0.171875 0.058547 55 55 57
-0.019531 -0.171875 0.060214 52 53 56
-0.015625 -0.171875 0.061826 48 50 54
-0.011719 -0.171875 0.063163 45 47 52
-0.007812 -0.171875 0.064257 43 45 50
-0.003906 -0.171875 0.065320 42 45 49
0.000000 -0.171875 0.066535 44 47 51
0.003906 -0.171875 0.067738 47 49 52
0.007812 -0.171875 0.069152 47 49 52
0.011719 -0.171875 0.070597 49 51 54
0.015625 -0.171875 0.072179 51 53 56
0.019531 -0.171875 0.073606 48 51 55
0.023438 -0.171875 0.074795 46 48 53
0.027344 -0.171875 0.075873 41 42 48
0.031250 -0.171875 0.076973 38 40 45
0.035156 -0.171875 0.078137 39 40 44
0.039062 -0.171875 0.079543 37 40 43
0.042969 -0.171875 0.081089 42 45 47
0.046875 -0.171875 0.082291 39 43 44
0.050781 -0.171875 0.083564 32 36 37
0.054688 -0.171875 0.085261 36 38 39
0.058594 -0.171875 0.086832 35 37 38
0.062500 -0.171875 0.087977 32 34 35
0.066406 -0.171875 0.088820 32 33 35
0.070312 -0.171875 0.089484 32 34 36
0.074219 -0.171875 0.090073 36 38 40
0.078125 -0.171875 0.090508 40 44 47
0.082031 -0.171875 0.090834 45 50 54
0.085938 -0.171875 0.091009 46 52 57
0.089844 -0.171875 0.091004 47 52 58
0.093750 -0.171875 0.090917 48 54 59
0.097656 -0.171875 0.090879 49 55 59
0.101562 -0.171875 0.090837 50 55 59
0.105469 -0.171875 0.090686 49 55 58
0.109375 -0.171875 0.090477 51 57 60
0.113281 -0.171875 0.090155 52 58 60
0.117188 -0.171875 0.089614 52 58 60
0.121094 -0.171875 0.089070 55 60 63
0.125000 -0.171875 0.088461 55 60 62
0.128906 -0.171875 0.087406 56 61 63
0.132812 -0.171875 0.085768 54 59 61
0.136719 -0.171875 0.084072 53 57 59
0.140625 -0.171875 0.082633 54 57 58
0.144531 -0.171875 0.081118 50 52 56
0.148438 -0.171875 0.079081 46 48 52
0.152344 -0.171875 0.076870 41 43 49
0.156250 -0.171875 0.074645 40 43 48
0.160156 -0.171875 0.071608 39 42 46
0.164062 -0.171875 0.067631 40 43 47
0.167969 -0.171875 0.063485 42 45 49
0.171875 -0.171875 0.058871 40 44 48
0.175781 -0.171875 0.051489 54 60 61
0.179688 -0.171875 0.040369 70 75 77
0.183594 -0.171875 0.014241 2 2 5
-0.058594 -0.175781 -0.008329 23 22 27
-0.054688 -0.175781 0.016686 47 48 52
-0.050781 -0.175781 0.029685 65 66 63
-0.046875 -0.175781 0.038347 63 62 61
-0.042969 -0.175781 0.043566 61 60 59
-0.039062 -0.175781 0.047633 60 59 59
-0.035156 -0.175781 0.051303 58 57 57
-0.031250 -0.175781 0.054959 56 55 56
-0.027344 -0.175781 0.057582 51 50 52
-0.023438 -0.175781 0.059141 48 47 50
-0.019531 -0.175781 0.060638 49 49 52
-0.015625 -0.175781 0.062099 52 51 55
-0.011719 -0.175781 0.063257 53 53 57
-0.007812 -0.175781 0.064157 52 52 56
-0.003906 -0.175781 0.065061 51 51 55
0.000000 -0.175781 0.066111 50 52 55
0.003906 -0.175781 0.067161 48 50 53
0.007812 -0.175781 0.068490 46 48 51
0.011719 -0.175781 0.069841 44 46 50
0.015625 -0.175781 0.071324 44 46 51
0.019531 -0.175781 0.072738 46 49 53
0.023438 -0.175781 0.073986 49 51 55
0.027344 -0.175781 0.075112 46 48 52
0.031250 -0.175781 0.076219 43 45 50
0.035156 -0.175781 0.077311 42 43 48
0.039062 -0.175781 0.078583 41 42 46
0.042969 -0.175781 0.080042 49 51 53
0.046875 -0.175781 0.081181 49 51 52
0.050781 -0.175781 0.082328 38 40 42
0.054688 -0.175781 0.083889 36 37 39
0.058594 -0.175781 0.085390 34 35 37
0.062500 -0.175781 0.086611 33 35 37
0.066406 -0.175781 0.087682 37 39 41
0.070312 -0.175781 0.088627 41 43 46
0.074219 -0.175781 0.089468 44 48 50
0.078125 -0.175781 0.090054 47 52 55
0.082031 -0.175781 0.090399 50 56 59
0.085938 -0.175781 0.090567 50 56 60
0.089844 -0.175781 0.090554 53 59 63
0.093750 -0.175781 0.090395 56 61 65
0.097656 -0.175781 0.090254 56 61 65
0.101562 -0.175781 0.090116 56 61 63
0.105469 -0.175781 0.089936 53 58 61
0.109375 -0.175781 0.089787 55 59 62
0.113281 -0.175781 0.089591 56 61 63
0.117188 -0.175781 0.089225 56 61 63
0.121094 -0.175781 0.088853 58 62 65
0.125000 -0.175781 0.088392 57 61 63
0.128906 -0.175781 0.087467 55 60 62
0.132812 -0.175781 0.085938 52 56 58
0.136719 -0.175781 0.084329 49 53 55
0.140625 -0.175781 0.082951 48 51 53
0.144531 -0.175781 0.081429 45 48 51
0.148438 -0.175781 0.079338 43 45 49
0.152344 -0.175781 0.077097 42 44 48
0.156250 -0.175781 0.074854 45 46 50
0.160156 -0.175781 0.071781 44 45 49
0.164062 -0.175781 0.067860 42 45 48
0.167969 -0.175781 0.063819 43 46 49
0.171875 -0.175781 0.059206 40 44 48
0.175781 -0.175781 0.051738 50 56 57
0.179688 -0.175781 0.040243 62 65 69
0.183594 -0.175781 0.013131 2 2 5
-0.058594 -0.179688 0.001484 34 33 37
-0.054688 -0.179688 0.021708 52 52 56
-0.050781 -0.179688 0.032845 67 69 65
-0.046875 -0.179688 0.040430 65 64 62
-0.042969 -0.179688 0.045149 67 66 64
-0.039062 -0.179688 0.049014 68 67 64
-0.035156 -0.179688 0.052525 66 65 63
-0.031250 -0.179688 0.055962 66 64 63
-0.027344 -0.179688 0.058395 60 59 60
-0.023438 -0.179688 0.059688 51 51 53
-0.019531 -0.179688 0.060958 46 46 49
-0.015625 -0.179688 0.062220 43 43 47
-0.011719 -0.179688 0.063154 43 43 47
-0.007812 -0.179688 0.063811 42 42 47
-0.003906 -0.179688 0.064485 44 44 48
0.000000 -0.179688 0.065290 48 47 50
0.003906 -0.179688 0.066150 47 47 50
0.007812 -0.179688 0.067370 48 48 50
0.011719 -0.179688 0.068640 45 46 49
0.015625 -0.179688 0.070031 42 43 47
0.019531 -0.179688 0.071403 43 44 48
0.023438 -0.179688 0.072693 46 47 51
0.027344 -0.179688 0.073894 46 48 51
0.031250 -0.179688 0.075097 46 48 52
0.035156 -0.179688 0.076255 46 48 52
0.039062 -0.179688 0.077473 43 45 48
0.042969 -0.179688 0.078785 46 48 49
0.046875 -0.179688 0.079824 42 43 45
0.050781 -0.179688 0.080967 34 35 37
0.054688 -0.179688 0.082606 35 36 39
0.058594 -0.179688 0.084242 38 40 42
0.062500 -0.179688 0.085580 42 44 47
0.066406 -0.179688 0.086712 47 50 53
0.070312 -0.179688 0.087640 50 54 56
0.074219 -0.179688 0.088387 51 55 58
0.078125 -0.179688 0.088830 52 56 59
0.082031 -0.179688 0.089017 50 54 57
0.085938 -0.179688 0.089123 47 50 54
0.089844 -0.179688 0.089149 49 53 56
0.093750 -0.179688 0.089049 50 53 56
0.097656 -0.179688 0.089009 48 51 54
0.101562 -0.179688 0.089033 48 50 53
0.105469 -0.179688 0.089053 45 48 51
0.109375 -0.179688 0.089085 47 50 53
0.113281 -0.179688 0.089073 49 52 55
0.117188 -0.179688 0.088898 48 51 55
0.121094 -0.179688 0.088666 49 52 56
0.125000 -0.179688 0.088318 50 53 56
0.128906 -0.179688 0.087505 50 54 56
0.132812 -0.179688 0.086081 50 54 56
0.136719 -0.179688 0.084573 51 54 56
0.140625 -0.179688 0.083278 51 54 56
0.144531 -0.179688 0.081779 49 52 54
0.148438 -0.179688 0.079631 46 48 51
0.152344 -0.179688 0.077320 44 46 49
0.156250 -0.179688 0.075033 44 45 49
0.160156 -0.179688 0.071926 41 42 46
0.164062 -0.179688 0.068090 40 43 46
0.167969 -0.179688 0.064190 45 48 51
0.171875 -0.179688 0.059619 42 46 49
0.175781 -0.179688 0.051898 48 54 54
0.179688 -0.179688 0.040056 62 65 68
0.183594 -0.179688 0.010314 3 3 6
-0.058594 -0.183594 0.009835 33 32 36
-0.054688 -0.183594 0.026695 44 45 50
-0.050781 -0.183594 0.035899 58 60 58
-0.046875 -0.183594 0.042468 57 58 56
-0.042969 -0.183594 0.046872 63 62 61
-0.039062 -0.183594 0.050539 63 63 61
-0.035156 -0.183594 0.053776 61 61 60
-0.031250 -0.183594 0.056949 64 64 63
-0.027344 -0.183594 0.059210 63 63 63
-0.023438 -0.183594 0.060291 58 57 59
-0.019531 -0.183594 0.061360 53 53 55
-0.015625 -0.183594 0.062484 48 48 51
-0.011719 -0.183594 0.063235 44 44 48
-0.007812 -0.183594 0.063690 39 39 44
-0.003906 -0.183594 0.064135 36 36 41
0.000000 -0.183594 0.064628 35 35 39
0.003906 -0.183594 0.065184 34 34 37
0.007812 -0.183594 0.066158 37 37 40
0.011719 -0.183594 0.067228 40 39 42
0.015625 -0.183594 0.068431 40 39 43
0.019531 -0.183594 0.069645 42 40 44
0.023438 -0.183594 0.070872 43 42 45
0.027344 -0.183594 0.072085 44 43 46
0.031250 -0.183594 0.073358 47 47 50
0.035156 -0.183594 0.074629 50 50 53
0.039062 -0.183594 0.075943 48 49 51
0.042969 -0.183594 0.077270 46 47 48
0.046875 -0.183594 0.078325 38 39 41
0.050781 -0.183594 0.079545 32 33 35
0.054688 -0.183594 0.081268 38 38 40
0.058594 -0.183594 0.082947 43 44 46
0.062500 -0.183594 0.084309 46 48 50
0.066406 -0.183594 0.085418 48 50 53
0.070312 -0.183594 0.086228 48 50 53
0.074219 -0.183594 0.086837 47 48 52
0.078125 -0.183594 0.087164 46 47 50
0.082031 -0.183594 0.087336 42 43 47
0.085938 -0.183594 0.087564 38 39 44
0.089844 -0.183594 0.087779 40 42 45
0.093750 -0.183594 0.087887 40 42 45
0.097656 -0.183594 0.088066 40 42 45
0.101562 -0.183594 0.088345 43 45 48
0.105469 -0.183594 0.088583 45 47 50
0.109375 -0.183594 0.088732 49 51 54
0.113281 -0.183594 0.088825 54 57 59
0.117188 -0.183594 0.088769 55 57 60
0.121094 -0.183594 0.088619 55 58 60
0.125000 -0.183594 0.088321 55 58 61
0.128906 -0.183594 0.087569 54 57 59
0.132812 -0.183594 0.086201 52 55 57
0.136719 -0.183594 0.084753 51 53 56
0.140625 -0.183594 0.083531 50 52 54
0.144531 -0.183594 0.082061 47 49 52
0.148438 -0.183594 0.079888 44 46 49
0.152344 -0.183594 0.077540 42 44 47
0.156250 -0.183594 0.075209 42 43 45
0.160156 -0.183594 0.072026 39 40 43
0.164062 -0.183594 0.068295 41 43 46
0.167969 -0.183594 0.064479 47 51 53
0.171875 -0.183594 0.059980 42 46 49
0.175781 -0.183594 0.052253 44 51 51
0.179688 -0.183594 0.040050 58 62 64
0.183594 -0.183594 0.004383 4 3 7
-0.062500 -0.187500 -0.014551 3 2 5
-0.058594 -0.187500 0.018257 51 53 53
-0.054688 -0.187500 0.031154 48 48 51
-0.050781 -0.187500 0.038956 60 61 60
-0.046875 -0.187500 0.044577 61 61 59
-0.042969 -0.187500 0.048622 68 67 65
-0.039062 -0.187500 0.052172 67 66 64
-0.035156 -0.187500 0.055172 62 61 60
-0.031250 -0.187500 0.058124 62 61 61
-0.027344 -0.187500 0.060168 59 59 60
-0.023438 -0.187500 0.061068 54 54 56
-0.019531 -0.187500 0.061909 54 53 55
-0.015625 -0.187500 0.062828 51 51 53
-0.011719 -0.187500 0.063393 50 49 52
-0.007812 -0.187500 0.063665 48 48 51
-0.003906 -0.187500 0.063927 45 45 49
0.000000 -0.187500 0.064180 42 42 46
0.003906 -0.187500 0.064477 36 36 40
0.007812 -0.187500 0.065169 34 33 37
0.011719 -0.187500 0.065950 33 32 36
0.015625 -0.187500 0.066874 32 30 34
0.019531 -0.187500 0.067834 32 30 34
0.023438 -0.187500 0.068870 33 31 35
0.027344 -0.187500 0.069959 34 32 36
0.031250 -0.187500 0.071145 36 35 38
0.035156 -0.187500 0.072401 39 38 40
0.039062 -0.187500 0.073830 41 41 43
0.042969 -0.187500 0.075339 44 44 45
0.046875 -0.187500 0.076570 40 41 42
0.050781 -0.187500 0.077883 36 37 37
0.054688 -0.187500 0.079548 38 38 39
0.058594 -0.187500 0.081096 38 38 39
0.062500 -0.187500 0.082400 38 38 40
0.066406 -0.187500 0.083504 38 38 41
0.070312 -0.187500 0.084345 36 35 39
0.074219 -0.187500 0.085086 34 33 37
0.078125 -0.187500 0.085634 34 34 38
0.082031 -0.187500 0.086110 34 34 39
0.085938 -0.187500 0.086666 38 39 43
0.089844 -0.187500 0.087150 45 47 50
0.093750 -0.187500 0.087448 48 50 53
0.097656 -0.187500 0.087772 50 52 54
0.101562 -0.187500 0.088186 55 57 59
0.105469 -0.187500 0.088509 58 60 62
0.109375 -0.187500 0.088650 58 60 62
0.113281 -0.187500 0.088714 60 62 64
0.117188 -0.187500 0.088668 59 61 63
0.121094 -0.187500 0.088554 58 60 62
0.125000 -0.187500 0.088283 58 60 62
0.128906 -0.187500 0.087579 54 57 59
0.132812 -0.187500 0.086250 51 53 56
0.136719 -0.187500 0.084839 49 51 53
0.140625 -0.187500 0.083680 47 49 52
0.144531 -0.187500 0.082248 45 47 50
0.148438 -0.187500 0.080074 44 46 48
0.152344 -0.187500 0.077717 42 44 46
0.156250 -0.187500 0.075355 41 43 45
0.160156 -0.187500 0.072093 40 41 43
0.164062 -0.187500 0.068448 42 44 46
0.167969 -0.187500 0.064621 46 49 51
0.171875 -0.187500 0.060277 41 45 48
0.175781 -0.187500 0.052569 45 50 50
0.179688 -0.187500 0.040239 57 61 62
-0.062500 -0.191406 -0.001526 9 8 15
-0.058594 -0.191406 0.024494 56 60 59
-0.054688 -0.191406 0.034674 46 46 48
-0.050781 -0.191406 0.041779 59 59 58
-0.046875 -0.191406 0.046729 60 60 58
-0.042969 -0.191406 0.050509 67 65 63
-0.039062 -0.191406 0.053877 67 66 64
-0.035156 -0.191406 0.056637 64 63 62
-0.031250 -0.191406 0.059391 64 63 63
-0.027344 -0.191406 0.061206 62 62 62
-0.023438 -0.191406 0.061932 57 57 59
-0.019531 -0.191406 0.062599 55 54 56
-0.015625 -0.191406 0.063320 49 49 52
-0.011719 -0.191406 0.063716 46 47 50
-0.007812 -0.191406 0.063847 48 48 51
-0.003906 -0.191406 0.063988 47 48 52
0.000000 -0.191406 0.064120 48 48 52
0.003906 -0.191406 0.064310 44 44 48
0.007812 -0.191406 0.064830 40 39 43
0.011719 -0.191406 0.065390 39 37 41
0.015625 -0.191406 0.066081 35 34 38
0.019531 -0.191406 0.066800 33 31 36
0.023438 -0.191406 0.067584 33 31 35
0.027344 -0.191406 0.068454 32 31 34
0.031250 -0.191406 0.069435 31 30 33
0.035156 -0.191406 0.070518 30 29 32
0.039062 -0.191406 0.071884 31 31 33
0.042969 -0.191406 0.073433 36 35 37
0.046875 -0.191406 0.074772 36 35 36
0.050781 -0.191406 0.076144 33 32 33
0.054688 -0.191406 0.077752 31 31 32
0.058594 -0.191406 0.079245 30 30 32
0.062500 -0.191406 0.080581 30 30 32
0.066406 -0.191406 0.081797 31 31 34
0.070312 -0.191406 0.082863 31 31 35
0.074219 -0.191406 0.083905 33 33 37
0.078125 -0.191406 0.084793 38 37 41
0.082031 -0.191406 0.085582 41 41 45
0.085938 -0.191406 0.086384 46 47 51
0.089844 -0.191406 0.087032 50 52 55
0.093750 -0.191406 0.087419 49 51 54
0.097656 -0.191406 0.087803 48 50 54
0.101562 -0.191406 0.088261 52 54 57
0.105469 -0.191406 0.088624 55 58 60
0.109375 -0.191406 0.088754 54 57 59
0.113281 -0.191406 0.088767 55 57 59
0.117188 -0.191406 0.088696 53 55 57
0.121094 -0.191406 0.088589 53 55 58
0.125000 -0.191406 0.088338 56 58 60
0.128906 -0.191406 0.087678 54 57 59
0.132812 -0.191406 0.086370 52 54 56
0.136719 -0.191406 0.084979 50 51 54
0.140625 -0.191406 0.083862 48 50 52
0.144531 -0.191406 0.082451 46 48 50
0.148438 -0.191406 0.080262 44 46 48
0.152344 -0.191406 0.077875 42 43 46
0.156250 -0.191406 0.075460 41 42 43
0.160156 -0.191406 0.072129 39 40 41
0.164062 -0.191406 0.068524 40 42 43
0.167969 -0.191406 0.064637 42 45 47
0.171875 -0.191406 0.060296 40 43 45
0.175781 -0.191406 0.052765 46 51 50
0.179688 -0.191406 0.040243 59 62 62
-0.062500 -0.195312 0.009506 19 18 26
-0.058594 -0.195312 0.028897 59 62 61
-0.054688 -0.195312 0.037915 49 48 50
-0.050781 -0.195312 0.044350 60 59 59
-0.046875 -0.195312 0.048903 62 61 59
-0.042969 -0.195312 0.052484 65 63 62
-0.039062 -0.195312 0.055582 65 63 61
-0.035156 -0.195312 0.058081 62 61 60
-0.031250 -0.195312 0.060627 62 61 61
-0.027344 -0.195312 0.062257 62 61 61
-0.023438 -0.195312 0.062863 60 59 61
-0.019531 -0.195312 0.063424 59 59 60
-0.015625 -0.195312 0.064025 55 55 57
