ply
    format ascii 1.0
    element vertex 69250
    property float x
    property float y
    property float z
    property uchar red
    property uchar green
    property uchar blue
    end_header
-0.152344 -0.464844 -0.029873 127 73 61
-0.148438 -0.464844 -0.027776 140 81 67
-0.144531 -0.464844 -0.026001 150 88 73
-0.140625 -0.464844 -0.024074 157 93 77
-0.136719 -0.464844 -0.023225 161 96 79
-0.132812 -0.464844 -0.023459 157 93 76
-0.128906 -0.464844 -0.023836 152 89 73
-0.125000 -0.464844 -0.024082 152 89 73
-0.121094 -0.464844 -0.024946 152 89 72
-0.117188 -0.464844 -0.026707 151 87 70
-0.113281 -0.464844 -0.028770 147 83 66
-0.109375 -0.464844 -0.030792 141 79 63
-0.105469 -0.464844 -0.033373 137 76 61
-0.101562 -0.464844 -0.036880 126 71 59
-0.097656 -0.464844 -0.041003 122 73 60
-0.093750 -0.464844 -0.046839 107 67 53
-0.089844 -0.464844 -0.053774 169 129 108
-0.023438 -0.464844 -0.023886 78 48 38
-0.019531 -0.464844 -0.013564 109 60 48
-0.015625 -0.464844 -0.003150 136 78 64
-0.011719 -0.464844 0.002397 135 79 65
-0.007812 -0.464844 0.006065 133 75 62
-0.003906 -0.464844 0.009790 149 85 71
0.000000 -0.464844 0.013093 154 87 73
0.003906 -0.464844 0.015296 162 92 78
0.007812 -0.464844 0.016562 170 99 83
0.011719 -0.464844 0.017495 171 101 83
0.015625 -0.464844 0.018262 169 101 82
0.019531 -0.464844 0.018521 172 104 85
0.023438 -0.464844 0.018167 179 112 93
0.027344 -0.464844 0.017536 183 118 98
0.031250 -0.464844 0.016633 184 119 100
0.035156 -0.464844 0.014810 181 117 99
0.039062 -0.464844 0.011675 185 120 102
0.042969 -0.464844 0.008091 182 114 95
0.046875 -0.464844 0.004161 171 98 81
0.050781 -0.464844 -0.001561 165 86 69
0.054688 -0.464844 -0.008807 145 71 55
0.058594 -0.464844 -0.020244 119 59 50
-0.167969 -0.468750 -0.061072 119 75 74
-0.164062 -0.468750 -0.047805 136 82 74
-0.160156 -0.468750 -0.039705 143 86 70
-0.156250 -0.468750 -0.034654 130 74 61
-0.152344 -0.468750 -0.031241 128 73 60
-0.148438 -0.468750 -0.029027 140 81 66
-0.144531 -0.468750 -0.027162 150 88 72
-0.140625 -0.468750 -0.025192 157 93 77
-0.136719 -0.468750 -0.024291 162 97 80
-0.132812 -0.468750 -0.024464 161 96 79
-0.128906 -0.468750 -0.024810 156 92 76
-0.125000 -0.468750 -0.025039 154 90 74
-0.121094 -0.468750 -0.025893 153 89 72
-0.117188 -0.468750 -0.027630 151 86 70
-0.113281 -0.468750 -0.029661 150 85 68
-0.109375 -0.468750 -0.031642 145 81 64
-0.105469 -0.468750 -0.034174 142 80 64
-0.101562 -0.468750 -0.037787 128 73 60
-0.097656 -0.468750 -0.041880 126 76 61
-0.093750 -0.468750 -0.047770 106 67 51
-0.089844 -0.468750 -0.054283 112 76 65
-0.023438 -0.468750 -0.026359 80 51 40
-0.019531 -0.468750 -0.012799 116 67 51
-0.015625 -0.468750 -0.003114 137 80 64
-0.011719 -0.468750 0.002133 134 78 64
-0.007812 -0.468750 0.005625 132 74 61
-0.003906 -0.468750 0.009207 150 85 71
0.000000 -0.468750 0.012454 157 89 75
0.003906 -0.468750 0.014620 166 95 80
0.007812 -0.468750 0.015831 171 100 84
0.011719 -0.468750 0.016727 170 100 82
0.015625 -0.468750 0.017482 170 101 82
0.019531 -0.468750 0.017723 175 107 88
0.023438 -0.468750 0.017332 181 115 95
0.027344 -0.468750 0.016667 183 119 99
0.031250 -0.468750 0.015732 183 120 101
0.035156 -0.468750 0.013883 181 117 99
0.039062 -0.468750 0.010711 185 120 101
0.042969 -0.468750 0.007075 180 111 93
0.046875 -0.468750 0.003054 170 97 79
0.050781 -0.468750 -0.002738 167 87 70
0.054688 -0.468750 -0.010167 147 71 55
0.058594 -0.468750 -0.021953 124 61 52
-0.167969 -0.472656 -0.063912 138 96 89
-0.164062 -0.472656 -0.050115 143 91 80
-0.160156 -0.472656 -0.041273 143 85 70
-0.156250 -0.472656 -0.036049 131 74 61
-0.152344 -0.472656 -0.032650 129 73 60
-0.148438 -0.472656 -0.030390 141 81 67
-0.144531 -0.472656 -0.028460 151 88 73
-0.140625 -0.472656 -0.026420 157 93 76
-0.136719 -0.472656 -0.025438 163 98 80
-0.132812 -0.472656 -0.025547 163 99 81
-0.128906 -0.472656 -0.025852 159 95 78
-0.125000 -0.472656 -0.026059 156 92 75
-0.121094 -0.472656 -0.026909 152 88 72
-0.117188 -0.472656 -0.028639 150 85 69
-0.113281 -0.472656 -0.030654 150 84 67
-0.109375 -0.472656 -0.032605 144 80 63
-0.105469 -0.472656 -0.035028 140 78 63
-0.101562 -0.472656 -0.038615 128 72 59
-0.097656 -0.472656 -0.042671 131 78 62
-0.093750 -0.472656 -0.048194 127 80 62
-0.089844 -0.472656 -0.054418 113 74 63
-0.023438 -0.472656 -0.027861 84 54 44
-0.019531 -0.472656 -0.012213 126 75 57
-0.015625 -0.472656 -0.003058 138 80 63
-0.011719 -0.472656 0.001898 134 77 63
-0.007812 -0.472656 0.005167 135 76 62
-0.003906 -0.472656 0.008613 152 86 72
0.000000 -0.472656 0.011833 162 93 78
0.003906 -0.472656 0.013969 169 98 82
0.007812 -0.472656 0.015143 171 99 83
0.011719 -0.472656 0.016030 171 101 83
0.015625 -0.472656 0.016783 176 106 87
0.019531 -0.472656 0.016994 181 113 93
0.023438 -0.472656 0.016546 184 118 98
0.027344 -0.472656 0.015836 185 121 101
0.031250 -0.472656 0.014865 185 121 102
0.035156 -0.472656 0.012978 182 118 100
0.039062 -0.472656 0.009765 186 121 102
0.042969 -0.472656 0.006084 180 111 92
0.046875 -0.472656 0.002001 173 99 81
0.050781 -0.472656 -0.003894 170 89 71
0.054688 -0.472656 -0.011549 146 69 53
0.058594 -0.472656 -0.023596 124 61 51
-0.167969 -0.476562 -0.066497 150 117 102
-0.164062 -0.476562 -0.052895 154 106 93
-0.160156 -0.476562 -0.043120 145 87 73
-0.156250 -0.476562 -0.037742 133 74 62
-0.152344 -0.476562 -0.034139 132 75 61
-0.148438 -0.476562 -0.031815 142 82 67
-0.144531 -0.476562 -0.029832 151 88 72
-0.140625 -0.476562 -0.027721 158 93 77
-0.136719 -0.476562 -0.026653 163 98 80
-0.132812 -0.476562 -0.026707 163 98 80
-0.128906 -0.476562 -0.026972 159 95 78
-0.125000 -0.476562 -0.027146 157 93 76
-0.121094 -0.476562 -0.027977 154 89 73
-0.117188 -0.476562 -0.029691 152 86 70
-0.113281 -0.476562 -0.031672 153 86 68
-0.109375 -0.476562 -0.033560 148 82 65
-0.105469 -0.476562 -0.035868 142 80 64
-0.101562 -0.476562 -0.039419 130 74 60
-0.097656 -0.476562 -0.043525 127 74 60
-0.093750 -0.476562 -0.048365 125 77 60
-0.089844 -0.476562 -0.054554 120 80 67
-0.085938 -0.476562 -0.065446 118 76 71
-0.023438 -0.476562 -0.027675 92 58 47
-0.019531 -0.476562 -0.011561 138 84 64
-0.015625 -0.476562 -0.002958 138 80 63
-0.011719 -0.476562 0.001656 133 75 61
-0.007812 -0.476562 0.004705 134 74 60
-0.003906 -0.476562 0.008019 149 83 69
0.000000 -0.476562 0.011198 161 91 77
0.003906 -0.476562 0.013304 168 97 81
0.007812 -0.476562 0.014461 170 99 82
0.011719 -0.476562 0.015349 174 104 86
0.015625 -0.476562 0.016094 180 111 91
0.019531 -0.476562 0.016266 183 115 95
0.023438 -0.476562 0.015771 184 117 98
0.027344 -0.476562 0.015031 186 121 102
0.031250 -0.476562 0.014029 186 122 103
0.035156 -0.476562 0.012118 184 120 101
0.039062 -0.476562 0.008870 189 124 104
0.042969 -0.476562 0.005110 184 115 95
0.046875 -0.476562 0.000983 178 103 84
0.050781 -0.476562 -0.004959 172 90 72
0.054688 -0.476562 -0.012669 145 68 54
0.058594 -0.476562 -0.025082 126 62 53
-0.167969 -0.480469 -0.034783 48 30 32
-0.164062 -0.480469 -0.055797 133 88 79
-0.160156 -0.480469 -0.045390 151 91 75
-0.156250 -0.480469 -0.039459 135 75 62
-0.152344 -0.480469 -0.035636 133 75 62
-0.148438 -0.480469 -0.033261 141 82 66
-0.144531 -0.480469 -0.031260 151 88 72
-0.140625 -0.480469 -0.029099 158 93 76
-0.136719 -0.480469 -0.027966 163 97 79
-0.132812 -0.480469 -0.027957 162 96 79
-0.128906 -0.480469 -0.028165 159 94 77
-0.125000 -0.480469 -0.028289 157 92 75
-0.121094 -0.480469 -0.029084 154 89 72
-0.117188 -0.480469 -0.030766 151 85 69
-0.113281 -0.480469 -0.032712 151 85 67
-0.109375 -0.480469 -0.034561 147 82 64
-0.105469 -0.480469 -0.036824 142 80 63
-0.101562 -0.480469 -0.040256 134 77 62
-0.097656 -0.480469 -0.044306 127 73 58
-0.093750 -0.480469 -0.048528 123 73 56
-0.089844 -0.480469 -0.054861 134 93 73
-0.085938 -0.480469 -0.063873 129 92 79
-0.023438 -0.480469 -0.025460 72 42 37
-0.019531 -0.480469 -0.010821 138 82 63
-0.015625 -0.480469 -0.002955 141 80 64
-0.011719 -0.480469 0.001354 134 76 61
-0.007812 -0.480469 0.004276 137 76 62
-0.003906 -0.480469 0.007459 148 82 68
0.000000 -0.480469 0.010587 164 93 78
0.003906 -0.480469 0.012668 172 100 84
0.007812 -0.480469 0.013809 172 101 84
0.011719 -0.480469 0.014681 177 107 89
0.015625 -0.480469 0.015406 182 113 93
0.019531 -0.480469 0.015555 182 115 95
0.023438 -0.480469 0.015037 184 117 98
0.027344 -0.480469 0.014276 188 122 103
0.031250 -0.480469 0.013246 188 123 104
0.035156 -0.480469 0.011316 185 120 101
0.039062 -0.480469 0.008038 190 124 104
0.042969 -0.480469 0.004150 186 115 96
0.046875 -0.480469 -0.000121 178 102 84
0.050781 -0.480469 -0.006077 172 90 72
0.054688 -0.480469 -0.013679 154 74 59
-0.167969 -0.484375 -0.023795 11 6 9
-0.164062 -0.484375 -0.058687 119 79 74
-0.160156 -0.484375 -0.047680 153 92 76
-0.156250 -0.484375 -0.041207 135 75 62
-0.152344 -0.484375 -0.037093 133 76 63
-0.148438 -0.484375 -0.034688 141 82 66
-0.144531 -0.484375 -0.032709 151 88 72
-0.140625 -0.484375 -0.030512 158 93 76
-0.136719 -0.484375 -0.029336 162 96 78
-0.132812 -0.484375 -0.029263 161 96 78
-0.128906 -0.484375 -0.029410 159 94 76
-0.125000 -0.484375 -0.029478 157 92 74
-0.121094 -0.484375 -0.030233 154 88 71
-0.117188 -0.484375 -0.031872 151 85 68
-0.113281 -0.484375 -0.033766 150 83 66
-0.109375 -0.484375 -0.035560 145 80 62
-0.105469 -0.484375 -0.037764 141 79 61
-0.101562 -0.484375 -0.041047 135 78 62
-0.097656 -0.484375 -0.044961 123 69 55
-0.093750 -0.484375 -0.048762 118 69 54
-0.089844 -0.484375 -0.054638 147 102 78
-0.085938 -0.484375 -0.063076 147 108 84
-0.023438 -0.484375 -0.022865 67 39 37
-0.019531 -0.484375 -0.010151 132 77 60
-0.015625 -0.484375 -0.003105 140 79 64
-0.011719 -0.484375 0.001048 134 76 62
-0.007812 -0.484375 0.003885 140 78 64
-0.003906 -0.484375 0.006896 149 83 69
0.000000 -0.484375 0.009971 166 95 80
0.003906 -0.484375 0.012036 175 104 87
0.007812 -0.484375 0.013160 173 103 86
0.011719 -0.484375 0.014004 177 108 90
0.015625 -0.484375 0.014707 181 113 94
0.019531 -0.484375 0.014841 182 115 96
0.023438 -0.484375 0.014310 185 119 100
0.027344 -0.484375 0.013539 189 124 105
0.031250 -0.484375 0.012501 189 124 105
0.035156 -0.484375 0.010561 186 121 102
0.039062 -0.484375 0.007266 190 123 104
0.042969 -0.484375 0.003310 184 112 94
0.046875 -0.484375 -0.001111 175 98 81
0.050781 -0.484375 -0.007117 172 90 73
0.054688 -0.484375 -0.014786 152 72 56
-0.167969 -0.488281 -0.027359 11 7 10
-0.164062 -0.488281 -0.060634 133 95 89
-0.160156 -0.488281 -0.049355 150 90 74
-0.156250 -0.488281 -0.042934 135 75 62
-0.152344 -0.488281 -0.038527 135 78 64
-0.148438 -0.488281 -0.036097 141 82 66
-0.144531 -0.488281 -0.034140 151 88 72
-0.140625 -0.488281 -0.031947 157 93 75
-0.136719 -0.488281 -0.030728 163 97 78
-0.132812 -0.488281 -0.030586 162 97 78
-0.128906 -0.488281 -0.030668 160 95 77
-0.125000 -0.488281 -0.030671 158 93 75
-0.121094 -0.488281 -0.031383 155 89 71
-0.117188 -0.488281 -0.032968 153 86 69
-0.113281 -0.488281 -0.034784 151 85 67
-0.109375 -0.488281 -0.036515 147 82 63
-0.105469 -0.488281 -0.038646 143 80 62
-0.101562 -0.488281 -0.041852 138 79 63
-0.097656 -0.488281 -0.045638 122 68 55
-0.093750 -0.488281 -0.049273 118 67 56
-0.089844 -0.488281 -0.054445 139 91 74
-0.085938 -0.488281 -0.063388 111 77 62
-0.027344 -0.488281 -0.019981 104 82 84
-0.023438 -0.488281 -0.019794 105 68 60
-0.019531 -0.488281 -0.009454 138 83 67
-0.015625 -0.488281 -0.003371 146 85 69
-0.011719 -0.488281 0.000778 137 78 64
-0.007812 -0.488281 0.003589 144 82 67
-0.003906 -0.488281 0.006419 150 84 70
0.000000 -0.488281 0.009377 167 97 81
0.003906 -0.488281 0.011408 177 107 89
0.007812 -0.488281 0.012512 175 105 88
0.011719 -0.488281 0.013336 178 110 92
0.015625 -0.488281 0.014020 182 114 95
0.019531 -0.488281 0.014143 182 116 96
0.023438 -0.488281 0.013605 185 119 100
0.027344 -0.488281 0.012833 189 124 105
0.031250 -0.488281 0.011794 190 125 106
0.035156 -0.488281 0.009837 187 122 103
0.039062 -0.488281 0.006519 191 124 104
0.042969 -0.488281 0.002525 184 111 93
0.046875 -0.488281 -0.002048 177 99 82
0.050781 -0.488281 -0.008217 176 92 75
0.054688 -0.488281 -0.015983 150 71 55
-0.167969 -0.492188 -0.026356 10 6 9
-0.164062 -0.492188 -0.062778 131 95 86
-0.160156 -0.492188 -0.051162 144 88 70
-0.156250 -0.492188 -0.044541 136 78 63
-0.152344 -0.492188 -0.040078 139 81 67
-0.148438 -0.492188 -0.037563 144 84 68
-0.144531 -0.492188 -0.035608 152 89 72
-0.140625 -0.492188 -0.033387 158 93 76
-0.136719 -0.492188 -0.032127 164 98 79
-0.132812 -0.492188 -0.031925 163 97 79
-0.128906 -0.492188 -0.031953 162 96 78
-0.125000 -0.492188 -0.031902 159 93 76
-0.121094 -0.492188 -0.032566 155 89 71
-0.117188 -0.492188 -0.034093 153 86 69
-0.113281 -0.492188 -0.035835 151 85 66
-0.109375 -0.492188 -0.037533 147 81 62
-0.105469 -0.492188 -0.039605 143 80 60
-0.101562 -0.492188 -0.042658 138 79 62
-0.097656 -0.492188 -0.046288 128 73 59
-0.093750 -0.492188 -0.049935 126 73 61
-0.089844 -0.492188 -0.054668 125 77 67
-0.085938 -0.492188 -0.063360 95 67 63
-0.027344 -0.492188 -0.022735 153 126 117
-0.023438 -0.492188 -0.018446 109 68 59
-0.019531 -0.492188 -0.008970 134 80 64
-0.015625 -0.492188 -0.003561 145 85 69
-0.011719 -0.492188 0.000374 137 78 64
-0.007812 -0.492188 0.003227 149 86 70
-0.003906 -0.492188 0.005953 152 86 71
0.000000 -0.492188 0.008808 167 97 81
0.003906 -0.492188 0.010800 178 108 89
0.007812 -0.492188 0.011887 176 108 89
0.011719 -0.492188 0.012691 179 112 93
0.015625 -0.492188 0.013347 181 114 95
0.019531 -0.492188 0.013460 183 117 97
0.023438 -0.492188 0.012915 188 123 103
0.027344 -0.492188 0.012132 191 126 106
0.031250 -0.492188 0.011074 190 126 106
0.035156 -0.492188 0.009112 188 122 104
0.039062 -0.492188 0.005819 190 122 103
0.042969 -0.492188 0.001727 184 110 93
0.046875 -0.492188 -0.003072 176 98 81
0.050781 -0.492188 -0.009192 174 90 72
0.054688 -0.492188 -0.016851 171 91 71
0.058594 -0.492188 -0.029120 170 104 89
-0.167969 -0.496094 -0.022068 14 10 14
-0.164062 -0.496094 -0.065463 132 95 86
-0.160156 -0.496094 -0.053540 142 87 70
-0.156250 -0.496094 -0.046426 137 79 65
-0.152344 -0.496094 -0.041816 140 83 67
-0.148438 -0.496094 -0.039016 147 86 70
-0.144531 -0.496094 -0.037044 154 90 73
-0.140625 -0.496094 -0.034791 160 94 77
-0.136719 -0.496094 -0.033523 165 98 80
-0.132812 -0.496094 -0.033290 164 97 80
-0.128906 -0.496094 -0.033303 162 96 78
-0.125000 -0.496094 -0.033211 158 92 75
-0.121094 -0.496094 -0.033826 153 87 70
-0.117188 -0.496094 -0.035291 152 85 68
-0.113281 -0.496094 -0.036958 151 84 66
-0.109375 -0.496094 -0.038618 146 80 61
-0.105469 -0.496094 -0.040635 141 77 58
-0.101562 -0.496094 -0.043654 136 76 60
-0.097656 -0.496094 -0.047435 129 74 60
-0.093750 -0.496094 -0.050973 124 75 62
-0.089844 -0.496094 -0.055048 122 75 65
-0.085938 -0.496094 -0.062108 175 137 119
-0.027344 -0.496094 -0.026209 119 86 87
-0.023438 -0.496094 -0.017669 91 51 48
-0.019531 -0.496094 -0.008663 133 78 63
-0.015625 -0.496094 -0.003684 142 83 68
-0.011719 -0.496094 -0.000048 134 75 62
-0.007812 -0.496094 0.002808 151 87 71
-0.003906 -0.496094 0.005472 153 86 71
0.000000 -0.496094 0.008261 164 95 78
0.003906 -0.496094 0.010220 175 106 87
0.007812 -0.496094 0.011284 175 107 89
0.011719 -0.496094 0.012049 178 111 92
0.015625 -0.496094 0.012664 179 113 94
0.019531 -0.496094 0.012753 183 116 97
0.023438 -0.496094 0.012184 188 122 102
0.027344 -0.496094 0.011385 189 125 104
0.031250 -0.496094 0.010351 189 125 105
0.035156 -0.496094 0.008431 189 123 105
0.039062 -0.496094 0.005153 190 122 103
0.042969 -0.496094 0.000920 184 110 92
0.046875 -0.496094 -0.003855 172 95 79
0.050781 -0.496094 -0.009821 168 85 70
0.054688 -0.496094 -0.017241 191 112 91
-0.167969 -0.500000 -0.017974 28 21 28
-0.164062 -0.500000 -0.067954 150 111 105
-0.160156 -0.500000 -0.056348 148 92 76
-0.156250 -0.500000 -0.048563 138 80 66
-0.152344 -0.500000 -0.043810 138 81 66
-0.148438 -0.500000 -0.040703 147 86 70
-0.144531 -0.500000 -0.038585 153 89 72
-0.140625 -0.500000 -0.036285 159 93 76
-0.136719 -0.500000 -0.034963 165 98 81
-0.132812 -0.500000 -0.034684 164 97 80
-0.128906 -0.500000 -0.034684 160 94 77
-0.125000 -0.500000 -0.034549 155 90 73
-0.121094 -0.500000 -0.035119 151 85 69
-0.117188 -0.500000 -0.036539 149 82 66
-0.113281 -0.500000 -0.038148 149 82 64
-0.109375 -0.500000 -0.039749 145 79 60
-0.105469 -0.500000 -0.041709 139 76 57
-0.101562 -0.500000 -0.044693 136 77 59
-0.097656 -0.500000 -0.048593 130 76 61
-0.093750 -0.500000 -0.052078 128 78 65
-0.089844 -0.500000 -0.055754 121 72 61
-0.085938 -0.500000 -0.061991 173 127 104
-0.027344 -0.500000 -0.027638 117 80 82
-0.023438 -0.500000 -0.016696 103 59 56
-0.019531 -0.500000 -0.008423 143 86 72
-0.015625 -0.500000 -0.003858 145 86 71
-0.011719 -0.500000 -0.000435 136 77 64
-0.007812 -0.500000 0.002412 153 88 71
-0.003906 -0.500000 0.005046 155 87 71
0.000000 -0.500000 0.007784 165 95 78
0.003906 -0.500000 0.009704 175 106 87
0.007812 -0.500000 0.010734 176 108 90
0.011719 -0.500000 0.011452 178 112 93
0.015625 -0.500000 0.012009 180 113 94
0.019531 -0.500000 0.012048 181 115 95
0.023438 -0.500000 0.011439 183 117 97
0.027344 -0.500000 0.010632 183 118 98
0.031250 -0.500000 0.009636 187 123 103
0.035156 -0.500000 0.007737 189 124 105
0.039062 -0.500000 0.004460 191 122 103
0.042969 -0.500000 0.000189 182 106 89
0.046875 -0.500000 -0.004521 170 92 76
0.050781 -0.500000 -0.010764 170 88 73
0.054688 -0.500000 -0.019155 185 106 88
-0.164062 -0.503906 -0.073135 140 108 106
-0.160156 -0.503906 -0.059915 142 89 75
-0.156250 -0.503906 -0.050408 140 82 68
-0.152344 -0.503906 -0.045767 140 82 67
-0.148438 -0.503906 -0.042486 148 86 69
-0.144531 -0.503906 -0.040238 151 87 71
-0.140625 -0.503906 -0.037886 156 90 74
-0.136719 -0.503906 -0.036480 164 97 80
-0.132812 -0.503906 -0.036138 162 96 79
-0.128906 -0.503906 -0.036103 159 93 77
-0.125000 -0.503906 -0.035915 156 90 74
-0.121094 -0.503906 -0.036450 153 87 71
-0.117188 -0.503906 -0.037841 149 82 66
-0.113281 -0.503906 -0.039411 148 81 63
-0.109375 -0.503906 -0.040980 146 79 60
-0.105469 -0.503906 -0.042942 139 76 57
-0.101562 -0.503906 -0.045822 139 78 60
-0.097656 -0.503906 -0.049510 131 76 61
-0.093750 -0.503906 -0.053060 136 81 67
-0.089844 -0.503906 -0.057072 128 74 61
-0.085938 -0.503906 -0.063278 122 78 63
-0.027344 -0.503906 -0.027487 106 70 69
-0.023438 -0.503906 -0.016134 108 64 58
-0.019531 -0.503906 -0.008296 138 83 69
-0.015625 -0.503906 -0.004026 139 81 67
-0.011719 -0.503906 -0.000736 133 75 63
-0.007812 -0.503906 0.002076 148 84 68
-0.003906 -0.503906 0.004690 157 89 72
0.000000 -0.503906 0.007417 168 98 79
0.003906 -0.503906 0.009292 175 107 87
0.007812 -0.503906 0.010269 178 111 92
0.011719 -0.503906 0.010923 180 114 95
0.015625 -0.503906 0.011407 181 114 95
0.019531 -0.503906 0.011395 183 117 97
0.023438 -0.503906 0.010747 183 118 98
0.027344 -0.503906 0.009922 183 119 98
0.031250 -0.503906 0.008929 187 124 103
0.035156 -0.503906 0.007003 190 125 106
0.039062 -0.503906 0.003762 191 121 103
0.042969 -0.503906 -0.000389 179 102 85
0.046875 -0.503906 -0.005433 168 88 71
0.050781 -0.503906 -0.011877 175 96 78
0.054688 -0.503906 -0.021813 157 87 74
-0.164062 -0.507812 -0.071325 161 137 136
-0.160156 -0.507812 -0.063989 146 95 83
-0.156250 -0.507812 -0.052688 138 79 67
-0.152344 -0.507812 -0.047629 142 81 67
-0.148438 -0.507812 -0.044262 149 86 69
-0.144531 -0.507812 -0.041841 151 87 70
-0.140625 -0.507812 -0.039533 154 89 73
-0.136719 -0.507812 -0.038058 163 96 79
-0.132812 -0.507812 -0.037651 161 95 78
-0.128906 -0.507812 -0.037560 160 94 78
-0.125000 -0.507812 -0.037314 159 93 77
-0.121094 -0.507812 -0.037826 156 89 73
-0.117188 -0.507812 -0.039195 148 81 66
-0.113281 -0.507812 -0.040733 147 80 63
-0.109375 -0.507812 -0.042280 146 79 61
-0.105469 -0.507812 -0.044261 139 76 57
-0.101562 -0.507812 -0.047088 140 79 60
-0.097656 -0.507812 -0.050646 130 76 60
-0.093750 -0.507812 -0.054094 131 78 63
-0.089844 -0.507812 -0.058202 132 76 62
-0.085938 -0.507812 -0.064588 129 80 65
-0.082031 -0.507812 -0.072578 151 106 95
-0.027344 -0.507812 -0.027177 104 66 64
-0.023438 -0.507812 -0.016018 121 72 64
-0.019531 -0.507812 -0.008324 139 84 70
-0.015625 -0.507812 -0.004203 138 81 68
-0.011719 -0.507812 -0.000987 136 78 65
-0.007812 -0.507812 0.001786 148 84 68
-0.003906 -0.507812 0.004369 160 91 74
0.000000 -0.507812 0.007085 170 101 81
0.003906 -0.507812 0.008919 177 108 88
0.007812 -0.507812 0.009845 181 114 95
0.011719 -0.507812 0.010439 182 116 97
0.015625 -0.507812 0.010853 181 115 96
0.019531 -0.507812 0.010790 185 120 99
0.023438 -0.507812 0.010099 186 122 100
0.027344 -0.507812 0.009242 185 122 100
0.031250 -0.507812 0.008239 187 124 103
0.035156 -0.507812 0.006281 189 124 104
0.039062 -0.507812 0.002998 190 121 102
0.042969 -0.507812 -0.001138 177 100 83
0.046875 -0.507812 -0.006458 165 86 67
0.050781 -0.507812 -0.013116 175 97 77
0.054688 -0.507812 -0.023453 149 81 76
-0.164062 -0.511719 -0.018589 180 162 162
-0.160156 -0.511719 -0.065990 164 115 101
-0.156250 -0.511719 -0.055453 137 79 68
-0.152344 -0.511719 -0.049397 138 78 66
-0.148438 -0.511719 -0.046188 148 85 69
-0.144531 -0.511719 -0.043480 151 87 71
-0.140625 -0.511719 -0.041201 154 89 73
-0.136719 -0.511719 -0.039649 162 96 78
-0.132812 -0.511719 -0.039167 162 96 79
-0.128906 -0.511719 -0.039027 162 96 79
-0.125000 -0.511719 -0.038729 160 94 78
-0.121094 -0.511719 -0.039224 156 89 73
-0.117188 -0.511719 -0.040566 150 82 67
-0.113281 -0.511719 -0.042070 147 80 63
-0.109375 -0.511719 -0.043590 147 80 62
-0.105469 -0.511719 -0.045576 141 78 59
-0.101562 -0.511719 -0.048328 144 82 63
-0.097656 -0.511719 -0.051795 136 80 62
-0.093750 -0.511719 -0.055169 129 77 62
-0.089844 -0.511719 -0.059094 128 71 59
-0.085938 -0.511719 -0.065755 134 78 64
-0.082031 -0.511719 -0.074205 148 101 90
-0.027344 -0.511719 -0.026476 102 62 58
-0.023438 -0.511719 -0.016204 131 80 69
-0.019531 -0.511719 -0.008414 140 85 71
-0.015625 -0.511719 -0.004360 138 81 68
-0.011719 -0.511719 -0.001224 139 80 67
-0.007812 -0.511719 0.001500 148 84 68
-0.003906 -0.511719 0.004039 161 92 74
0.000000 -0.511719 0.006728 172 102 82
0.003906 -0.511719 0.008526 177 108 88
0.007812 -0.511719 0.009418 182 115 95
0.011719 -0.511719 0.009977 182 116 96
0.015625 -0.511719 0.010343 182 115 95
0.019531 -0.511719 0.010231 185 120 99
0.023438 -0.511719 0.009490 185 121 99
0.027344 -0.511719 0.008594 184 121 99
0.031250 -0.511719 0.007571 186 122 101
0.035156 -0.511719 0.005553 188 123 103
0.039062 -0.511719 0.002187 190 120 101
0.042969 -0.511719 -0.002060 177 100 83
0.046875 -0.511719 -0.007430 160 83 66
0.050781 -0.511719 -0.014100 165 89 73
0.054688 -0.511719 -0.024287 167 97 92
-0.164062 -0.515625 -0.017262 58 50 64
-0.160156 -0.515625 -0.069088 134 90 80
-0.156250 -0.515625 -0.057627 136 80 68
-0.152344 -0.515625 -0.051173 135 78 65
-0.148438 -0.515625 -0.047955 143 82 67
-0.144531 -0.515625 -0.045131 148 85 70
-0.140625 -0.515625 -0.042823 153 89 73
-0.136719 -0.515625 -0.041271 161 96 79
-0.132812 -0.515625 -0.040755 162 96 79
-0.128906 -0.515625 -0.040582 162 96 79
-0.125000 -0.515625 -0.040236 160 93 77
-0.121094 -0.515625 -0.040694 157 89 74
-0.117188 -0.515625 -0.041994 151 84 68
-0.113281 -0.515625 -0.043464 148 81 64
-0.109375 -0.515625 -0.044954 146 80 62
-0.105469 -0.515625 -0.046927 141 77 59
-0.101562 -0.515625 -0.049661 142 81 62
-0.097656 -0.515625 -0.053067 140 82 64
-0.093750 -0.515625 -0.056337 137 82 67
-0.089844 -0.515625 -0.060153 135 74 62
-0.085938 -0.515625 -0.066655 144 84 68
-0.082031 -0.515625 -0.075223 150 104 89
-0.027344 -0.515625 -0.026288 95 57 51
-0.023438 -0.515625 -0.016345 135 83 70
-0.019531 -0.515625 -0.008482 139 84 70
-0.015625 -0.515625 -0.004496 135 78 67
-0.011719 -0.515625 -0.001411 138 79 67
-0.007812 -0.515625 0.001245 148 84 68
-0.003906 -0.515625 0.003730 162 93 75
0.000000 -0.515625 0.006394 172 103 82
0.003906 -0.515625 0.008152 177 108 87
0.007812 -0.515625 0.009012 181 115 94
0.011719 -0.515625 0.009545 182 116 96
0.015625 -0.515625 0.009874 183 116 96
0.019531 -0.515625 0.009717 186 120 99
0.023438 -0.515625 0.008926 185 120 99
0.027344 -0.515625 0.007997 185 121 99
0.031250 -0.515625 0.006964 186 123 101
0.035156 -0.515625 0.004861 188 123 102
0.039062 -0.515625 0.001379 186 115 97
0.042969 -0.515625 -0.003004 175 98 81
0.046875 -0.515625 -0.008438 160 85 67
0.050781 -0.515625 -0.015076 163 90 72
0.054688 -0.515625 -0.025338 183 119 102
-0.160156 -0.519531 -0.072118 126 85 76
-0.156250 -0.519531 -0.059571 144 86 72
-0.152344 -0.519531 -0.052995 137 80 66
-0.148438 -0.519531 -0.049549 141 81 66
-0.144531 -0.519531 -0.046746 145 84 69
-0.140625 -0.519531 -0.044403 153 89 74
-0.136719 -0.519531 -0.042889 162 95 79
-0.132812 -0.519531 -0.042353 163 96 80
-0.128906 -0.519531 -0.042151 162 96 79
-0.125000 -0.519531 -0.041762 160 93 77
-0.121094 -0.519531 -0.042178 158 90 74
-0.117188 -0.519531 -0.043426 154 86 70
-0.113281 -0.519531 -0.044851 149 82 65
-0.109375 -0.519531 -0.046317 146 79 62
-0.105469 -0.519531 -0.048295 140 77 60
-0.101562 -0.519531 -0.050987 138 78 61
-0.097656 -0.519531 -0.054255 137 80 63
-0.093750 -0.519531 -0.057527 141 85 70
-0.089844 -0.519531 -0.061408 142 80 67
-0.085938 -0.519531 -0.067489 151 90 70
-0.082031 -0.519531 -0.076274 139 91 77
-0.027344 -0.519531 -0.026599 94 55 48
-0.023438 -0.519531 -0.016489 140 87 72
-0.019531 -0.519531 -0.008589 140 85 72
-0.015625 -0.519531 -0.004642 136 79 69
-0.011719 -0.519531 -0.001586 139 80 68
-0.007812 -0.519531 0.001009 147 83 68
-0.003906 -0.519531 0.003444 161 93 75
0.000000 -0.519531 0.006082 172 102 82
0.003906 -0.519531 0.007803 176 108 86
0.007812 -0.519531 0.008634 181 114 93
0.011719 -0.519531 0.009147 183 117 96
0.015625 -0.519531 0.009443 184 117 96
0.019531 -0.519531 0.009238 185 119 98
0.023438 -0.519531 0.008393 185 119 98
0.027344 -0.519531 0.007426 186 121 99
0.031250 -0.519531 0.006367 189 125 103
0.035156 -0.519531 0.004182 189 123 102
0.039062 -0.519531 0.000561 181 109 92
0.042969 -0.519531 -0.003937 169 93 76
0.046875 -0.519531 -0.009505 163 88 68
0.050781 -0.519531 -0.016302 165 93 73
0.054688 -0.519531 -0.026479 185 124 103
-0.160156 -0.523438 -0.074943 135 90 84
-0.156250 -0.523438 -0.061464 139 82 71
-0.152344 -0.523438 -0.054709 137 82 67
-0.148438 -0.523438 -0.051129 140 82 67
-0.144531 -0.523438 -0.048390 144 84 69
-0.140625 -0.523438 -0.046078 154 90 75
-0.136719 -0.523438 -0.044579 162 95 79
-0.132812 -0.523438 -0.043998 164 97 81
-0.128906 -0.523438 -0.043756 163 97 80
-0.125000 -0.523438 -0.043330 161 94 78
-0.121094 -0.523438 -0.043714 159 91 75
-0.117188 -0.523438 -0.044922 157 88 72
-0.113281 -0.523438 -0.046298 153 85 68
-0.109375 -0.523438 -0.047728 148 81 64
-0.105469 -0.523438 -0.049693 142 79 62
-0.101562 -0.523438 -0.052361 138 78 62
-0.097656 -0.523438 -0.055564 134 78 63
-0.093750 -0.523438 -0.058809 139 84 71
-0.089844 -0.523438 -0.062576 145 83 69
-0.085938 -0.523438 -0.068466 156 93 73
-0.082031 -0.523438 -0.077234 136 90 75
-0.027344 -0.523438 -0.027194 90 51 45
-0.023438 -0.523438 -0.016553 141 87 72
-0.019531 -0.523438 -0.008718 142 85 72
-0.015625 -0.523438 -0.004789 138 81 70
-0.011719 -0.523438 -0.001739 140 81 70
-0.007812 -0.523438 0.000797 148 84 69
-0.003906 -0.523438 0.003179 162 93 75
0.000000 -0.523438 0.005794 173 103 82
0.003906 -0.523438 0.007486 178 109 87
0.007812 -0.523438 0.008289 182 115 93
0.011719 -0.523438 0.008774 184 118 97
0.015625 -0.523438 0.009037 184 117 96
0.019531 -0.523438 0.008788 185 118 97
0.023438 -0.523438 0.007888 185 119 98
0.027344 -0.523438 0.006861 187 122 100
0.031250 -0.523438 0.005750 193 128 106
0.035156 -0.523438 0.003483 192 126 104
0.039062 -0.523438 -0.000234 180 108 91
0.042969 -0.523438 -0.004840 167 92 74
0.046875 -0.523438 -0.010550 160 87 66
0.050781 -0.523438 -0.017349 157 88 69
0.054688 -0.523438 -0.027215 172 116 96
-0.160156 -0.527344 -0.076539 118 73 72
-0.156250 -0.527344 -0.063703 127 73 67
-0.152344 -0.527344 -0.056598 142 87 71
-0.148438 -0.527344 -0.052811 142 84 68
-0.144531 -0.527344 -0.050077 142 82 68
-0.140625 -0.527344 -0.047717 152 89 74
-0.136719 -0.527344 -0.046229 160 93 78
-0.132812 -0.527344 -0.045655 164 97 80
-0.128906 -0.527344 -0.045350 164 97 80
-0.125000 -0.527344 -0.044874 162 94 78
-0.121094 -0.527344 -0.045231 158 90 74
-0.117188 -0.527344 -0.046416 155 87 71
-0.113281 -0.527344 -0.047764 154 86 69
-0.109375 -0.527344 -0.049154 147 81 65
-0.105469 -0.527344 -0.051067 139 77 61
-0.101562 -0.527344 -0.053733 135 76 61
-0.097656 -0.527344 -0.056989 129 75 62
-0.093750 -0.527344 -0.060181 138 83 70
-0.089844 -0.527344 -0.063797 147 86 71
-0.085938 -0.527344 -0.069732 162 99 78
-0.082031 -0.527344 -0.077575 152 105 88
-0.027344 -0.527344 -0.027983 89 50 44
-0.023438 -0.527344 -0.016594 141 87 71
-0.019531 -0.527344 -0.008904 143 86 72
-0.015625 -0.527344 -0.004970 140 82 72
-0.011719 -0.527344 -0.001914 141 82 71
-0.007812 -0.527344 0.000597 148 84 69
-0.003906 -0.527344 0.002950 162 93 75
0.000000 -0.527344 0.005541 173 102 81
0.003906 -0.527344 0.007204 178 108 86
0.007812 -0.527344 0.007978 181 113 91
0.011719 -0.527344 0.008432 184 117 96
0.015625 -0.527344 0.008658 184 117 96
0.019531 -0.527344 0.008354 185 118 98
0.023438 -0.527344 0.007382 186 120 99
0.027344 -0.527344 0.006265 186 120 99
0.031250 -0.527344 0.005082 191 126 103
0.035156 -0.527344 0.002743 189 122 100
0.039062 -0.527344 -0.001041 176 105 87
0.042969 -0.527344 -0.005753 162 88 71
0.046875 -0.527344 -0.011498 155 83 63
0.050781 -0.527344 -0.018213 151 85 66
0.054688 -0.527344 -0.027776 163 111 92
-0.160156 -0.531250 -0.078226 108 64 65
-0.156250 -0.531250 -0.066329 123 71 64
-0.152344 -0.531250 -0.058599 145 89 71
-0.148438 -0.531250 -0.054712 141 83 67
-0.144531 -0.531250 -0.051890 141 82 68
-0.140625 -0.531250 -0.049411 152 89 74
-0.136719 -0.531250 -0.047903 159 93 78
-0.132812 -0.531250 -0.047323 165 97 81
-0.128906 -0.531250 -0.046971 165 97 81
-0.125000 -0.531250 -0.046458 163 95 79
-0.121094 -0.531250 -0.046790 158 90 74
-0.117188 -0.531250 -0.047949 154 86 70
-0.113281 -0.531250 -0.049271 154 86 69
-0.109375 -0.531250 -0.050642 147 81 65
-0.105469 -0.531250 -0.052511 137 76 61
-0.101562 -0.531250 -0.055104 134 76 61
-0.097656 -0.531250 -0.058317 130 77 63
-0.093750 -0.531250 -0.061473 140 86 71
-0.089844 -0.531250 -0.064923 142 83 66
-0.085938 -0.531250 -0.070683 148 88 70
-0.082031 -0.531250 -0.078185 145 96 85
-0.027344 -0.531250 -0.028730 89 50 43
-0.023438 -0.531250 -0.016634 142 87 71
-0.019531 -0.531250 -0.009140 143 85 72
-0.015625 -0.531250 -0.005199 139 81 71
-0.011719 -0.531250 -0.002126 140 81 70
-0.007812 -0.531250 0.000384 148 84 69
-0.003906 -0.531250 0.002724 162 93 75
0.000000 -0.531250 0.005302 172 101 80
0.003906 -0.531250 0.006953 177 107 85
0.007812 -0.531250 0.007704 180 112 90
0.011719 -0.531250 0.008126 184 117 96
0.015625 -0.531250 0.008312 184 117 97
0.019531 -0.531250 0.007945 185 118 98
0.023438 -0.531250 0.006895 185 118 98
0.027344 -0.531250 0.005679 183 117 96
0.031250 -0.531250 0.004400 186 120 98
0.035156 -0.531250 0.001982 185 117 96
0.039062 -0.531250 -0.001830 175 104 85
0.042969 -0.531250 -0.006548 162 89 71
0.046875 -0.531250 -0.012310 154 84 63
0.050781 -0.531250 -0.019045 150 86 66
0.054688 -0.531250 -0.028456 161 110 91
-0.160156 -0.535156 -0.081677 123 81 77
-0.156250 -0.535156 -0.069307 132 81 70
-0.152344 -0.535156 -0.060564 144 87 70
-0.148438 -0.535156 -0.056745 140 82 67
-0.144531 -0.535156 -0.053635 143 84 71
-0.140625 -0.535156 -0.051145 154 91 76
-0.136719 -0.535156 -0.049628 161 94 79
-0.132812 -0.535156 -0.048981 165 97 81
-0.128906 -0.535156 -0.048591 165 97 80
-0.125000 -0.535156 -0.048035 162 94 79
-0.121094 -0.535156 -0.048339 158 90 75
-0.117188 -0.535156 -0.049459 154 86 70
-0.113281 -0.535156 -0.050753 156 87 70
-0.109375 -0.535156 -0.052093 149 82 66
-0.105469 -0.535156 -0.053927 137 76 62
-0.101562 -0.535156 -0.056511 136 78 63
-0.097656 -0.535156 -0.059829 133 78 65
-0.093750 -0.535156 -0.062936 138 83 68
-0.089844 -0.535156 -0.066018 133 77 60
-0.085938 -0.535156 -0.071074 145 87 71
-0.027344 -0.535156 -0.029077 90 50 43
-0.023438 -0.535156 -0.016675 143 87 71
-0.019531 -0.535156 -0.009386 143 85 71
-0.015625 -0.535156 -0.005454 137 79 69
-0.011719 -0.535156 -0.002358 138 79 68
-0.007812 -0.535156 0.000158 149 84 70
-0.003906 -0.535156 0.002490 163 94 75
0.000000 -0.535156 0.005061 173 101 81
0.003906 -0.535156 0.006717 178 108 86
0.007812 -0.535156 0.007454 181 113 91
0.011719 -0.535156 0.007840 184 117 96
0.015625 -0.535156 0.007985 185 118 97
0.019531 -0.535156 0.007557 185 118 99
0.023438 -0.535156 0.006434 184 118 98
0.027344 -0.535156 0.005125 183 117 96
0.031250 -0.535156 0.003754 185 119 97
0.035156 -0.535156 0.001264 183 116 94
0.039062 -0.535156 -0.002543 176 105 85
0.042969 -0.535156 -0.007184 167 93 74
0.046875 -0.535156 -0.012998 158 87 65
0.050781 -0.535156 -0.019808 150 87 67
0.054688 -0.535156 -0.029025 160 111 91
-0.160156 -0.539062 -0.063027 139 103 88
-0.156250 -0.539062 -0.072729 142 95 80
-0.152344 -0.539062 -0.062947 142 89 73
-0.148438 -0.539062 -0.058889 137 80 67
-0.144531 -0.539062 -0.055332 142 83 70
-0.140625 -0.539062 -0.052849 153 90 75
-0.136719 -0.539062 -0.051328 160 94 79
-0.132812 -0.539062 -0.050640 164 96 81
-0.128906 -0.539062 -0.050227 163 95 79
-0.125000 -0.539062 -0.049646 159 92 77
-0.121094 -0.539062 -0.049915 157 89 74
-0.117188 -0.539062 -0.050988 154 86 70
-0.113281 -0.539062 -0.052243 155 86 70
-0.109375 -0.539062 -0.053545 149 82 67
-0.105469 -0.539062 -0.055380 137 76 62
-0.101562 -0.539062 -0.058027 136 78 63
-0.097656 -0.539062 -0.061449 131 76 63
-0.093750 -0.539062 -0.064476 131 78 63
-0.089844 -0.539062 -0.067569 136 79 62
-0.085938 -0.539062 -0.072938 164 106 86
-0.027344 -0.539062 -0.028883 90 50 43
-0.023438 -0.539062 -0.016813 143 86 70
-0.019531 -0.539062 -0.009664 144 85 71
-0.015625 -0.539062 -0.005710 137 78 68
-0.011719 -0.539062 -0.002584 137 78 68
-0.007812 -0.539062 -0.000073 150 85 70
-0.003906 -0.539062 0.002233 162 92 74
0.000000 -0.539062 0.004777 169 98 78
0.003906 -0.539062 0.006434 176 106 85
0.007812 -0.539062 0.007167 180 111 90
0.011719 -0.539062 0.007535 183 115 94
0.015625 -0.539062 0.007656 183 116 96
0.019531 -0.539062 0.007189 184 117 98
0.023438 -0.539062 0.006014 185 118 98
0.027344 -0.539062 0.004628 184 118 97
0.031250 -0.539062 0.003162 185 119 97
0.035156 -0.539062 0.000608 182 114 92
0.039062 -0.539062 -0.003186 176 105 85
0.042969 -0.539062 -0.007797 170 96 76
0.046875 -0.539062 -0.013629 163 91 68
0.050781 -0.539062 -0.020404 155 91 69
0.054688 -0.539062 -0.029445 166 117 95
-0.160156 -0.542969 -0.014563 46 29 29
-0.156250 -0.542969 -0.075475 117 75 66
-0.152344 -0.542969 -0.065844 145 93 76
-0.148438 -0.542969 -0.060745 134 79 66
-0.144531 -0.542969 -0.056868 136 79 67
-0.140625 -0.542969 -0.054453 148 86 73
-0.136719 -0.542969 -0.052974 159 93 78
-0.132812 -0.542969 -0.052242 164 97 81
-0.128906 -0.542969 -0.051846 162 95 79
-0.125000 -0.542969 -0.051278 158 91 76
-0.121094 -0.542969 -0.051524 156 89 74
-0.117188 -0.542969 -0.052560 154 86 71
-0.113281 -0.542969 -0.053768 155 87 71
-0.109375 -0.542969 -0.055034 150 83 68
-0.105469 -0.542969 -0.056879 139 77 63
-0.101562 -0.542969 -0.059546 138 79 64
-0.097656 -0.542969 -0.062868 130 74 61
-0.093750 -0.542969 -0.065769 130 76 60
-0.089844 -0.542969 -0.068835 139 85 67
-0.085938 -0.542969 -0.076602 125 79 67
-0.027344 -0.542969 -0.028693 89 49 42
-0.023438 -0.542969 -0.016997 142 85 69
-0.019531 -0.542969 -0.009985 145 85 72
-0.015625 -0.542969 -0.006004 139 80 69
-0.011719 -0.542969 -0.002839 139 80 69
-0.007812 -0.542969 -0.000345 152 86 72
-0.003906 -0.542969 0.001929 162 92 74
0.000000 -0.542969 0.004440 166 96 76
0.003906 -0.542969 0.006090 174 104 83
0.007812 -0.542969 0.006827 178 110 89
0.011719 -0.542969 0.007191 181 113 92
0.015625 -0.542969 0.007312 182 114 94
0.019531 -0.542969 0.006834 183 115 96
0.023438 -0.542969 0.005632 184 116 97
0.027344 -0.542969 0.004195 184 118 98
0.031250 -0.542969 0.002658 185 118 97
0.035156 -0.542969 0.000060 181 112 91
0.039062 -0.542969 -0.003705 176 104 84
0.042969 -0.542969 -0.008295 168 95 74
0.046875 -0.542969 -0.014154 161 90 66
0.050781 -0.542969 -0.020849 155 91 69
0.054688 -0.542969 -0.029801 167 117 95
-0.156250 -0.546875 -0.079732 96 61 58
-0.152344 -0.546875 -0.068404 148 96 78
-0.148438 -0.546875 -0.062373 136 82 67
-0.144531 -0.546875 -0.058338 132 78 65
-0.140625 -0.546875 -0.055940 145 84 71
-0.136719 -0.546875 -0.054580 158 92 78
-0.132812 -0.546875 -0.053817 163 96 81
-0.128906 -0.546875 -0.053418 161 94 79
-0.125000 -0.546875 -0.052863 156 90 76
-0.121094 -0.546875 -0.053114 155 88 74
-0.117188 -0.546875 -0.054136 154 86 71
-0.113281 -0.546875 -0.055299 154 86 70
-0.109375 -0.546875 -0.056518 149 83 68
-0.105469 -0.546875 -0.058347 139 77 63
-0.101562 -0.546875 -0.060995 136 78 64
-0.097656 -0.546875 -0.064253 130 74 61
-0.093750 -0.546875 -0.067216 129 75 60
-0.089844 -0.546875 -0.070521 140 90 71
-0.085938 -0.546875 -0.079037 94 61 57
-0.027344 -0.546875 -0.028547 86 47 41
-0.023438 -0.546875 -0.017249 139 83 68
-0.019531 -0.546875 -0.010381 144 85 71
-0.015625 -0.546875 -0.006378 138 79 69
-0.011719 -0.546875 -0.003179 139 80 69
-0.007812 -0.546875 -0.000695 151 87 72
-0.003906 -0.546875 0.001557 161 92 74
0.000000 -0.546875 0.004043 164 94 75
0.003906 -0.546875 0.005693 171 101 81
0.007812 -0.546875 0.006448 176 107 86
0.011719 -0.546875 0.006831 178 110 90
0.015625 -0.546875 0.006974 179 111 91
0.019531 -0.546875 0.006504 182 113 94
0.023438 -0.546875 0.005292 184 117 97
0.027344 -0.546875 0.003819 185 118 98
0.031250 -0.546875 0.002228 184 117 97
0.035156 -0.546875 -0.000394 180 111 91
0.039062 -0.546875 -0.004155 173 102 83
0.042969 -0.546875 -0.008751 167 94 74
0.046875 -0.546875 -0.014750 165 95 70
0.050781 -0.546875 -0.021499 165 101 77
0.054688 -0.546875 -0.030181 182 133 109
-0.156250 -0.550781 -0.083559 112 77 71
-0.152344 -0.550781 -0.070900 147 93 74
-0.148438 -0.550781 -0.064109 140 83 68
-0.144531 -0.550781 -0.059853 132 78 66
-0.140625 -0.550781 -0.057280 140 81 69
-0.136719 -0.550781 -0.056138 154 90 76
-0.132812 -0.550781 -0.055421 159 93 79
-0.128906 -0.550781 -0.054978 159 94 79
-0.125000 -0.550781 -0.054437 157 91 77
-0.121094 -0.550781 -0.054717 154 88 74
-0.117188 -0.550781 -0.055758 152 85 71
-0.113281 -0.550781 -0.056892 153 85 70
-0.109375 -0.550781 -0.058030 149 82 68
-0.105469 -0.550781 -0.059824 139 77 64
-0.101562 -0.550781 -0.062420 134 76 63
-0.097656 -0.550781 -0.065660 131 74 62
-0.093750 -0.550781 -0.068746 126 73 60
-0.089844 -0.550781 -0.072388 139 89 72
-0.085938 -0.550781 -0.081205 117 77 68
-0.027344 -0.550781 -0.028387 88 49 42
-0.023438 -0.550781 -0.017509 140 85 69
-0.019531 -0.550781 -0.010835 143 86 72
-0.015625 -0.550781 -0.006833 135 79 68
-0.011719 -0.550781 -0.003594 137 79 68
-0.007812 -0.550781 -0.001116 150 86 71
-0.003906 -0.550781 0.001126 159 90 73
0.000000 -0.550781 0.003601 161 92 73
0.003906 -0.550781 0.005262 168 98 78
0.007812 -0.550781 0.006046 175 105 85
0.011719 -0.550781 0.006463 178 109 89
0.015625 -0.550781 0.006641 178 110 90
0.019531 -0.550781 0.006195 181 112 93
0.023438 -0.550781 0.004989 184 117 97
0.027344 -0.550781 0.003496 185 119 98
0.031250 -0.550781 0.001884 184 117 96
0.035156 -0.550781 -0.000693 181 113 93
0.039062 -0.550781 -0.004431 176 104 85
0.042969 -0.550781 -0.009156 171 98 76
0.046875 -0.550781 -0.015223 167 96 70
0.050781 -0.550781 -0.022023 150 89 69
0.054688 -0.550781 -0.030246 144 97 84
-0.156250 -0.554688 -0.085090 107 75 67
-0.152344 -0.554688 -0.073472 126 76 60
-0.148438 -0.554688 -0.065934 145 86 71
-0.144531 -0.554688 -0.061297 143 85 73
-0.140625 -0.554688 -0.058714 142 82 71
-0.136719 -0.554688 -0.057652 151 88 75
-0.132812 -0.554688 -0.056944 156 92 78
-0.128906 -0.554688 -0.056484 160 95 80
-0.125000 -0.554688 -0.055956 158 93 79
-0.121094 -0.554688 -0.056264 153 88 74
-0.117188 -0.554688 -0.057344 150 83 70
-0.113281 -0.554688 -0.058460 152 84 70
-0.109375 -0.554688 -0.059512 149 82 69
-0.105469 -0.554688 -0.061270 140 78 65
-0.101562 -0.554688 -0.063800 134 76 64
-0.097656 -0.554688 -0.066991 133 75 64
-0.093750 -0.554688 -0.070198 125 71 60
-0.089844 -0.554688 -0.074033 130 81 66
-0.085938 -0.554688 -0.083163 114 72 64
-0.027344 -0.554688 -0.028303 94 55 47
-0.023438 -0.554688 -0.017844 140 87 70
-0.019531 -0.554688 -0.011332 140 86 72
-0.015625 -0.554688 -0.007312 133 79 67
-0.011719 -0.554688 -0.004045 136 79 68
-0.007812 -0.554688 -0.001565 148 85 70
-0.003906 -0.554688 0.000680 157 89 72
0.000000 -0.554688 0.003160 160 91 72
0.003906 -0.554688 0.004840 166 97 77
0.007812 -0.554688 0.005650 175 106 85
0.011719 -0.554688 0.006100 180 111 90
0.015625 -0.554688 0.006319 179 110 90
0.019531 -0.554688 0.005898 181 112 92
0.023438 -0.554688 0.004698 184 117 96
0.027344 -0.554688 0.003209 185 119 98
0.031250 -0.554688 0.001571 183 117 96
0.035156 -0.554688 -0.000948 183 115 94
0.039062 -0.554688 -0.004613 179 107 88
0.042969 -0.554688 -0.009457 169 94 73
0.046875 -0.554688 -0.015472 152 80 57
0.050781 -0.554688 -0.022164 146 89 69
0.054688 -0.554688 -0.030820 161 126 115
-0.152344 -0.558594 -0.076237 121 77 62
-0.148438 -0.558594 -0.067155 140 81 67
-0.144531 -0.558594 -0.062949 148 87 75
-0.140625 -0.558594 -0.060605 145 83 72
-0.136719 -0.558594 -0.059331 150 87 75
-0.132812 -0.558594 -0.058545 153 90 76
-0.128906 -0.558594 -0.058054 159 95 80
-0.125000 -0.558594 -0.057492 157 93 79
-0.121094 -0.558594 -0.057783 151 86 73
-0.117188 -0.558594 -0.058890 149 82 69
-0.113281 -0.558594 -0.060013 151 83 71
-0.109375 -0.558594 -0.061040 148 81 69
-0.105469 -0.558594 -0.062803 138 76 65
-0.101562 -0.558594 -0.065307 130 73 63
-0.097656 -0.558594 -0.068480 130 73 63
-0.093750 -0.558594 -0.071744 128 74 61
-0.089844 -0.558594 -0.075716 134 84 67
-0.085938 -0.558594 -0.085187 122 79 70
-0.027344 -0.558594 -0.028255 98 59 50
-0.023438 -0.558594 -0.018114 137 86 70
-0.019531 -0.558594 -0.011755 137 85 71
-0.015625 -0.558594 -0.007757 133 79 68
-0.011719 -0.558594 -0.004488 137 80 68
-0.007812 -0.558594 -0.002006 148 85 70
-0.003906 -0.558594 0.000249 156 89 71
0.000000 -0.558594 0.002742 160 91 73
0.003906 -0.558594 0.004439 166 96 77
0.007812 -0.558594 0.005261 173 104 84
0.011719 -0.558594 0.005737 178 109 88
0.015625 -0.558594 0.005999 179 109 89
0.019531 -0.558594 0.005615 181 111 91
0.023438 -0.558594 0.004424 184 116 96
0.027344 -0.558594 0.002946 185 118 97
0.031250 -0.558594 0.001269 182 115 95
0.035156 -0.558594 -0.001265 181 112 92
0.039062 -0.558594 -0.004904 176 104 85
0.042969 -0.558594 -0.009777 163 89 68
0.046875 -0.558594 -0.016005 146 78 54
0.050781 -0.558594 -0.023180 184 139 106
-0.156250 -0.562500 -0.060212 228 218 206
-0.152344 -0.562500 -0.079164 168 125 107
-0.148438 -0.562500 -0.068991 139 80 67
-0.144531 -0.562500 -0.064865 140 79 67
-0.140625 -0.562500 -0.062568 141 79 69
-0.136719 -0.562500 -0.060960 146 84 73
-0.132812 -0.562500 -0.060239 150 87 74
-0.128906 -0.562500 -0.059688 158 95 80
-0.125000 -0.562500 -0.059059 157 93 78
-0.121094 -0.562500 -0.059294 152 86 73
-0.117188 -0.562500 -0.060421 150 83 70
-0.113281 -0.562500 -0.061568 152 84 71
-0.109375 -0.562500 -0.062599 146 81 68
-0.105469 -0.562500 -0.064371 137 76 65
-0.101562 -0.562500 -0.066842 129 73 63
-0.097656 -0.562500 -0.069999 127 71 62
-0.093750 -0.562500 -0.073354 131 76 64
-0.089844 -0.562500 -0.077656 139 86 71
-0.085938 -0.562500 -0.087554 131 85 75
-0.027344 -0.562500 -0.028327 104 64 55
-0.023438 -0.562500 -0.018380 138 86 70
-0.019531 -0.562500 -0.012127 138 85 72
-0.015625 -0.562500 -0.008166 133 80 68
-0.011719 -0.562500 -0.004921 140 82 70
-0.007812 -0.562500 -0.002440 148 85 71
-0.003906 -0.562500 -0.000171 155 88 71
0.000000 -0.562500 0.002341 160 91 73
0.003906 -0.562500 0.004054 165 96 77
0.007812 -0.562500 0.004873 172 103 83
0.011719 -0.562500 0.005354 175 106 86
0.015625 -0.562500 0.005643 177 108 88
0.019531 -0.562500 0.005295 181 112 92
0.023438 -0.562500 0.004119 185 117 96
0.027344 -0.562500 0.002650 186 118 96
0.031250 -0.562500 0.000968 184 116 95
0.035156 -0.562500 -0.001574 183 113 93
0.039062 -0.562500 -0.005232 177 105 86
0.042969 -0.562500 -0.010226 170 96 74
0.046875 -0.562500 -0.016721 160 92 67
0.050781 -0.562500 -0.024937 144 104 87
-0.156250 -0.566406 -0.018280 110 88 93
-0.152344 -0.566406 -0.082404 134 88 77
-0.148438 -0.566406 -0.071281 143 83 69
-0.144531 -0.566406 -0.066839 140 79 65
-0.140625 -0.566406 -0.064423 141 79 67
-0.136719 -0.566406 -0.062439 146 83 72
-0.132812 -0.566406 -0.061869 148 86 73
-0.128906 -0.566406 -0.061376 157 94 79
-0.125000 -0.566406 -0.060668 156 92 78
-0.121094 -0.566406 -0.060843 152 87 73
-0.117188 -0.566406 -0.061975 150 83 70
-0.113281 -0.566406 -0.063146 151 83 70
-0.109375 -0.566406 -0.064179 144 79 67
-0.105469 -0.566406 -0.065927 137 77 66
-0.101562 -0.566406 -0.068334 131 75 65
-0.097656 -0.566406 -0.071426 126 71 61
-0.093750 -0.566406 -0.074970 132 77 64
-0.089844 -0.566406 -0.079879 138 84 71
-0.085938 -0.566406 -0.089832 134 85 76
-0.027344 -0.566406 -0.028492 113 71 62
-0.023438 -0.566406 -0.018694 140 86 72
-0.019531 -0.566406 -0.012516 140 87 74
-0.015625 -0.566406 -0.008611 134 80 69
-0.011719 -0.566406 -0.005368 139 81 69
-0.007812 -0.566406 -0.002853 147 84 70
-0.003906 -0.566406 -0.000552 153 86 70
0.000000 -0.566406 0.001979 158 90 72
0.003906 -0.566406 0.003711 165 96 77
0.007812 -0.566406 0.004525 170 102 82
0.011719 -0.566406 0.004989 173 104 84
0.015625 -0.566406 0.005285 175 106 86
0.019531 -0.566406 0.004961 181 112 91
0.023438 -0.566406 0.003794 185 116 95
0.027344 -0.566406 0.002326 184 115 94
0.031250 -0.566406 0.000635 181 112 92
0.035156 -0.566406 -0.001876 177 107 89
0.039062 -0.566406 -0.005663 172 100 83
0.042969 -0.566406 -0.011011 177 99 81
0.046875 -0.566406 -0.017682 188 114 93
0.050781 -0.566406 -0.026500 130 81 78
-0.152344 -0.570312 -0.086246 116 75 65
-0.148438 -0.570312 -0.075161 154 92 75
-0.144531 -0.570312 -0.068913 142 77 65
-0.140625 -0.570312 -0.066307 139 75 65
-0.136719 -0.570312 -0.064082 142 79 68
-0.132812 -0.570312 -0.063533 144 83 70
-0.128906 -0.570312 -0.063141 155 92 77
-0.125000 -0.570312 -0.062329 155 91 77
-0.121094 -0.570312 -0.062453 153 87 73
-0.117188 -0.570312 -0.063577 149 82 69
-0.113281 -0.570312 -0.064747 148 81 68
-0.109375 -0.570312 -0.065773 142 78 66
-0.105469 -0.570312 -0.067502 136 77 66
-0.101562 -0.570312 -0.069890 131 76 65
-0.097656 -0.570312 -0.072973 124 71 60
-0.093750 -0.570312 -0.076704 129 77 62
-0.089844 -0.570312 -0.082078 135 80 71
-0.085938 -0.570312 -0.092040 141 86 82
-0.027344 -0.570312 -0.028800 115 73 65
-0.023438 -0.570312 -0.019168 134 81 69
-0.019531 -0.570312 -0.012912 143 89 76
-0.015625 -0.570312 -0.009069 137 82 71
-0.011719 -0.570312 -0.005858 137 80 68
-0.007812 -0.570312 -0.003268 146 84 70
-0.003906 -0.570312 -0.000894 153 87 70
0.000000 -0.570312 0.001651 159 91 74
0.003906 -0.570312 0.003381 166 98 79
0.007812 -0.570312 0.004192 172 103 83
0.011719 -0.570312 0.004651 173 104 84
0.015625 -0.570312 0.004946 174 105 85
0.019531 -0.570312 0.004625 179 110 89
0.023438 -0.570312 0.003449 183 114 93
0.027344 -0.570312 0.001974 183 114 93
0.031250 -0.570312 0.000269 180 111 90
0.035156 -0.570312 -0.002228 174 104 86
0.039062 -0.570312 -0.006100 170 98 81
0.042969 -0.570312 -0.011814 170 93 77
0.046875 -0.570312 -0.018743 189 114 95
0.050781 -0.570312 -0.027985 179 122 107
-0.152344 -0.574219 -0.092357 160 120 105
-0.148438 -0.574219 -0.078485 151 89 73
-0.144531 -0.574219 -0.070992 137 72 60
-0.140625 -0.574219 -0.068273 139 76 64
-0.136719 -0.574219 -0.065886 142 80 68
-0.132812 -0.574219 -0.065290 145 84 71
-0.128906 -0.574219 -0.064936 155 92 77
-0.125000 -0.574219 -0.064037 156 92 77
-0.121094 -0.574219 -0.064113 153 87 72
-0.117188 -0.574219 -0.065226 149 82 68
-0.113281 -0.574219 -0.066378 147 81 68
-0.109375 -0.574219 -0.067383 143 80 67
-0.105469 -0.574219 -0.069091 139 79 67
-0.101562 -0.574219 -0.071416 133 77 66
-0.097656 -0.574219 -0.074401 125 73 60
-0.093750 -0.574219 -0.078398 127 78 62
-0.089844 -0.574219 -0.084204 130 79 74
-0.085938 -0.574219 -0.094117 150 94 94
-0.023438 -0.574219 -0.019616 122 75 66
