ply
    format ascii 1.0
    element vertex 95506
    property float x
    property float y
    property float z
    property uchar red
    property uchar green
    property uchar blue
    end_header
0.152344 0.273438 -0.045023 228 182 168
0.156250 0.273438 -0.036047 219 177 161
0.160156 0.273438 -0.023928 220 198 178
0.164062 0.273438 0.001382 209 176 156
-0.160156 0.269531 -0.014189 13 11 22
-0.156250 0.269531 -0.026406 44 42 47
-0.152344 0.269531 -0.033528 74 73 74
-0.148438 0.269531 -0.039269 83 83 83
-0.144531 0.269531 -0.044195 95 95 95
-0.140625 0.269531 -0.049413 102 102 102
-0.136719 0.269531 -0.053464 109 109 109
-0.132812 0.269531 -0.057423 116 117 116
-0.128906 0.269531 -0.061460 120 121 120
-0.125000 0.269531 -0.065400 123 124 123
-0.121094 0.269531 -0.069548 127 128 128
-0.117188 0.269531 -0.073826 133 134 133
-0.113281 0.269531 -0.077951 139 141 139
-0.109375 0.269531 -0.081910 145 147 145
-0.105469 0.269531 -0.085520 151 153 151
-0.101562 0.269531 -0.088784 155 158 155
-0.097656 0.269531 -0.092012 156 161 156
-0.093750 0.269531 -0.095141 155 161 155
-0.089844 0.269531 -0.098221 151 158 151
-0.085938 0.269531 -0.101209 147 155 147
-0.082031 0.269531 -0.104055 137 146 137
-0.078125 0.269531 -0.106706 125 135 125
-0.074219 0.269531 -0.108992 138 148 138
-0.070312 0.269531 -0.111002 177 184 177
-0.066406 0.269531 -0.112894 169 177 190
-0.062500 0.269531 -0.114680 185 193 208
-0.058594 0.269531 -0.116256 198 204 221
-0.054688 0.269531 -0.117701 170 178 195
-0.050781 0.269531 -0.119046 147 154 172
-0.046875 0.269531 -0.120349 140 147 166
-0.042969 0.269531 -0.121445 168 175 194
-0.039062 0.269531 -0.122490 178 185 204
-0.035156 0.269531 -0.123595 170 177 196
-0.031250 0.269531 -0.124800 187 194 213
-0.027344 0.269531 -0.126143 172 179 198
-0.023438 0.269531 -0.127641 180 187 206
-0.019531 0.269531 -0.129164 174 181 200
-0.015625 0.269531 -0.130566 180 187 206
-0.011719 0.269531 -0.132078 181 188 207
-0.007812 0.269531 -0.133485 166 173 192
-0.003906 0.269531 -0.134888 176 188 212
0.000000 0.269531 -0.136131 188 199 221
0.003906 0.269531 -0.137132 185 193 214
0.007812 0.269531 -0.137977 195 202 221
0.011719 0.269531 -0.138581 169 174 193
0.015625 0.269531 -0.139046 167 170 185
0.019531 0.269531 -0.139374 161 163 176
0.023438 0.269531 -0.139538 148 148 158
0.027344 0.269531 -0.139437 154 152 163
0.031250 0.269531 -0.139087 147 146 154
0.035156 0.269531 -0.138506 166 165 173
0.039062 0.269531 -0.137675 175 174 182
0.042969 0.269531 -0.136660 144 144 152
0.046875 0.269531 -0.135510 167 167 175
0.050781 0.269531 -0.134266 159 162 170
0.054688 0.269531 -0.132903 195 198 207
0.058594 0.269531 -0.131430 153 142 158
0.062500 0.269531 -0.129822 162 154 169
0.066406 0.269531 -0.128000 157 149 162
0.070312 0.269531 -0.126000 196 193 204
0.074219 0.269531 -0.123850 168 166 177
0.078125 0.269531 -0.121581 146 149 157
0.082031 0.269531 -0.119171 157 161 172
0.085938 0.269531 -0.116658 173 180 189
0.089844 0.269531 -0.114058 185 192 203
0.093750 0.269531 -0.111307 187 195 207
0.097656 0.269531 -0.108268 188 195 210
0.101562 0.269531 -0.104988 177 184 201
0.105469 0.269531 -0.101557 180 187 205
0.109375 0.269531 -0.098131 169 175 196
0.113281 0.269531 -0.094712 179 184 206
0.117188 0.269531 -0.091136 145 149 170
0.121094 0.269531 -0.087519 160 165 181
0.125000 0.269531 -0.083627 168 170 185
0.128906 0.269531 -0.079495 164 162 175
0.132812 0.269531 -0.075105 154 147 158
0.136719 0.269531 -0.070566 147 117 99
0.140625 0.269531 -0.065573 241 216 177
0.144531 0.269531 -0.060622 241 200 158
0.148438 0.269531 -0.054099 224 154 123
0.152344 0.269531 -0.047239 233 178 159
0.156250 0.269531 -0.038894 226 181 168
0.160156 0.269531 -0.022493 205 186 170
-0.160156 0.265625 -0.022837 33 31 41
-0.156250 0.265625 -0.032040 54 53 55
-0.152344 0.265625 -0.037949 73 73 73
-0.148438 0.265625 -0.043310 85 85 85
-0.144531 0.265625 -0.048378 97 97 97
-0.140625 0.265625 -0.053157 103 104 103
-0.136719 0.265625 -0.057064 106 107 106
-0.132812 0.265625 -0.060823 110 111 110
-0.128906 0.265625 -0.064736 114 115 114
-0.125000 0.265625 -0.068664 119 120 119
-0.121094 0.265625 -0.072800 125 126 125
-0.117188 0.265625 -0.077059 132 134 132
-0.113281 0.265625 -0.081190 140 142 140
-0.109375 0.265625 -0.085143 148 150 148
-0.105469 0.265625 -0.088723 154 157 154
-0.101562 0.265625 -0.091938 159 162 159
-0.097656 0.265625 -0.095100 156 161 156
-0.093750 0.265625 -0.098169 156 162 156
-0.089844 0.265625 -0.101166 148 155 148
-0.085938 0.265625 -0.104077 147 155 147
-0.082031 0.265625 -0.106839 141 150 141
-0.078125 0.265625 -0.109407 140 149 140
-0.074219 0.265625 -0.111625 169 177 169
-0.070312 0.265625 -0.113564 181 186 181
-0.066406 0.265625 -0.115377 179 189 207
-0.062500 0.265625 -0.117097 196 205 226
-0.058594 0.265625 -0.118619 198 207 228
-0.054688 0.265625 -0.120025 162 171 193
-0.050781 0.265625 -0.121345 137 145 167
-0.046875 0.265625 -0.122596 148 156 177
-0.042969 0.265625 -0.123642 170 178 199
-0.039062 0.265625 -0.124639 166 174 195
-0.035156 0.265625 -0.125681 167 173 195
-0.031250 0.265625 -0.126805 179 185 207
-0.027344 0.265625 -0.128038 183 190 209
-0.023438 0.265625 -0.129427 171 178 197
-0.019531 0.265625 -0.130842 167 174 193
-0.015625 0.265625 -0.132136 184 191 210
-0.011719 0.265625 -0.133567 181 186 206
-0.007812 0.265625 -0.134902 175 180 200
-0.003906 0.265625 -0.136263 179 191 215
0.000000 0.265625 -0.137451 189 200 222
0.003906 0.265625 -0.138370 184 192 213
0.007812 0.265625 -0.139138 186 193 212
0.011719 0.265625 -0.139649 172 177 196
0.015625 0.265625 -0.140043 150 153 168
0.019531 0.265625 -0.140340 159 161 174
0.023438 0.265625 -0.140473 134 134 144
0.027344 0.265625 -0.140335 136 135 143
0.031250 0.265625 -0.139966 170 169 177
0.035156 0.265625 -0.139382 160 159 165
0.039062 0.265625 -0.138564 182 181 187
0.042969 0.265625 -0.137570 104 103 109
0.046875 0.265625 -0.136444 169 169 177
0.050781 0.265625 -0.135215 144 144 152
0.054688 0.265625 -0.133876 178 178 186
0.058594 0.265625 -0.132415 143 129 142
0.062500 0.265625 -0.130807 180 168 180
0.066406 0.265625 -0.128998 135 125 136
0.070312 0.265625 -0.126997 197 189 200
0.074219 0.265625 -0.124835 190 187 194
0.078125 0.265625 -0.122572 177 176 184
0.082031 0.265625 -0.120164 145 148 155
0.085938 0.265625 -0.117657 181 185 193
0.089844 0.265625 -0.115068 185 192 202
0.093750 0.265625 -0.112310 190 198 208
0.097656 0.265625 -0.109254 194 202 214
0.101562 0.265625 -0.105967 182 188 206
0.105469 0.265625 -0.102530 181 186 208
0.109375 0.265625 -0.099116 169 175 198
0.113281 0.265625 -0.095759 182 187 211
0.117188 0.265625 -0.092223 152 157 180
0.121094 0.265625 -0.088590 159 163 177
0.125000 0.265625 -0.084710 160 161 175
0.128906 0.265625 -0.080661 158 155 167
0.132812 0.265625 -0.076389 155 146 151
0.136719 0.265625 -0.071913 162 124 96
0.140625 0.265625 -0.066916 239 198 158
0.144531 0.265625 -0.062207 248 213 180
0.148438 0.265625 -0.055789 240 182 152
0.152344 0.265625 -0.048953 235 170 144
0.156250 0.265625 -0.041230 238 193 174
0.160156 0.265625 -0.023101 214 194 178
-0.164062 0.261719 -0.016983 41 41 57
-0.160156 0.261719 -0.029886 53 52 57
-0.156250 0.261719 -0.036754 66 66 67
-0.152344 0.261719 -0.041961 85 85 86
-0.148438 0.261719 -0.047333 98 98 98
-0.144531 0.261719 -0.052003 106 107 106
-0.140625 0.261719 -0.056574 109 109 109
-0.136719 0.261719 -0.060462 107 107 107
-0.132812 0.261719 -0.064197 108 108 108
-0.128906 0.261719 -0.068043 111 112 111
-0.125000 0.261719 -0.071919 117 118 117
-0.121094 0.261719 -0.076054 124 126 124
-0.117188 0.261719 -0.080264 133 135 133
-0.113281 0.261719 -0.084383 142 144 142
-0.109375 0.261719 -0.088305 150 153 150
-0.105469 0.261719 -0.091836 157 161 157
-0.101562 0.261719 -0.095001 161 165 161
-0.097656 0.261719 -0.098097 158 164 158
-0.093750 0.261719 -0.101102 156 163 156
-0.089844 0.261719 -0.104015 149 157 149
-0.085938 0.261719 -0.106847 145 154 145
-0.082031 0.261719 -0.109524 141 149 141
-0.078125 0.261719 -0.112004 155 163 155
-0.074219 0.261719 -0.114162 187 192 187
-0.070312 0.261719 -0.116031 160 162 160
-0.066406 0.261719 -0.117752 188 201 224
-0.062500 0.261719 -0.119409 189 202 226
-0.058594 0.261719 -0.120906 178 191 216
-0.054688 0.261719 -0.122291 159 171 196
-0.050781 0.261719 -0.123576 144 154 178
-0.046875 0.261719 -0.124793 160 170 195
-0.042969 0.261719 -0.125833 171 179 202
-0.039062 0.261719 -0.126803 161 169 192
-0.035156 0.261719 -0.127781 166 172 194
-0.031250 0.261719 -0.128831 164 170 192
-0.027344 0.261719 -0.129968 173 179 201
-0.023438 0.261719 -0.131244 158 163 183
-0.019531 0.261719 -0.132533 166 171 191
-0.015625 0.261719 -0.133714 183 188 208
-0.011719 0.261719 -0.135069 178 183 203
-0.007812 0.261719 -0.136353 175 180 200
-0.003906 0.261719 -0.137665 177 189 213
0.000000 0.261719 -0.138784 179 190 212
0.003906 0.261719 -0.139621 182 193 215
0.007812 0.261719 -0.140319 170 177 196
0.011719 0.261719 -0.140758 176 181 200
0.015625 0.261719 -0.141078 141 144 159
0.019531 0.261719 -0.141332 167 167 179
0.023438 0.261719 -0.141441 135 133 144
0.027344 0.261719 -0.141283 145 144 152
0.031250 0.261719 -0.140905 173 170 177
0.035156 0.261719 -0.140311 156 153 160
0.039062 0.261719 -0.139478 179 176 183
0.042969 0.261719 -0.138474 106 105 111
0.046875 0.261719 -0.137365 159 158 164
0.050781 0.261719 -0.136143 143 142 148
0.054688 0.261719 -0.134806 173 174 179
0.058594 0.261719 -0.133353 146 130 140
0.062500 0.261719 -0.131742 178 162 172
0.066406 0.261719 -0.129923 136 123 132
0.070312 0.261719 -0.127914 202 192 200
0.074219 0.261719 -0.125752 190 183 190
0.078125 0.261719 -0.123495 189 187 192
0.082031 0.261719 -0.121086 152 153 157
0.085938 0.261719 -0.118572 185 188 193
0.089844 0.261719 -0.115991 184 189 194
0.093750 0.261719 -0.113227 189 196 205
0.097656 0.261719 -0.110159 196 204 216
0.101562 0.261719 -0.106852 185 192 210
0.105469 0.261719 -0.103404 179 185 206
0.109375 0.261719 -0.100003 163 168 192
0.113281 0.261719 -0.096701 181 185 213
0.117188 0.261719 -0.093232 161 164 190
0.121094 0.261719 -0.089612 157 161 172
0.125000 0.261719 -0.085739 159 157 170
0.128906 0.261719 -0.081752 155 150 158
0.132812 0.261719 -0.077625 152 139 140
0.136719 0.261719 -0.073281 161 112 85
0.140625 0.261719 -0.068352 224 157 112
0.144531 0.261719 -0.063861 252 232 205
0.148438 0.261719 -0.057519 252 232 214
0.152344 0.261719 -0.050436 244 182 154
0.156250 0.261719 -0.043523 242 191 164
0.160156 0.261719 -0.025431 220 198 178
-0.164062 0.257812 -0.024793 26 24 33
-0.160156 0.257812 -0.034790 46 46 48
-0.156250 0.257812 -0.041146 70 70 70
-0.152344 0.257812 -0.045648 97 97 97
-0.148438 0.257812 -0.050833 110 110 110
-0.144531 0.257812 -0.055390 115 115 115
-0.140625 0.257812 -0.059763 113 114 113
-0.136719 0.257812 -0.063603 109 109 109
-0.132812 0.257812 -0.067391 107 108 107
-0.128906 0.257812 -0.071250 110 111 111
-0.125000 0.257812 -0.075145 117 118 117
-0.121094 0.257812 -0.079268 125 126 125
-0.117188 0.257812 -0.083426 134 136 134
-0.113281 0.257812 -0.087494 143 147 144
-0.109375 0.257812 -0.091341 151 156 152
-0.105469 0.257812 -0.094795 158 163 158
-0.101562 0.257812 -0.097898 162 168 162
-0.097656 0.257812 -0.100917 157 164 158
-0.093750 0.257812 -0.103854 159 166 159
-0.089844 0.257812 -0.106694 152 160 152
-0.085938 0.257812 -0.109455 144 153 144
-0.082031 0.257812 -0.112050 149 157 149
-0.078125 0.257812 -0.114439 178 185 178
-0.074219 0.257812 -0.116535 199 202 199
-0.070312 0.257812 -0.118361 165 166 164
-0.066406 0.257812 -0.120022 189 204 234
-0.062500 0.257812 -0.121622 173 188 217
-0.058594 0.257812 -0.123098 157 172 200
-0.054688 0.257812 -0.124465 163 177 203
-0.050781 0.257812 -0.125723 158 169 196
-0.046875 0.257812 -0.126901 175 185 212
-0.042969 0.257812 -0.127914 170 180 205
-0.039062 0.257812 -0.128858 163 171 194
-0.035156 0.257812 -0.129784 166 172 194
-0.031250 0.257812 -0.130757 153 159 181
-0.027344 0.257812 -0.131811 164 169 189
-0.023438 0.257812 -0.132996 160 165 185
-0.019531 0.257812 -0.134183 176 181 201
-0.015625 0.257812 -0.135278 173 178 198
-0.011719 0.257812 -0.136568 170 175 195
-0.007812 0.257812 -0.137802 168 173 193
-0.003906 0.257812 -0.139071 179 191 215
0.000000 0.257812 -0.140145 170 182 206
0.003906 0.257812 -0.140916 182 193 215
0.007812 0.257812 -0.141550 169 176 195
0.011719 0.257812 -0.141937 182 187 206
0.015625 0.257812 -0.142201 159 162 177
0.019531 0.257812 -0.142399 175 175 187
0.023438 0.257812 -0.142462 147 145 156
0.027344 0.257812 -0.142296 135 132 141
0.031250 0.257812 -0.141919 149 146 153
0.035156 0.257812 -0.141299 173 170 177
0.039062 0.257812 -0.140450 163 161 166
0.042969 0.257812 -0.139430 118 115 122
0.046875 0.257812 -0.138323 102 101 107
0.050781 0.257812 -0.137111 144 143 149
0.054688 0.257812 -0.135767 193 192 198
0.058594 0.257812 -0.134311 166 146 155
0.062500 0.257812 -0.132680 161 144 152
0.066406 0.257812 -0.130847 167 152 159
0.070312 0.257812 -0.128834 207 196 200
0.074219 0.257812 -0.126650 152 143 146
0.078125 0.257812 -0.124378 164 159 163
0.082031 0.257812 -0.121954 155 155 157
0.085938 0.257812 -0.119434 170 171 175
0.089844 0.257812 -0.116873 181 186 190
0.093750 0.257812 -0.114105 180 187 195
0.097656 0.257812 -0.111031 189 195 207
0.101562 0.257812 -0.107714 185 190 208
0.105469 0.257812 -0.104269 178 184 205
0.109375 0.257812 -0.100859 156 160 186
0.113281 0.257812 -0.097566 173 177 204
0.117188 0.257812 -0.094136 159 161 190
0.121094 0.257812 -0.090561 163 167 177
0.125000 0.257812 -0.086813 165 163 172
0.128906 0.257812 -0.082887 151 145 150
0.132812 0.257812 -0.078603 140 121 116
0.136719 0.257812 -0.074208 163 111 79
0.140625 0.257812 -0.069472 205 132 90
0.144531 0.257812 -0.065185 253 236 211
0.148438 0.257812 -0.059072 254 248 240
0.152344 0.257812 -0.052012 252 225 203
0.156250 0.257812 -0.045272 244 197 165
0.160156 0.257812 -0.028905 205 186 170
-0.167969 0.253906 -0.018641 15 12 22
-0.164062 0.253906 -0.031379 26 24 29
-0.160156 0.253906 -0.039423 50 49 51
-0.156250 0.253906 -0.044833 79 79 79
-0.152344 0.253906 -0.049351 105 105 105
-0.148438 0.253906 -0.054149 115 115 115
-0.144531 0.253906 -0.058545 116 116 116
-0.140625 0.253906 -0.062739 113 113 113
-0.136719 0.253906 -0.066578 108 108 108
-0.132812 0.253906 -0.070423 106 107 106
-0.128906 0.253906 -0.074319 110 111 110
-0.125000 0.253906 -0.078235 116 118 117
-0.121094 0.253906 -0.082351 125 127 125
-0.117188 0.253906 -0.086454 134 137 134
-0.113281 0.253906 -0.090441 143 148 144
-0.109375 0.253906 -0.094203 151 156 151
-0.105469 0.253906 -0.097578 156 162 156
-0.101562 0.253906 -0.100626 159 166 160
-0.097656 0.253906 -0.103572 156 164 156
-0.093750 0.253906 -0.106451 155 163 156
-0.089844 0.253906 -0.109228 153 162 153
-0.085938 0.253906 -0.111920 147 156 147
-0.082031 0.253906 -0.114444 161 169 161
-0.078125 0.253906 -0.116753 201 206 201
-0.074219 0.253906 -0.118780 198 201 198
-0.070312 0.253906 -0.120554 186 187 185
-0.066406 0.253906 -0.122164 180 199 230
-0.062500 0.253906 -0.123719 165 181 213
-0.058594 0.253906 -0.125164 150 167 196
-0.054688 0.253906 -0.126484 171 186 214
-0.050781 0.253906 -0.127699 165 179 205
-0.046875 0.253906 -0.128852 180 192 218
-0.042969 0.253906 -0.129845 170 180 205
-0.039062 0.253906 -0.130739 165 173 196
-0.035156 0.253906 -0.131601 165 171 195
-0.031250 0.253906 -0.132523 150 155 177
-0.027344 0.253906 -0.133522 158 163 183
-0.023438 0.253906 -0.134617 171 173 194
-0.019531 0.253906 -0.135728 186 188 209
-0.015625 0.253906 -0.136773 157 159 180
-0.011719 0.253906 -0.138001 166 168 189
-0.007812 0.253906 -0.139192 173 175 196
-0.003906 0.253906 -0.140413 182 194 218
0.000000 0.253906 -0.141455 166 178 202
0.003906 0.253906 -0.142198 169 180 202
0.007812 0.253906 -0.142780 173 181 200
0.011719 0.253906 -0.143123 175 180 199
0.015625 0.253906 -0.143342 184 187 202
0.019531 0.253906 -0.143508 163 163 175
0.023438 0.253906 -0.143523 141 139 150
0.027344 0.253906 -0.143298 109 105 114
0.031250 0.253906 -0.142899 137 134 141
0.035156 0.253906 -0.142250 184 182 187
0.039062 0.253906 -0.141402 143 141 146
0.042969 0.253906 -0.140376 117 115 120
0.046875 0.253906 -0.139240 84 82 87
0.050781 0.253906 -0.138022 150 149 155
0.054688 0.253906 -0.136689 181 180 186
0.058594 0.253906 -0.135217 178 157 164
0.062500 0.253906 -0.133538 160 141 147
0.066406 0.253906 -0.131679 192 175 181
0.070312 0.253906 -0.129662 191 179 181
0.074219 0.253906 -0.127468 139 129 130
0.078125 0.253906 -0.125192 156 150 152
0.082031 0.253906 -0.122765 156 154 155
0.085938 0.253906 -0.120253 175 176 178
0.089844 0.253906 -0.117704 182 185 190
0.093750 0.253906 -0.114929 170 174 183
0.097656 0.253906 -0.111864 175 181 192
0.101562 0.253906 -0.108533 182 188 204
0.105469 0.253906 -0.105077 184 189 211
0.109375 0.253906 -0.101679 156 160 186
0.113281 0.253906 -0.098399 171 175 203
0.117188 0.253906 -0.095024 159 161 190
0.121094 0.253906 -0.091517 175 176 185
0.125000 0.253906 -0.087872 171 168 176
0.128906 0.253906 -0.083977 144 137 141
0.132812 0.253906 -0.079584 121 100 92
0.136719 0.253906 -0.075184 178 130 89
0.140625 0.253906 -0.070504 191 126 85
0.144531 0.253906 -0.066202 249 219 188
0.148438 0.253906 -0.060409 254 248 240
0.152344 0.253906 -0.053896 254 243 228
0.156250 0.253906 -0.046200 251 232 209
0.160156 0.253906 -0.032225 155 120 87
-0.167969 0.250000 -0.026697 40 36 48
-0.164062 0.250000 -0.036558 38 37 40
-0.160156 0.250000 -0.042694 56 56 57
-0.156250 0.250000 -0.048103 83 83 83
-0.152344 0.250000 -0.052762 106 106 106
-0.148438 0.250000 -0.057197 115 115 115
-0.144531 0.250000 -0.061480 114 115 114
-0.140625 0.250000 -0.065590 110 111 110
-0.136719 0.250000 -0.069468 106 107 106
-0.132812 0.250000 -0.073366 105 106 105
-0.128906 0.250000 -0.077308 110 111 110
-0.125000 0.250000 -0.081226 117 119 117
-0.121094 0.250000 -0.085314 126 129 126
-0.117188 0.250000 -0.089338 135 139 136
-0.113281 0.250000 -0.093227 144 150 145
-0.109375 0.250000 -0.096902 150 157 151
-0.105469 0.250000 -0.100189 153 161 154
-0.101562 0.250000 -0.103175 154 162 155
-0.097656 0.250000 -0.106054 152 160 153
-0.093750 0.250000 -0.108865 148 156 149
-0.089844 0.250000 -0.111574 152 160 152
-0.085938 0.250000 -0.114187 154 162 154
-0.082031 0.250000 -0.116629 181 187 181
-0.078125 0.250000 -0.118855 207 210 207
-0.074219 0.250000 -0.120816 177 178 176
-0.070312 0.250000 -0.122553 187 188 187
-0.066406 0.250000 -0.124128 175 195 227
-0.062500 0.250000 -0.125658 164 183 215
-0.058594 0.250000 -0.127094 155 171 203
-0.054688 0.250000 -0.128397 178 193 223
-0.050781 0.250000 -0.129604 167 181 209
-0.046875 0.250000 -0.130746 180 191 219
-0.042969 0.250000 -0.131724 167 177 204
-0.039062 0.250000 -0.132583 164 171 197
-0.035156 0.250000 -0.133395 164 170 194
-0.031250 0.250000 -0.134255 148 153 175
-0.027344 0.250000 -0.135197 153 158 178
-0.023438 0.250000 -0.136222 175 177 198
-0.019531 0.250000 -0.137275 185 187 208
-0.015625 0.250000 -0.138270 140 142 163
-0.011719 0.250000 -0.139434 164 166 187
-0.007812 0.250000 -0.140585 183 185 206
-0.003906 0.250000 -0.141761 178 190 214
0.000000 0.250000 -0.142762 159 171 195
0.003906 0.250000 -0.143488 149 160 182
0.007812 0.250000 -0.144044 171 179 198
0.011719 0.250000 -0.144367 156 161 180
0.015625 0.250000 -0.144549 192 195 210
0.019531 0.250000 -0.144684 137 137 149
0.023438 0.250000 -0.144663 120 118 129
0.027344 0.250000 -0.144386 104 100 109
0.031250 0.250000 -0.143954 144 141 148
0.035156 0.250000 -0.143264 168 166 171
0.039062 0.250000 -0.142406 127 125 130
0.042969 0.250000 -0.141351 120 118 123
0.046875 0.250000 -0.140174 130 128 133
0.050781 0.250000 -0.138948 163 161 166
0.054688 0.250000 -0.137589 135 134 139
0.058594 0.250000 -0.136082 145 124 131
0.062500 0.250000 -0.134395 142 123 127
0.066406 0.250000 -0.132535 170 154 157
0.070312 0.250000 -0.130503 140 125 128
0.074219 0.250000 -0.128291 140 130 131
0.078125 0.250000 -0.126012 156 150 150
0.082031 0.250000 -0.123581 140 138 139
0.085938 0.250000 -0.121071 189 189 191
0.089844 0.250000 -0.118531 185 189 192
0.093750 0.250000 -0.115754 164 169 175
0.097656 0.250000 -0.112702 165 171 183
0.101562 0.250000 -0.109355 182 188 204
0.105469 0.250000 -0.105898 191 196 218
0.109375 0.250000 -0.102486 161 165 191
0.113281 0.250000 -0.099186 174 178 206
0.117188 0.250000 -0.095847 164 166 196
0.121094 0.250000 -0.092408 181 183 191
0.125000 0.250000 -0.088836 177 174 181
0.128906 0.250000 -0.084929 143 136 138
0.132812 0.250000 -0.080576 112 89 79
0.136719 0.250000 -0.076335 193 150 103
0.140625 0.250000 -0.071679 184 129 84
0.144531 0.250000 -0.067223 231 177 135
0.148438 0.250000 -0.061594 251 227 206
0.152344 0.250000 -0.055265 249 210 179
0.156250 0.250000 -0.047473 246 212 178
0.160156 0.250000 -0.036813 103 72 54
-0.171875 0.246094 -0.021862 66 63 80
-0.167969 0.246094 -0.032976 65 62 69
-0.164062 0.246094 -0.039949 52 51 53
-0.160156 0.246094 -0.045868 67 67 67
-0.156250 0.246094 -0.051481 90 90 90
-0.152344 0.246094 -0.055724 105 106 105
-0.148438 0.246094 -0.060104 112 112 112
-0.144531 0.246094 -0.064318 110 111 110
-0.140625 0.246094 -0.068396 106 107 106
-0.136719 0.246094 -0.072281 103 104 103
-0.132812 0.246094 -0.076189 104 105 104
-0.128906 0.246094 -0.080165 108 111 109
-0.125000 0.246094 -0.084089 116 120 118
-0.121094 0.246094 -0.088098 126 131 127
-0.117188 0.246094 -0.092007 136 141 136
-0.113281 0.246094 -0.095779 144 150 143
-0.109375 0.246094 -0.099355 149 156 147
-0.105469 0.246094 -0.102558 150 157 148
-0.101562 0.246094 -0.105485 149 156 146
-0.097656 0.246094 -0.108303 145 154 143
-0.093750 0.246094 -0.111054 144 151 144
-0.089844 0.246094 -0.113702 150 158 150
-0.085938 0.246094 -0.116243 162 173 166
-0.082031 0.246094 -0.118624 187 201 203
-0.078125 0.246094 -0.120785 166 183 195
-0.074219 0.246094 -0.122688 177 196 212
-0.070312 0.246094 -0.124399 176 197 216
-0.066406 0.246094 -0.125964 176 187 218
-0.062500 0.246094 -0.127482 177 188 219
-0.058594 0.246094 -0.128895 139 152 184
-0.054688 0.246094 -0.130184 178 193 221
-0.050781 0.246094 -0.131392 168 182 207
-0.046875 0.246094 -0.132521 165 178 197
-0.042969 0.246094 -0.133467 185 193 206
-0.039062 0.246094 -0.134286 175 178 185
-0.035156 0.246094 -0.135065 169 169 171
-0.031250 0.246094 -0.135869 139 135 134
-0.027344 0.246094 -0.136765 147 143 142
-0.023438 0.246094 -0.137738 172 170 175
-0.019531 0.246094 -0.138747 156 159 168
-0.015625 0.246094 -0.139716 155 164 181
-0.011719 0.246094 -0.140811 176 191 214
-0.007812 0.246094 -0.141898 162 179 205
-0.003906 0.246094 -0.143009 167 180 199
0.000000 0.246094 -0.143952 153 164 184
0.003906 0.246094 -0.144657 104 112 129
0.007812 0.246094 -0.145204 184 190 206
0.011719 0.246094 -0.145549 158 160 173
0.015625 0.246094 -0.145727 188 186 197
0.019531 0.246094 -0.145803 158 155 162
0.023438 0.246094 -0.145725 188 181 188
0.027344 0.246094 -0.145382 161 155 159
0.031250 0.246094 -0.144912 178 169 174
0.035156 0.246094 -0.144209 165 156 161
0.039062 0.246094 -0.143341 101 95 99
0.042969 0.246094 -0.142277 139 132 139
0.046875 0.246094 -0.141098 186 181 188
0.050781 0.246094 -0.139857 186 183 190
0.054688 0.246094 -0.138453 146 143 152
0.058594 0.246094 -0.136913 149 137 139
0.062500 0.246094 -0.135218 139 124 127
0.066406 0.246094 -0.133352 158 144 144
0.070312 0.246094 -0.131306 150 136 135
0.074219 0.246094 -0.129071 160 146 143
0.078125 0.246094 -0.126779 142 129 123
0.082031 0.246094 -0.124344 151 140 134
0.085938 0.246094 -0.121837 186 177 170
0.089844 0.246094 -0.119329 152 147 141
0.093750 0.246094 -0.116541 130 129 127
0.097656 0.246094 -0.113463 134 135 137
0.101562 0.246094 -0.110132 188 195 201
0.105469 0.246094 -0.106676 157 167 179
0.109375 0.246094 -0.103252 144 160 174
0.113281 0.246094 -0.099905 167 183 201
0.117188 0.246094 -0.096590 163 179 199
0.121094 0.246094 -0.093215 181 178 191
0.125000 0.246094 -0.089714 174 165 178
0.128906 0.246094 -0.085844 151 138 146
0.132812 0.246094 -0.081429 109 83 73
0.136719 0.246094 -0.077285 202 164 117
0.140625 0.246094 -0.072843 188 144 94
0.144531 0.246094 -0.068196 203 150 104
0.148438 0.246094 -0.062739 224 171 138
0.152344 0.246094 -0.056557 180 104 78
0.156250 0.246094 -0.049172 168 106 73
0.160156 0.246094 -0.039955 112 76 57
0.164062 0.246094 -0.017935 133 106 81
-0.175781 0.242188 -0.013454 10 6 12
-0.171875 0.242188 -0.029146 44 38 53
-0.167969 0.242188 -0.036779 60 58 62
-0.164062 0.242188 -0.043366 62 62 63
-0.160156 0.242188 -0.049032 81 81 81
-0.156250 0.242188 -0.054288 98 98 98
-0.152344 0.242188 -0.058541 106 106 106
-0.148438 0.242188 -0.062803 108 108 108
-0.144531 0.242188 -0.066927 105 106 106
-0.140625 0.242188 -0.071035 102 103 103
-0.136719 0.242188 -0.074986 101 102 101
-0.132812 0.242188 -0.078895 102 104 103
-0.128906 0.242188 -0.082872 107 110 109
-0.125000 0.242188 -0.086767 116 120 118
-0.121094 0.242188 -0.090669 126 132 128
-0.117188 0.242188 -0.094468 136 141 137
-0.113281 0.242188 -0.098117 143 150 142
-0.109375 0.242188 -0.101598 147 154 145
-0.105469 0.242188 -0.104726 147 155 145
-0.101562 0.242188 -0.107605 144 153 142
-0.097656 0.242188 -0.110379 139 149 138
-0.093750 0.242188 -0.113070 137 146 137
-0.089844 0.242188 -0.115640 143 152 146
-0.085938 0.242188 -0.118089 172 184 177
-0.082031 0.242188 -0.120389 188 202 209
-0.078125 0.242188 -0.122490 171 188 201
-0.074219 0.242188 -0.124343 175 194 210
-0.070312 0.242188 -0.126022 179 200 218
-0.066406 0.242188 -0.127577 170 181 213
-0.062500 0.242188 -0.129092 162 173 205
-0.058594 0.242188 -0.130501 150 163 195
-0.054688 0.242188 -0.131781 177 191 217
-0.050781 0.242188 -0.132991 164 179 202
-0.046875 0.242188 -0.134134 168 179 197
-0.042969 0.242188 -0.135084 163 171 184
-0.039062 0.242188 -0.135903 161 164 171
-0.035156 0.242188 -0.136688 153 151 154
-0.031250 0.242188 -0.137486 146 142 141
-0.027344 0.242188 -0.138378 144 140 139
-0.023438 0.242188 -0.139312 166 164 167
-0.019531 0.242188 -0.140272 154 157 166
-0.015625 0.242188 -0.141202 164 171 187
-0.011719 0.242188 -0.142216 171 183 205
-0.007812 0.242188 -0.143233 169 185 210
-0.003906 0.242188 -0.144276 172 183 203
0.000000 0.242188 -0.145177 144 155 173
0.003906 0.242188 -0.145884 98 104 122
0.007812 0.242188 -0.146418 150 156 170
0.011719 0.242188 -0.146785 142 144 157
0.015625 0.242188 -0.146974 188 186 197
0.019531 0.242188 -0.147008 164 161 168
0.023438 0.242188 -0.146869 196 191 197
0.027344 0.242188 -0.146420 152 146 150
0.031250 0.242188 -0.145885 172 166 170
0.035156 0.242188 -0.145153 147 141 145
0.039062 0.242188 -0.144271 112 105 112
0.042969 0.242188 -0.143212 164 159 166
0.046875 0.242188 -0.142015 184 181 188
0.050781 0.242188 -0.140760 183 180 189
0.054688 0.242188 -0.139346 165 164 172
0.058594 0.242188 -0.137779 193 181 185
0.062500 0.242188 -0.136048 154 142 144
0.066406 0.242188 -0.134146 162 150 150
0.070312 0.242188 -0.132093 144 133 131
0.074219 0.242188 -0.129851 151 140 136
0.078125 0.242188 -0.127526 134 123 117
0.082031 0.242188 -0.125066 163 152 146
0.085938 0.242188 -0.122549 200 191 186
0.089844 0.242188 -0.120054 134 129 125
0.093750 0.242188 -0.117255 96 95 93
0.097656 0.242188 -0.114171 102 103 107
0.101562 0.242188 -0.110847 212 219 227
0.105469 0.242188 -0.107365 139 149 161
0.109375 0.242188 -0.103928 169 182 198
0.113281 0.242188 -0.100555 173 188 207
0.117188 0.242188 -0.097285 150 166 186
0.121094 0.242188 -0.093972 178 175 189
0.125000 0.242188 -0.090522 185 176 189
0.128906 0.242188 -0.086709 150 137 145
0.132812 0.242188 -0.082283 119 93 84
0.136719 0.242188 -0.078135 205 170 126
0.140625 0.242188 -0.073802 194 156 106
0.144531 0.242188 -0.069110 193 154 106
0.148438 0.242188 -0.063693 204 161 125
0.152344 0.242188 -0.057753 152 104 80
0.156250 0.242188 -0.051043 111 76 56
0.160156 0.242188 -0.042611 155 120 87
0.164062 0.242188 -0.028721 130 99 75
-0.175781 0.238281 -0.023565 21 16 30
-0.171875 0.238281 -0.033646 39 35 47
-0.167969 0.238281 -0.040857 58 57 60
-0.164062 0.238281 -0.046727 72 72 72
-0.160156 0.238281 -0.052051 91 91 91
-0.156250 0.238281 -0.057086 102 103 102
-0.152344 0.238281 -0.061315 105 106 106
-0.148438 0.238281 -0.065413 105 106 105
-0.144531 0.238281 -0.069501 102 103 102
-0.140625 0.238281 -0.073616 100 101 100
-0.136719 0.238281 -0.077615 99 100 99
-0.132812 0.238281 -0.081502 101 103 102
-0.128906 0.238281 -0.085438 106 110 108
-0.125000 0.238281 -0.089265 116 121 118
-0.121094 0.238281 -0.093020 127 133 129
-0.117188 0.238281 -0.096691 137 143 138
-0.113281 0.238281 -0.100221 143 150 142
-0.109375 0.238281 -0.103612 145 153 143
-0.105469 0.238281 -0.106665 143 152 142
-0.101562 0.238281 -0.109491 139 149 137
-0.097656 0.238281 -0.112222 134 144 132
-0.093750 0.238281 -0.114853 133 143 133
-0.089844 0.238281 -0.117353 141 151 145
-0.085938 0.238281 -0.119723 188 199 192
-0.082031 0.238281 -0.121952 179 192 201
-0.078125 0.238281 -0.123997 173 189 203
-0.074219 0.238281 -0.125814 175 195 211
-0.070312 0.238281 -0.127489 177 198 217
-0.066406 0.238281 -0.129054 174 185 217
-0.062500 0.238281 -0.130574 158 171 203
-0.058594 0.238281 -0.131985 168 182 211
-0.054688 0.238281 -0.133279 177 191 218
-0.050781 0.238281 -0.134513 163 175 197
-0.046875 0.238281 -0.135675 170 179 196
-0.042969 0.238281 -0.136645 151 157 169
-0.039062 0.238281 -0.137477 159 160 165
-0.035156 0.238281 -0.138277 141 139 140
-0.031250 0.238281 -0.139059 163 157 157
-0.027344 0.238281 -0.139937 156 150 150
-0.023438 0.238281 -0.140850 159 157 160
-0.019531 0.238281 -0.141771 163 163 171
-0.015625 0.238281 -0.142672 175 181 195
-0.011719 0.238281 -0.143621 164 175 193
-0.007812 0.238281 -0.144574 176 188 210
-0.003906 0.238281 -0.145561 162 170 189
0.000000 0.238281 -0.146396 151 158 176
0.003906 0.238281 -0.147087 144 150 166
0.007812 0.238281 -0.147592 175 178 193
0.011719 0.238281 -0.147941 173 175 187
0.015625 0.238281 -0.148119 198 196 207
0.019531 0.238281 -0.148088 141 138 145
0.023438 0.238281 -0.147908 152 147 154
0.027344 0.238281 -0.147436 116 109 116
0.031250 0.238281 -0.146853 175 168 175
0.035156 0.238281 -0.146075 130 124 130
0.039062 0.238281 -0.145194 101 96 103
0.042969 0.238281 -0.144133 169 166 175
0.046875 0.238281 -0.142925 184 183 191
0.050781 0.238281 -0.141669 185 183 194
0.054688 0.238281 -0.140246 177 177 187
0.058594 0.238281 -0.138656 138 129 134
0.062500 0.238281 -0.136906 129 118 122
0.066406 0.238281 -0.134995 153 142 146
0.070312 0.238281 -0.132923 99 89 88
0.074219 0.238281 -0.130629 109 99 97
0.078125 0.238281 -0.128265 134 124 122
0.082031 0.238281 -0.125795 187 178 173
0.085938 0.238281 -0.123252 186 178 175
0.089844 0.238281 -0.120745 161 156 153
0.093750 0.238281 -0.117920 128 126 127
0.097656 0.238281 -0.114846 119 120 125
0.101562 0.238281 -0.111516 184 188 199
0.105469 0.238281 -0.107993 185 193 206
0.109375 0.238281 -0.104538 180 191 209
0.113281 0.238281 -0.101160 174 186 208
0.117188 0.238281 -0.097905 173 187 210
0.121094 0.238281 -0.094668 173 171 185
0.125000 0.238281 -0.091332 185 180 191
0.128906 0.238281 -0.087603 145 132 141
0.132812 0.238281 -0.083280 127 105 98
0.136719 0.238281 -0.079111 184 144 107
0.140625 0.238281 -0.074674 186 143 101
0.144531 0.238281 -0.070010 193 154 109
0.148438 0.238281 -0.064735 202 163 124
0.152344 0.238281 -0.058731 186 144 108
0.156250 0.238281 -0.052353 139 101 74
0.160156 0.238281 -0.044567 103 72 54
0.164062 0.238281 -0.033135 155 122 90
-0.179688 0.234375 -0.017865 39 53 63
-0.175781 0.234375 -0.030353 55 50 74
-0.171875 0.234375 -0.037736 55 53 61
-0.167969 0.234375 -0.043761 68 67 69
-0.164062 0.234375 -0.049563 83 83 84
-0.160156 0.234375 -0.054939 99 99 99
-0.156250 0.234375 -0.059731 106 106 106
-0.152344 0.234375 -0.063929 105 106 106
-0.148438 0.234375 -0.067986 103 104 103
-0.144531 0.234375 -0.072072 100 101 100
-0.140625 0.234375 -0.076200 98 99 98
-0.136719 0.234375 -0.080213 98 99 98
-0.132812 0.234375 -0.084053 101 103 101
-0.128906 0.234375 -0.087904 106 110 108
-0.125000 0.234375 -0.091644 116 122 118
-0.121094 0.234375 -0.095250 127 134 129
-0.117188 0.234375 -0.098788 137 143 138
-0.113281 0.234375 -0.102188 142 148 142
-0.109375 0.234375 -0.105488 142 149 141
-0.105469 0.234375 -0.108472 138 147 137
-0.101562 0.234375 -0.111237 132 143 131
-0.097656 0.234375 -0.113905 127 137 125
-0.093750 0.234375 -0.116458 132 143 132
-0.089844 0.234375 -0.118878 155 166 160
-0.085938 0.234375 -0.121163 197 208 211
-0.082031 0.234375 -0.123313 176 189 200
-0.078125 0.234375 -0.125296 174 190 206
-0.074219 0.234375 -0.127075 183 201 221
-0.070312 0.234375 -0.128736 167 185 207
-0.066406 0.234375 -0.130311 175 188 220
-0.062500 0.234375 -0.131848 169 183 212
-0.058594 0.234375 -0.133267 177 188 216
-0.054688 0.234375 -0.134588 178 190 214
-0.050781 0.234375 -0.135856 161 169 190
-0.046875 0.234375 -0.137053 155 161 175
-0.042969 0.234375 -0.138079 155 158 167
-0.039062 0.234375 -0.138955 160 159 164
-0.035156 0.234375 -0.139797 144 140 141
-0.031250 0.234375 -0.140599 180 175 172
-0.027344 0.234375 -0.141473 182 176 176
-0.023438 0.234375 -0.142360 156 151 155
-0.019531 0.234375 -0.143233 180 179 185
-0.015625 0.234375 -0.144081 183 185 197
-0.011719 0.234375 -0.144954 166 172 188
-0.007812 0.234375 -0.145833 179 186 204
-0.003906 0.234375 -0.146741 180 187 203
0.000000 0.234375 -0.147491 168 174 190
0.003906 0.234375 -0.148157 174 177 192
0.007812 0.234375 -0.148657 173 175 188
0.011719 0.234375 -0.149018 181 181 193
0.015625 0.234375 -0.149194 199 197 208
0.019531 0.234375 -0.149085 141 138 147
0.023438 0.234375 -0.148843 152 149 156
0.027344 0.234375 -0.148329 77 72 78
0.031250 0.234375 -0.147726 191 186 193
0.035156 0.234375 -0.146955 133 130 137
0.039062 0.234375 -0.146075 86 84 92
0.042969 0.234375 -0.145036 158 158 168
0.046875 0.234375 -0.143851 192 192 204
0.050781 0.234375 -0.142585 191 193 205
0.054688 0.234375 -0.141135 172 174 187
0.058594 0.234375 -0.139514 157 150 158
0.062500 0.234375 -0.137746 98 91 98
0.066406 0.234375 -0.135827 127 121 125
0.070312 0.234375 -0.133738 117 108 111
0.074219 0.234375 -0.131393 125 116 117
0.078125 0.234375 -0.128990 99 91 89
0.082031 0.234375 -0.126519 135 127 125
0.085938 0.234375 -0.123965 144 138 138
0.089844 0.234375 -0.121435 175 171 172
0.093750 0.234375 -0.118573 153 151 156
0.097656 0.234375 -0.115489 138 138 146
0.101562 0.234375 -0.112130 163 165 178
0.105469 0.234375 -0.108551 200 206 222
0.109375 0.234375 -0.105075 170 178 199
0.113281 0.234375 -0.101715 155 166 188
0.117188 0.234375 -0.098513 176 186 211
0.121094 0.234375 -0.095363 181 179 193
0.125000 0.234375 -0.092113 179 174 188
0.128906 0.234375 -0.088447 141 132 140
0.132812 0.234375 -0.084172 127 109 107
0.136719 0.234375 -0.079970 139 99 77
0.140625 0.234375 -0.075523 171 125 91
0.144531 0.234375 -0.070894 196 153 110
0.148438 0.234375 -0.065706 193 151 107
0.152344 0.234375 -0.060008 190 150 107
0.156250 0.234375 -0.053888 169 127 90
0.160156 0.234375 -0.045724 112 76 57
0.164062 0.234375 -0.036095 133 106 81
0.167969 0.234375 -0.014225 185 166 140
-0.179688 0.230469 -0.025502 57 66 89
-0.175781 0.230469 -0.035125 65 61 78
-0.171875 0.230469 -0.041037 64 63 67
-0.167969 0.230469 -0.046668 78 78 79
-0.164062 0.230469 -0.052425 94 95 95
-0.160156 0.230469 -0.057479 106 106 106
-0.156250 0.230469 -0.062180 109 110 109
-0.152344 0.230469 -0.066412 107 107 107
-0.148438 0.230469 -0.070499 103 104 103
-0.144531 0.230469 -0.074628 100 101 100
-0.140625 0.230469 -0.078745 98 99 98
-0.136719 0.230469 -0.082773 97 99 98
-0.132812 0.230469 -0.086542 100 103 101
-0.128906 0.230469 -0.090257 106 111 108
-0.125000 0.230469 -0.093876 117 123 118
-0.121094 0.230469 -0.097324 128 135 129
-0.117188 0.230469 -0.100728 137 144 138
-0.113281 0.230469 -0.103991 140 148 141
-0.109375 0.230469 -0.107180 139 147 139
-0.105469 0.230469 -0.110102 134 145 134
-0.101562 0.230469 -0.112809 127 139 127
-0.097656 0.230469 -0.115403 123 135 124
-0.093750 0.230469 -0.117874 141 153 142
-0.089844 0.230469 -0.120211 183 193 186
-0.085938 0.230469 -0.122405 192 202 209
-0.082031 0.230469 -0.124465 182 195 207
-0.078125 0.230469 -0.126392 175 192 207
-0.074219 0.230469 -0.128148 191 208 228
-0.070312 0.230469 -0.129797 153 171 193
-0.066406 0.230469 -0.131371 162 176 205
-0.062500 0.230469 -0.132920 178 189 217
-0.058594 0.230469 -0.134371 171 181 208
-0.054688 0.230469 -0.135741 179 187 208
-0.050781 0.230469 -0.137055 160 166 182
-0.046875 0.230469 -0.138271 133 135 147
-0.042969 0.230469 -0.139330 159 158 164
-0.039062 0.230469 -0.140260 148 143 147
-0.035156 0.230469 -0.141147 146 140 140
-0.031250 0.230469 -0.141967 180 172 170
-0.027344 0.230469 -0.142839 201 192 193
-0.023438 0.230469 -0.143715 149 143 145
-0.019531 0.230469 -0.144556 188 186 191
-0.015625 0.230469 -0.145367 185 183 194
-0.011719 0.230469 -0.146206 173 175 187
-0.007812 0.230469 -0.147053 178 182 194
-0.003906 0.230469 -0.147922 180 184 196
0.000000 0.230469 -0.148607 162 166 178
0.003906 0.230469 -0.149230 164 166 179
0.007812 0.230469 -0.149701 164 164 176
0.011719 0.230469 -0.150022 189 189 199
0.015625 0.230469 -0.150184 204 203 211
0.019531 0.230469 -0.150066 145 141 150
0.023438 0.230469 -0.149793 155 152 161
0.027344 0.230469 -0.149240 74 71 80
0.031250 0.230469 -0.148619 203 202 210
0.035156 0.230469 -0.147847 155 153 164
0.039062 0.230469 -0.146952 110 110 122
0.042969 0.230469 -0.145910 166 168 181
0.046875 0.230469 -0.144734 193 197 209
0.050781 0.230469 -0.143459 180 186 200
0.054688 0.230469 -0.141990 157 163 177
0.058594 0.230469 -0.140366 160 157 166
0.062500 0.230469 -0.138588 132 129 138
0.066406 0.230469 -0.136643 154 151 158
0.070312 0.230469 -0.134559 114 109 115
0.074219 0.230469 -0.132191 105 100 104
0.078125 0.230469 -0.129738 101 96 100
0.082031 0.230469 -0.127246 118 114 115
0.085938 0.230469 -0.124673 92 87 91
0.089844 0.230469 -0.122104 170 165 171
0.093750 0.230469 -0.119206 146 143 150
0.097656 0.230469 -0.116097 148 146 157
0.101562 0.230469 -0.112708 205 207 222
0.105469 0.230469 -0.109097 169 172 191
0.109375 0.230469 -0.105601 180 185 207
0.113281 0.230469 -0.102273 159 164 190
0.117188 0.230469 -0.099132 164 170 196
0.121094 0.230469 -0.096028 198 197 213
0.125000 0.230469 -0.092827 175 173 185
0.128906 0.230469 -0.089164 155 147 155
0.132812 0.230469 -0.084896 140 126 128
0.136719 0.230469 -0.080730 136 106 93
0.140625 0.230469 -0.076428 157 119 90
0.144531 0.230469 -0.071851 196 155 114
0.148438 0.230469 -0.066615 194 150 109
0.152344 0.230469 -0.061343 185 143 105
0.156250 0.230469 -0.055520 174 130 94
0.160156 0.230469 -0.047519 134 90 66
0.164062 0.230469 -0.038785 130 99 75
0.167969 0.230469 -0.024515 141 112 99
-0.179688 0.226562 -0.030652 53 51 74
-0.175781 0.226562 -0.038619 59 56 65
-0.171875 0.226562 -0.044061 69 68 70
-0.167969 0.226562 -0.049651 90 90 91
-0.164062 0.226562 -0.054987 104 104 104
-0.160156 0.226562 -0.059944 111 111 111
-0.156250 0.226562 -0.064557 111 112 112
-0.152344 0.226562 -0.068783 108 108 108
-0.148438 0.226562 -0.072946 103 104 104
-0.144531 0.226562 -0.077140 100 101 100
-0.140625 0.226562 -0.081256 98 99 98
-0.136719 0.226562 -0.085255 98 100 98
-0.132812 0.226562 -0.088939 101 104 102
-0.128906 0.226562 -0.092517 107 113 109
-0.125000 0.226562 -0.096011 117 124 119
-0.121094 0.226562 -0.099296 129 136 130
-0.117188 0.226562 -0.102566 137 144 139
-0.113281 0.226562 -0.105711 140 148 140
-0.109375 0.226562 -0.108789 138 146 139
-0.105469 0.226562 -0.111639 132 143 133
-0.101562 0.226562 -0.114264 124 137 126
-0.097656 0.226562 -0.116764 126 138 128
-0.093750 0.226562 -0.119142 161 172 162
-0.089844 0.226562 -0.121384 200 209 211
-0.085938 0.226562 -0.123497 182 191 202
-0.082031 0.226562 -0.125478 189 202 217
-0.078125 0.226562 -0.127345 178 193 211
-0.074219 0.226562 -0.129080 186 202 225
-0.070312 0.226562 -0.130737 150 168 190
-0.066406 0.226562 -0.132317 156 170 199
-0.062500 0.226562 -0.133866 177 189 215
-0.058594 0.226562 -0.135346 168 179 201
-0.054688 0.226562 -0.136766 182 187 206
-0.050781 0.226562 -0.138133 172 174 187
-0.046875 0.226562 -0.139393 135 134 142
-0.042969 0.226562 -0.140498 164 159 163
-0.039062 0.226562 -0.141462 136 127 130
-0.035156 0.226562 -0.142380 144 135 136
-0.031250 0.226562 -0.143214 159 150 151
-0.027344 0.226562 -0.144080 191 182 183
-0.023438 0.226562 -0.144944 140 134 136
-0.019531 0.226562 -0.145757 171 166 172
-0.015625 0.226562 -0.146548 181 178 185
-0.011719 0.226562 -0.147363 180 177 186
-0.007812 0.226562 -0.148168 178 177 185
-0.003906 0.226562 -0.148975 168 168 180
0.000000 0.226562 -0.149595 164 164 176
0.003906 0.226562 -0.150170 166 166 176
0.007812 0.226562 -0.150588 187 187 197
0.011719 0.226562 -0.150852 209 207 218
0.015625 0.226562 -0.150981 189 187 198
0.019531 0.226562 -0.150837 109 108 115
0.023438 0.226562 -0.150581 112 110 120
0.027344 0.226562 -0.150071 107 106 116
0.031250 0.226562 -0.149430 195 195 207
0.035156 0.226562 -0.148634 165 166 179
0.039062 0.226562 -0.147740 154 157 169
0.042969 0.226562 -0.146703 182 188 202
0.046875 0.226562 -0.145545 179 186 202
0.050781 0.226562 -0.144280 146 153 171
0.054688 0.226562 -0.142818 139 148 165
0.058594 0.226562 -0.141222 184 184 196
0.062500 0.226562 -0.139437 156 156 168
0.066406 0.226562 -0.137458 185 185 195
0.070312 0.226562 -0.135358 177 176 184
0.074219 0.226562 -0.132948 132 131 137
0.078125 0.226562 -0.130455 89 88 94
0.082031 0.226562 -0.127940 118 115 122
0.085938 0.226562 -0.125346 172 169 176
0.089844 0.226562 -0.122742 176 173 182
0.093750 0.226562 -0.119802 162 160 171
0.097656 0.226562 -0.116670 173 171 185
0.101562 0.226562 -0.113243 189 188 206
0.105469 0.226562 -0.109605 176 177 198
0.109375 0.226562 -0.106127 180 180 206
0.113281 0.226562 -0.102840 166 167 195
0.117188 0.226562 -0.099731 178 179 209
0.121094 0.226562 -0.096680 196 197 214
0.125000 0.226562 -0.093594 175 173 187
0.128906 0.226562 -0.089985 170 162 172
0.132812 0.226562 -0.085735 168 154 158
0.136719 0.226562 -0.081623 169 147 141
0.140625 0.226562 -0.077384 146 119 96
0.144531 0.226562 -0.072856 167 130 98
0.148438 0.226562 -0.067788 179 137 102
0.152344 0.226562 -0.062809 185 147 110
0.156250 0.226562 -0.057225 181 143 104
0.160156 0.226562 -0.049839 161 121 84
0.164062 0.226562 -0.041279 155 122 90
0.167969 0.226562 -0.029715 177 165 138
-0.183594 0.222656 -0.021278 17 13 23
-0.179688 0.222656 -0.034315 50 45 63
-0.175781 0.222656 -0.041628 59 58 62
-0.171875 0.222656 -0.047011 81 81 82
-0.167969 0.222656 -0.052337 104 104 104
-0.164062 0.222656 -0.057512 113 114 114
-0.160156 0.222656 -0.062349 116 116 116
-0.156250 0.222656 -0.066838 114 114 114
-0.152344 0.222656 -0.071099 109 110 109
-0.148438 0.222656 -0.075363 104 105 104
-0.144531 0.222656 -0.079632 100 102 101
-0.140625 0.222656 -0.083739 98 100 99
-0.136719 0.222656 -0.087707 99 101 99
-0.132812 0.222656 -0.091278 102 105 102
-0.128906 0.222656 -0.094686 108 113 110
-0.125000 0.222656 -0.098032 118 124 120
-0.121094 0.222656 -0.101151 129 135 130
-0.117188 0.222656 -0.104287 136 143 138
-0.113281 0.222656 -0.107317 138 145 140
-0.109375 0.222656 -0.110264 137 145 138
-0.105469 0.222656 -0.113017 132 142 134
-0.101562 0.222656 -0.115550 125 137 126
-0.097656 0.222656 -0.117941 134 145 135
-0.093750 0.222656 -0.120211 181 191 185
-0.089844 0.222656 -0.122360 186 193 200
-0.085938 0.222656 -0.124399 176 185 199
-0.082031 0.222656 -0.126303 192 203 221
-0.078125 0.222656 -0.128112 179 194 214
-0.074219 0.222656 -0.129827 169 185 208
-0.070312 0.222656 -0.131485 160 178 202
-0.066406 0.222656 -0.133063 170 184 211
-0.062500 0.222656 -0.134616 170 182 206
-0.058594 0.222656 -0.136131 174 181 200
-0.054688 0.222656 -0.137574 177 179 194
-0.050781 0.222656 -0.138959 183 180 189
-0.046875 0.222656 -0.140260 159 153 157
-0.042969 0.222656 -0.141415 169 159 160
-0.039062 0.222656 -0.142418 137 127 128
-0.035156 0.222656 -0.143378 143 133 134
-0.031250 0.222656 -0.144259 139 130 131
-0.027344 0.222656 -0.145156 163 157 159
-0.023438 0.222656 -0.146035 138 132 136
-0.019531 0.222656 -0.146837 131 126 132
-0.015625 0.222656 -0.147607 180 175 181
-0.011719 0.222656 -0.148413 181 174 181
-0.007812 0.222656 -0.149183 180 173 180
-0.003906 0.222656 -0.149928 169 168 176
0.000000 0.222656 -0.150509 181 180 188
0.003906 0.222656 -0.151031 165 164 172
0.007812 0.222656 -0.151411 186 185 193
0.011719 0.222656 -0.151678 170 168 179
0.015625 0.222656 -0.151799 128 125 136
0.019531 0.222656 -0.151639 82 82 92
0.023438 0.222656 -0.151384 127 127 138
0.027344 0.222656 -0.150879 150 152 164
0.031250 0.222656 -0.150240 175 179 191
0.035156 0.222656 -0.149440 158 164 178
0.039062 0.222656 -0.148541 175 180 196
0.042969 0.222656 -0.147517 182 189 207
0.046875 0.222656 -0.146388 167 175 194
0.050781 0.222656 -0.145145 121 132 150
0.054688 0.222656 -0.143683 128 139 157
0.058594 0.222656 -0.142082 147 150 165
0.062500 0.222656 -0.140292 171 174 189
0.066406 0.222656 -0.138288 185 189 201
0.070312 0.222656 -0.136156 154 156 168
0.074219 0.222656 -0.133716 104 106 118
0.078125 0.222656 -0.131188 103 103 113
0.082031 0.222656 -0.128635 107 107 117
0.085938 0.222656 -0.126023 132 132 142
0.089844 0.222656 -0.123379 176 174 187
0.093750 0.222656 -0.120375 166 164 178
0.097656 0.222656 -0.117237 177 174 191
0.101562 0.222656 -0.113783 142 139 160
0.105469 0.222656 -0.110122 184 182 204
0.109375 0.222656 -0.106672 171 168 195
0.113281 0.222656 -0.103430 168 165 194
0.117188 0.222656 -0.100366 183 180 209
0.121094 0.222656 -0.097396 180 183 200
0.125000 0.222656 -0.094419 180 179 194
0.128906 0.222656 -0.090879 163 159 168
0.132812 0.222656 -0.086734 182 170 175
0.136719 0.222656 -0.082666 165 149 147
0.140625 0.222656 -0.078427 159 136 124
0.144531 0.222656 -0.074036 136 108 87
0.148438 0.222656 -0.069181 137 106 81
0.152344 0.222656 -0.064394 172 139 107
0.156250 0.222656 -0.058962 178 147 115
0.160156 0.222656 -0.052398 168 136 104
0.164062 0.222656 -0.044160 178 147 117
0.167969 0.222656 -0.032217 185 166 140
-0.183594 0.218750 -0.026552 35 29 45
-0.179688 0.218750 -0.037794 43 40 49
-0.175781 0.218750 -0.044227 56 55 57
-0.171875 0.218750 -0.049885 82 82 83
-0.167969 0.218750 -0.054981 104 105 105
-0.164062 0.218750 -0.059922 113 113 113
-0.160156 0.218750 -0.064594 114 115 114
-0.156250 0.218750 -0.069044 112 113 113
-0.152344 0.218750 -0.073386 108 109 108
-0.148438 0.218750 -0.077722 104 105 104
-0.144531 0.218750 -0.082059 100 102 101
-0.140625 0.218750 -0.086143 99 101 99
-0.136719 0.218750 -0.090034 99 102 100
-0.132812 0.218750 -0.093482 103 106 104
-0.128906 0.218750 -0.096722 109 115 111
-0.125000 0.218750 -0.099928 119 126 121
-0.121094 0.218750 -0.102898 130 136 131
-0.117188 0.218750 -0.105913 136 143 138
-0.113281 0.218750 -0.108846 137 145 139
-0.109375 0.218750 -0.111654 136 144 137
-0.105469 0.218750 -0.114304 134 143 135
-0.101562 0.218750 -0.116744 131 142 133
-0.097656 0.218750 -0.119015 148 159 150
-0.093750 0.218750 -0.121166 196 205 206
-0.089844 0.218750 -0.123216 164 172 183
-0.085938 0.218750 -0.125189 175 185 200
-0.082031 0.218750 -0.127025 191 202 222
-0.078125 0.218750 -0.128776 178 194 214
-0.074219 0.218750 -0.130464 153 169 194
-0.070312 0.218750 -0.132114 172 188 212
-0.066406 0.218750 -0.133686 186 202 224
-0.062500 0.218750 -0.135257 162 173 192
-0.058594 0.218750 -0.136810 174 180 196
-0.054688 0.218750 -0.138275 164 162 173
-0.050781 0.218750 -0.139676 182 176 180
-0.046875 0.218750 -0.140976 179 167 169
-0.042969 0.218750 -0.142136 170 156 155
-0.039062 0.218750 -0.143175 145 131 131
-0.035156 0.218750 -0.144183 146 136 137
-0.031250 0.218750 -0.145114 130 121 124
-0.027344 0.218750 -0.146045 141 136 142
-0.023438 0.218750 -0.146957 140 135 141
-0.019531 0.218750 -0.147778 101 95 101
-0.015625 0.218750 -0.148551 180 174 178
-0.011719 0.218750 -0.149359 178 169 174
-0.007812 0.218750 -0.150116 181 170 174
-0.003906 0.218750 -0.150842 129 126 133
0.000000 0.218750 -0.151399 170 167 176
0.003906 0.218750 -0.151844 159 156 165
0.007812 0.218750 -0.152159 182 181 189
0.011719 0.218750 -0.152380 132 130 141
0.015625 0.218750 -0.152487 79 79 88
0.019531 0.218750 -0.152355 78 78 89
0.023438 0.218750 -0.152091 168 170 183
0.027344 0.218750 -0.151584 181 184 199
