ply
    format ascii 1.0
    element vertex 82394
    property float x
    property float y
    property float z
    property uchar red
    property uchar green
    property uchar blue
    end_header
0.027344 -0.859375 0.058679 196 159 135
0.031250 -0.859375 0.060616 196 160 137
0.035156 -0.859375 0.061987 197 162 140
0.039062 -0.859375 0.062478 195 160 140
0.042969 -0.859375 0.062692 194 161 141
0.046875 -0.859375 0.062758 188 156 135
0.050781 -0.859375 0.063206 184 153 134
0.054688 -0.859375 0.063242 190 161 141
0.058594 -0.859375 0.061806 191 157 134
0.062500 -0.859375 0.057995 209 173 147
0.066406 -0.859375 0.045068 163 113 98
0.101562 -0.859375 -0.030638 96 51 41
0.105469 -0.859375 -0.151040 158 99 68
0.109375 -0.859375 -0.016199 148 95 73
0.113281 -0.859375 0.004283 182 135 111
0.117188 -0.859375 0.009662 191 146 122
0.121094 -0.859375 0.011820 181 135 115
0.125000 -0.859375 0.010690 166 116 98
0.128906 -0.859375 0.010377 125 79 65
0.132812 -0.859375 0.008196 114 73 58
0.136719 -0.859375 0.007092 162 114 93
0.140625 -0.859375 0.007221 184 135 113
0.144531 -0.859375 0.006945 170 120 97
0.148438 -0.859375 0.008206 142 96 75
0.152344 -0.859375 0.011859 127 84 68
0.156250 -0.859375 0.016644 170 122 100
0.160156 -0.859375 0.020121 201 157 133
0.164062 -0.859375 0.021821 172 124 105
0.167969 -0.859375 0.022692 125 83 71
0.171875 -0.859375 0.022848 157 113 92
0.175781 -0.859375 0.022321 199 157 131
0.179688 -0.859375 0.019134 183 135 113
0.183594 -0.859375 0.013666 161 112 93
0.187500 -0.859375 0.006318 186 137 109
0.191406 -0.859375 -0.004573 204 162 126
0.195312 -0.859375 -0.018726 168 125 103
-0.027344 -0.863281 -0.041836 135 41 36
-0.023438 -0.863281 -0.030007 95 37 37
-0.019531 -0.863281 -0.019123 164 124 108
-0.015625 -0.863281 -0.001509 172 136 111
-0.011719 -0.863281 0.012504 168 130 103
-0.007812 -0.863281 0.021294 176 141 114
-0.003906 -0.863281 0.028716 176 142 114
0.000000 -0.863281 0.035215 186 150 121
0.003906 -0.863281 0.040594 186 147 119
0.007812 -0.863281 0.044926 185 146 118
0.011719 -0.863281 0.048875 187 148 121
0.015625 -0.863281 0.053045 189 150 124
0.019531 -0.863281 0.056325 193 155 129
0.023438 -0.863281 0.058603 196 158 133
0.027344 -0.863281 0.060603 197 159 136
0.031250 -0.863281 0.062664 198 161 139
0.035156 -0.863281 0.064188 198 163 143
0.039062 -0.863281 0.064913 196 161 143
0.042969 -0.863281 0.065487 196 162 143
0.046875 -0.863281 0.065831 191 157 138
0.050781 -0.863281 0.066629 185 153 134
0.054688 -0.863281 0.066857 188 157 138
0.058594 -0.863281 0.066192 188 153 132
0.062500 -0.863281 0.063482 205 169 145
0.066406 -0.863281 0.052879 163 116 95
0.105469 -0.863281 -0.133650 158 99 65
0.109375 -0.863281 -0.015661 159 102 74
0.113281 -0.863281 0.007319 183 133 108
0.117188 -0.863281 0.013188 189 142 117
0.121094 -0.863281 0.014942 184 139 116
0.125000 -0.863281 0.014417 168 120 100
0.128906 -0.863281 0.013917 126 80 65
0.132812 -0.863281 0.012239 117 75 60
0.136719 -0.863281 0.011751 170 121 102
0.140625 -0.863281 0.012296 188 138 120
0.144531 -0.863281 0.012392 166 114 95
0.148438 -0.863281 0.014008 145 96 79
0.152344 -0.863281 0.017825 143 96 82
0.156250 -0.863281 0.022243 173 124 108
0.160156 -0.863281 0.025028 195 147 126
0.164062 -0.863281 0.026674 185 132 112
0.167969 -0.863281 0.028503 159 108 92
0.171875 -0.863281 0.028821 170 123 106
0.175781 -0.863281 0.027971 192 143 123
0.179688 -0.863281 0.025253 179 119 103
0.183594 -0.863281 0.018263 180 122 104
0.187500 -0.863281 0.011924 187 133 110
0.191406 -0.863281 -0.006033 174 125 100
-0.027344 -0.867188 -0.041693 129 36 30
-0.023438 -0.867188 -0.029718 100 40 33
-0.019531 -0.867188 -0.018439 168 128 100
-0.015625 -0.867188 -0.000756 177 141 109
-0.011719 -0.867188 0.013382 171 133 103
-0.007812 -0.867188 0.022429 177 143 114
-0.003906 -0.867188 0.029705 180 146 118
0.000000 -0.867188 0.036138 187 150 121
0.003906 -0.867188 0.041587 183 144 116
0.007812 -0.867188 0.046115 183 143 116
0.011719 -0.867188 0.050351 187 147 120
0.015625 -0.867188 0.054689 189 149 124
0.019531 -0.867188 0.058129 192 153 127
0.023438 -0.867188 0.060550 195 157 132
0.027344 -0.867188 0.062678 198 161 137
0.031250 -0.867188 0.064879 199 163 141
0.035156 -0.867188 0.066564 200 165 145
0.039062 -0.867188 0.067550 197 162 144
0.042969 -0.867188 0.068451 197 163 145
0.046875 -0.867188 0.069060 192 158 140
0.050781 -0.867188 0.070092 186 153 135
0.054688 -0.867188 0.070546 187 154 135
0.058594 -0.867188 0.070563 180 144 124
0.062500 -0.867188 0.068444 198 157 136
0.066406 -0.867188 0.062140 181 125 107
0.105469 -0.867188 -0.114665 158 99 62
0.109375 -0.867188 -0.015983 147 83 57
0.113281 -0.867188 0.004469 152 96 77
0.117188 -0.867188 0.012948 162 112 91
0.121094 -0.867188 0.016553 187 142 117
0.125000 -0.867188 0.016903 193 146 122
0.128906 -0.867188 0.016531 158 106 86
0.132812 -0.867188 0.015559 146 97 77
0.136719 -0.867188 0.015586 196 150 127
0.140625 -0.867188 0.016326 212 170 151
0.144531 -0.867188 0.016524 195 146 125
0.148438 -0.867188 0.018553 184 133 113
0.152344 -0.867188 0.022569 196 148 130
0.156250 -0.867188 0.026379 201 155 139
0.160156 -0.867188 0.028754 178 128 113
0.164062 -0.867188 0.030029 169 118 99
0.167969 -0.867188 0.032475 198 149 125
0.171875 -0.867188 0.034430 219 180 160
0.175781 -0.867188 0.032400 211 166 150
0.179688 -0.867188 0.028165 190 129 114
0.183594 -0.867188 0.020189 208 147 126
0.187500 -0.867188 0.012921 176 105 97
0.191406 -0.867188 -0.009786 59 27 34
-0.027344 -0.871094 -0.042281 137 45 29
-0.023438 -0.871094 -0.029410 109 49 33
-0.019531 -0.871094 -0.016764 160 120 86
-0.015625 -0.871094 0.000387 176 138 104
-0.011719 -0.871094 0.014300 176 139 108
-0.007812 -0.871094 0.023753 183 150 121
-0.003906 -0.871094 0.030973 188 155 127
0.000000 -0.871094 0.037406 190 154 125
0.003906 -0.871094 0.042890 182 143 115
0.007812 -0.871094 0.047577 181 142 114
0.011719 -0.871094 0.052024 186 146 120
0.015625 -0.871094 0.056439 188 149 123
0.019531 -0.871094 0.059981 191 151 126
0.023438 -0.871094 0.062533 194 156 131
0.027344 -0.871094 0.064801 198 161 137
0.031250 -0.871094 0.067158 199 163 141
0.035156 -0.871094 0.069024 200 166 145
0.039062 -0.871094 0.070275 199 165 146
0.042969 -0.871094 0.071470 200 166 147
0.046875 -0.871094 0.072401 197 164 145
0.050781 -0.871094 0.073603 191 159 139
0.054688 -0.871094 0.074312 189 156 136
0.058594 -0.871094 0.074837 177 140 121
0.062500 -0.871094 0.072569 196 151 132
0.066406 -0.871094 0.071692 204 147 125
0.105469 -0.871094 -0.043742 128 69 44
0.109375 -0.871094 -0.014016 93 41 27
0.113281 -0.871094 0.005706 90 45 36
0.117188 -0.871094 0.012420 107 63 49
0.121094 -0.871094 0.018939 142 96 75
0.125000 -0.871094 0.021575 147 99 79
0.128906 -0.871094 0.022422 116 73 58
0.132812 -0.871094 0.021547 130 84 68
0.136719 -0.871094 0.021045 186 139 117
0.140625 -0.871094 0.021638 205 161 140
0.144531 -0.871094 0.022063 188 140 119
0.148438 -0.871094 0.024618 175 128 108
0.152344 -0.871094 0.028593 204 162 140
0.156250 -0.871094 0.032250 220 183 162
0.160156 -0.871094 0.034610 183 136 115
0.164062 -0.871094 0.035175 146 97 80
0.167969 -0.871094 0.036998 191 132 116
0.171875 -0.871094 0.039176 225 182 168
0.175781 -0.871094 0.037378 205 152 145
0.179688 -0.871094 0.030039 133 66 69
0.183594 -0.871094 0.020255 135 52 55
0.187500 -0.871094 0.011373 114 33 44
-0.027344 -0.875000 -0.043882 151 58 37
-0.023438 -0.875000 -0.028914 145 75 52
-0.019531 -0.875000 -0.015705 162 120 90
-0.015625 -0.875000 0.001284 167 129 99
-0.011719 -0.875000 0.015205 178 142 113
-0.007812 -0.875000 0.025100 187 155 127
-0.003906 -0.875000 0.032426 192 160 132
0.000000 -0.875000 0.038978 192 156 127
0.003906 -0.875000 0.044532 185 146 117
0.007812 -0.875000 0.049398 183 143 115
0.011719 -0.875000 0.054011 186 146 119
0.015625 -0.875000 0.058453 188 148 122
0.019531 -0.875000 0.062071 190 150 125
0.023438 -0.875000 0.064716 193 155 130
0.027344 -0.875000 0.067115 197 160 136
0.031250 -0.875000 0.069597 200 164 141
0.035156 -0.875000 0.071621 201 166 145
0.039062 -0.875000 0.073123 200 167 146
0.042969 -0.875000 0.074552 201 168 148
0.046875 -0.875000 0.075845 200 167 146
0.050781 -0.875000 0.077204 193 161 140
0.054688 -0.875000 0.077941 190 158 137
0.058594 -0.875000 0.078528 184 149 128
0.062500 -0.875000 0.075958 197 156 133
0.066406 -0.875000 0.076662 204 147 120
0.070312 -0.875000 0.024459 140 65 51
0.109375 -0.875000 -0.016370 72 29 23
0.113281 -0.875000 0.011353 65 30 22
0.117188 -0.875000 0.015364 82 43 32
0.121094 -0.875000 0.022519 118 72 53
0.125000 -0.875000 0.026356 123 81 62
0.128906 -0.875000 0.028198 108 71 56
0.132812 -0.875000 0.027785 131 87 68
0.136719 -0.875000 0.026691 167 117 96
0.140625 -0.875000 0.026809 180 129 109
0.144531 -0.875000 0.027597 170 120 100
0.148438 -0.875000 0.030455 150 106 87
0.152344 -0.875000 0.034415 172 127 105
0.156250 -0.875000 0.038009 195 148 128
0.160156 -0.875000 0.040589 160 106 89
0.164062 -0.875000 0.041286 123 68 57
0.167969 -0.875000 0.041382 136 71 73
0.171875 -0.875000 0.041842 192 128 139
0.175781 -0.875000 0.039291 202 138 152
0.179688 -0.875000 0.031463 135 51 67
0.183594 -0.875000 0.020624 101 23 32
0.187500 -0.875000 0.006273 116 24 36
-0.027344 -0.878906 -0.041263 112 35 26
-0.023438 -0.878906 -0.029861 163 87 66
-0.019531 -0.878906 -0.015841 172 127 99
-0.015625 -0.878906 0.002413 158 117 93
-0.011719 -0.878906 0.016326 176 138 111
-0.007812 -0.878906 0.026436 188 155 128
-0.003906 -0.878906 0.033966 192 158 130
0.000000 -0.878906 0.040660 189 153 124
0.003906 -0.878906 0.046340 185 145 117
0.007812 -0.878906 0.051433 186 147 118
0.011719 -0.878906 0.056176 188 149 122
0.015625 -0.878906 0.060613 189 150 124
0.019531 -0.878906 0.064238 190 150 125
0.023438 -0.878906 0.066927 192 153 129
0.027344 -0.878906 0.069442 196 158 134
0.031250 -0.878906 0.072013 199 163 140
0.035156 -0.878906 0.074180 200 165 143
0.039062 -0.878906 0.075938 200 166 145
0.042969 -0.878906 0.077579 201 167 145
0.046875 -0.878906 0.079213 200 167 145
0.050781 -0.878906 0.080720 193 161 139
0.054688 -0.878906 0.081632 189 157 135
0.058594 -0.878906 0.082284 192 159 137
0.062500 -0.878906 0.079366 200 162 139
0.066406 -0.878906 0.078782 199 143 118
0.070312 -0.878906 0.049391 186 113 95
0.113281 -0.878906 0.008404 78 37 27
0.117188 -0.878906 0.020679 88 44 34
0.121094 -0.878906 0.024257 142 82 66
0.125000 -0.878906 0.025962 186 132 107
0.128906 -0.878906 0.027499 190 145 116
0.132812 -0.878906 0.028918 180 133 104
0.136719 -0.878906 0.028521 174 122 99
0.140625 -0.878906 0.028814 176 122 104
0.144531 -0.878906 0.030702 183 134 113
0.148438 -0.878906 0.034316 186 143 120
0.152344 -0.878906 0.038144 198 157 132
0.156250 -0.878906 0.041518 206 165 145
0.160156 -0.878906 0.043864 202 154 134
0.164062 -0.878906 0.044036 211 153 129
0.167969 -0.878906 0.041911 189 116 112
0.171875 -0.878906 0.038410 174 101 123
0.175781 -0.878906 0.033878 183 96 135
0.179688 -0.878906 0.022717 155 49 75
0.183594 -0.878906 0.007137 141 33 44
-0.027344 -0.882812 -0.028126 100 39 29
-0.023438 -0.882812 -0.031405 164 92 77
-0.019531 -0.882812 -0.017393 184 138 114
-0.015625 -0.882812 0.003404 161 117 93
-0.011719 -0.882812 0.018066 171 131 105
-0.007812 -0.882812 0.028174 187 153 126
-0.003906 -0.882812 0.035756 190 156 128
0.000000 -0.882812 0.042503 186 149 121
0.003906 -0.882812 0.048377 184 145 116
0.007812 -0.882812 0.053686 189 151 122
0.011719 -0.882812 0.058576 192 154 126
0.015625 -0.882812 0.063036 190 151 125
0.019531 -0.882812 0.066673 189 149 124
0.023438 -0.882812 0.069393 191 152 127
0.027344 -0.882812 0.071964 194 156 133
0.031250 -0.882812 0.074579 197 161 138
0.035156 -0.882812 0.076864 200 165 141
0.039062 -0.882812 0.078905 201 167 144
0.042969 -0.882812 0.080795 202 169 144
0.046875 -0.882812 0.082735 202 169 144
0.050781 -0.882812 0.084349 196 163 139
0.054688 -0.882812 0.085231 189 157 133
0.058594 -0.882812 0.085975 190 158 135
0.062500 -0.882812 0.083355 194 157 135
0.066406 -0.882812 0.081054 199 150 126
0.070312 -0.882812 0.054524 200 143 118
0.117188 -0.882812 0.015383 107 70 62
0.121094 -0.882812 0.022335 114 69 65
0.125000 -0.882812 0.027474 135 84 75
0.128906 -0.882812 0.027871 172 120 102
0.132812 -0.882812 0.029205 163 112 91
0.136719 -0.882812 0.028536 168 117 94
0.140625 -0.882812 0.028002 185 135 110
0.144531 -0.882812 0.029261 198 154 125
0.148438 -0.882812 0.032609 201 160 139
0.152344 -0.882812 0.036359 189 144 130
0.156250 -0.882812 0.040177 171 124 114
0.160156 -0.882812 0.041851 163 110 98
0.164062 -0.882812 0.040341 193 122 104
0.167969 -0.882812 0.037908 145 60 60
0.171875 -0.882812 0.029548 47 13 22
0.175781 -0.882812 0.011743 21 4 15
-0.027344 -0.886719 -0.027894 161 107 82
-0.023438 -0.886719 -0.032958 117 67 57
-0.019531 -0.886719 -0.019273 153 109 87
-0.015625 -0.886719 0.004490 166 123 94
-0.011719 -0.886719 0.020764 176 137 106
-0.007812 -0.886719 0.030411 190 156 127
-0.003906 -0.886719 0.037882 189 154 126
0.000000 -0.886719 0.044683 186 148 120
0.003906 -0.886719 0.050688 185 146 118
0.007812 -0.886719 0.056114 190 151 123
0.011719 -0.886719 0.061068 192 153 126
0.015625 -0.886719 0.065528 189 150 124
0.019531 -0.886719 0.069198 188 148 123
0.023438 -0.886719 0.071947 190 151 126
0.027344 -0.886719 0.074545 194 156 131
0.031250 -0.886719 0.077201 197 161 137
0.035156 -0.886719 0.079610 200 164 140
0.039062 -0.886719 0.081968 202 167 142
0.042969 -0.886719 0.084164 202 168 141
0.046875 -0.886719 0.086431 202 169 142
0.050781 -0.886719 0.088249 199 166 140
0.054688 -0.886719 0.088861 193 160 135
0.058594 -0.886719 0.089370 190 157 133
0.062500 -0.886719 0.087927 192 156 131
0.066406 -0.886719 0.084647 201 164 133
0.070312 -0.886719 0.062324 168 125 95
0.125000 -0.886719 -0.004895 44 27 29
0.128906 -0.886719 0.011697 59 31 34
0.132812 -0.886719 0.019297 56 27 27
0.136719 -0.886719 0.021105 71 38 33
0.140625 -0.886719 0.021599 71 39 30
0.144531 -0.886719 0.021020 51 29 22
0.148438 -0.886719 0.022959 37 23 20
0.152344 -0.886719 0.026834 21 15 16
0.156250 -0.886719 0.031537 23 17 23
0.160156 -0.886719 0.035424 23 15 21
0.164062 -0.886719 0.033175 32 15 17
0.167969 -0.886719 0.020517 34 11 14
-0.027344 -0.890625 -0.024011 221 203 172
-0.023438 -0.890625 -0.034056 72 48 39
-0.019531 -0.890625 -0.020272 104 76 55
-0.015625 -0.890625 0.006143 170 129 95
-0.011719 -0.890625 0.023708 186 146 111
-0.007812 -0.890625 0.033139 194 159 128
-0.003906 -0.890625 0.040497 187 151 122
0.000000 -0.890625 0.047307 187 150 120
0.003906 -0.890625 0.053402 189 151 122
0.007812 -0.890625 0.058892 190 151 123
0.011719 -0.890625 0.063856 189 150 123
0.015625 -0.890625 0.068343 188 148 122
0.019531 -0.890625 0.072093 188 148 123
0.023438 -0.890625 0.074834 190 151 126
0.027344 -0.890625 0.077437 194 157 132
0.031250 -0.890625 0.080097 198 162 137
0.035156 -0.890625 0.082645 199 164 139
0.039062 -0.890625 0.085333 200 166 140
0.042969 -0.890625 0.087875 201 168 139
0.046875 -0.890625 0.090479 202 169 140
0.050781 -0.890625 0.092441 199 167 139
0.054688 -0.890625 0.092914 194 162 135
0.058594 -0.890625 0.093130 190 158 132
0.062500 -0.890625 0.091908 189 156 129
0.066406 -0.890625 0.088187 204 173 139
0.070312 -0.890625 0.071470 179 151 112
0.148438 -0.890625 -0.005149 14 13 10
0.152344 -0.890625 0.003372 39 45 35
0.156250 -0.890625 0.011803 216 222 207
0.160156 -0.890625 0.013569 238 238 229
-0.023438 -0.894531 -0.035630 90 71 56
-0.019531 -0.894531 -0.019964 117 96 70
-0.015625 -0.894531 0.008745 178 138 103
-0.011719 -0.894531 0.026400 189 147 113
-0.007812 -0.894531 0.035946 199 162 131
-0.003906 -0.894531 0.043363 191 152 123
0.000000 -0.894531 0.050231 194 155 126
0.003906 -0.894531 0.056503 196 158 129
0.007812 -0.894531 0.062057 193 154 127
0.011719 -0.894531 0.067096 191 151 125
0.015625 -0.894531 0.071699 190 151 125
0.019531 -0.894531 0.075600 191 152 126
0.023438 -0.894531 0.078368 192 153 128
0.027344 -0.894531 0.080916 194 157 132
0.031250 -0.894531 0.083524 197 161 136
0.035156 -0.894531 0.086177 198 162 136
0.039062 -0.894531 0.089202 198 164 137
0.042969 -0.894531 0.092118 199 166 138
0.046875 -0.894531 0.095032 201 169 139
0.050781 -0.894531 0.096996 199 167 139
0.054688 -0.894531 0.097431 196 164 138
0.058594 -0.894531 0.097416 191 160 136
0.062500 -0.894531 0.095326 188 157 132
0.066406 -0.894531 0.091151 204 173 143
0.070312 -0.894531 0.080810 206 179 142
-0.023438 -0.898438 -0.037240 101 80 56
-0.019531 -0.898438 -0.019373 154 128 94
-0.015625 -0.898438 0.011788 186 145 110
-0.011719 -0.898438 0.029062 188 145 112
-0.007812 -0.898438 0.038827 202 164 133
-0.003906 -0.898438 0.046537 194 153 124
0.000000 -0.898438 0.053555 199 158 129
0.003906 -0.898438 0.059982 200 160 132
0.007812 -0.898438 0.065574 196 157 130
0.011719 -0.898438 0.070723 195 154 129
0.015625 -0.898438 0.075419 195 154 129
0.019531 -0.898438 0.079466 195 155 130
0.023438 -0.898438 0.082176 194 156 130
0.027344 -0.898438 0.084661 195 157 132
0.031250 -0.898438 0.087248 196 159 133
0.035156 -0.898438 0.090043 197 161 134
0.039062 -0.898438 0.093455 198 163 136
0.042969 -0.898438 0.096797 199 166 138
0.046875 -0.898438 0.100057 201 170 141
0.050781 -0.898438 0.102198 201 170 142
0.054688 -0.898438 0.102407 200 170 145
0.058594 -0.898438 0.102019 195 166 142
0.062500 -0.898438 0.099896 191 162 138
0.066406 -0.898438 0.095527 202 172 145
0.070312 -0.898438 0.088707 208 180 146
-0.023438 -0.902344 -0.038341 81 55 34
-0.019531 -0.902344 -0.019113 169 130 90
-0.015625 -0.902344 0.014155 192 148 113
-0.011719 -0.902344 0.031722 185 142 110
-0.007812 -0.902344 0.042159 198 160 130
-0.003906 -0.902344 0.050185 194 151 124
0.000000 -0.902344 0.057406 202 160 132
0.003906 -0.902344 0.063941 203 162 135
0.007812 -0.902344 0.069573 199 158 132
0.011719 -0.902344 0.074863 197 157 132
0.015625 -0.902344 0.079687 196 155 131
0.019531 -0.902344 0.083809 196 156 131
0.023438 -0.902344 0.086496 195 156 130
0.027344 -0.902344 0.088908 194 156 131
0.031250 -0.902344 0.091477 195 158 133
0.035156 -0.902344 0.094404 196 161 135
0.039062 -0.902344 0.098167 197 164 137
0.042969 -0.902344 0.101924 196 165 138
0.046875 -0.902344 0.105545 199 169 142
0.050781 -0.902344 0.107980 199 169 143
0.054688 -0.902344 0.107934 196 167 143
0.058594 -0.902344 0.107093 191 164 141
0.062500 -0.902344 0.104862 190 163 142
0.066406 -0.902344 0.100251 200 170 146
0.070312 -0.902344 0.093485 208 181 149
0.074219 -0.902344 0.068353 180 155 126
-0.023438 -0.906250 -0.039075 95 64 38
-0.019531 -0.906250 -0.017629 162 122 79
-0.015625 -0.906250 0.016702 193 150 113
-0.011719 -0.906250 0.034403 184 143 111
-0.007812 -0.906250 0.045596 198 162 132
-0.003906 -0.906250 0.054057 199 160 133
0.000000 -0.906250 0.061686 208 169 142
0.003906 -0.906250 0.068375 208 168 143
0.007812 -0.906250 0.074062 205 164 140
0.011719 -0.906250 0.079476 203 164 140
0.015625 -0.906250 0.084358 201 162 138
0.019531 -0.906250 0.088607 200 161 137
0.023438 -0.906250 0.091372 198 161 136
0.027344 -0.906250 0.093711 198 161 137
0.031250 -0.906250 0.096230 198 162 139
0.035156 -0.906250 0.099245 197 163 140
0.039062 -0.906250 0.103300 197 165 141
0.042969 -0.906250 0.107550 197 167 143
0.046875 -0.906250 0.111572 200 173 148
0.050781 -0.906250 0.114100 199 172 149
0.054688 -0.906250 0.113992 194 167 145
0.058594 -0.906250 0.112659 191 166 144
0.062500 -0.906250 0.109891 195 170 150
0.066406 -0.906250 0.105452 205 175 154
0.070312 -0.906250 0.097895 214 184 156
0.074219 -0.906250 0.086297 186 162 133
-0.023438 -0.910156 -0.039219 127 97 62
-0.019531 -0.910156 -0.014440 149 120 79
-0.015625 -0.910156 0.019654 189 152 116
-0.011719 -0.910156 0.037245 183 145 115
-0.007812 -0.910156 0.049211 198 165 137
-0.003906 -0.910156 0.058056 199 165 140
0.000000 -0.910156 0.066174 204 168 143
0.003906 -0.910156 0.073196 203 164 140
0.007812 -0.910156 0.079139 200 161 138
0.011719 -0.910156 0.084799 200 163 140
0.015625 -0.910156 0.089725 200 163 140
0.019531 -0.910156 0.094073 200 163 141
0.023438 -0.910156 0.096831 199 162 141
0.027344 -0.910156 0.098987 198 164 142
0.031250 -0.910156 0.101448 196 163 140
0.035156 -0.910156 0.104584 192 158 136
0.039062 -0.910156 0.109002 191 160 137
0.042969 -0.910156 0.113826 196 167 144
0.046875 -0.910156 0.118257 203 176 153
0.050781 -0.910156 0.120787 200 175 153
0.054688 -0.910156 0.120546 192 166 144
0.058594 -0.910156 0.118841 189 164 144
0.062500 -0.910156 0.115628 193 168 150
0.066406 -0.910156 0.111485 199 168 150
0.070312 -0.910156 0.104635 210 179 152
0.074219 -0.910156 0.094318 212 191 158
-0.023438 -0.914062 -0.037011 131 91 65
-0.019531 -0.914062 -0.008789 151 115 82
-0.015625 -0.914062 0.023997 184 148 116
-0.011719 -0.914062 0.041457 177 145 118
-0.007812 -0.914062 0.053565 189 160 134
-0.003906 -0.914062 0.062487 189 159 136
0.000000 -0.914062 0.071023 192 160 138
0.003906 -0.914062 0.078356 187 153 132
0.007812 -0.914062 0.084395 184 148 128
0.011719 -0.914062 0.089995 186 151 131
0.015625 -0.914062 0.094936 189 154 134
0.019531 -0.914062 0.099508 190 156 136
0.023438 -0.914062 0.102374 187 155 136
0.027344 -0.914062 0.104483 184 153 133
0.031250 -0.914062 0.107021 179 149 129
0.035156 -0.914062 0.110405 174 143 124
0.039062 -0.914062 0.115180 175 145 125
0.042969 -0.914062 0.120411 182 153 132
0.046875 -0.914062 0.125222 191 163 142
0.050781 -0.914062 0.127809 192 165 143
0.054688 -0.914062 0.127449 185 159 137
0.058594 -0.914062 0.125672 184 159 140
0.062500 -0.914062 0.121864 188 162 145
0.066406 -0.914062 0.117736 189 160 141
0.070312 -0.914062 0.111610 197 172 142
0.074219 -0.914062 0.101257 218 202 171
0.078125 -0.914062 0.077430 212 197 172
-0.023438 -0.917969 -0.034339 116 57 41
-0.019531 -0.917969 -0.002482 186 129 89
-0.015625 -0.917969 0.028794 184 140 111
-0.011719 -0.917969 0.046335 169 138 117
-0.007812 -0.917969 0.058373 179 153 132
-0.003906 -0.917969 0.067778 181 155 135
0.000000 -0.917969 0.076718 188 160 140
0.003906 -0.917969 0.084141 185 156 137
0.007812 -0.917969 0.090216 182 152 135
0.011719 -0.917969 0.095766 184 155 138
0.015625 -0.917969 0.100908 188 159 143
0.019531 -0.917969 0.105786 189 162 146
0.023438 -0.917969 0.108890 187 162 146
0.027344 -0.917969 0.111168 183 161 143
0.031250 -0.917969 0.113894 181 159 141
0.035156 -0.917969 0.117588 182 159 141
0.039062 -0.917969 0.122757 185 161 141
0.042969 -0.917969 0.128311 185 159 140
0.046875 -0.917969 0.133296 187 160 141
0.050781 -0.917969 0.135856 191 164 143
0.054688 -0.917969 0.135350 191 165 143
0.058594 -0.917969 0.133428 192 168 149
0.062500 -0.917969 0.129797 192 167 150
0.066406 -0.917969 0.125324 197 167 149
0.070312 -0.917969 0.118709 205 178 151
0.074219 -0.917969 0.107770 215 192 164
0.078125 -0.917969 0.087440 204 180 159
-0.023438 -0.921875 -0.030359 70 28 26
-0.019531 -0.921875 0.001060 195 131 100
-0.015625 -0.921875 0.033865 187 137 115
-0.011719 -0.921875 0.052214 176 145 127
-0.007812 -0.921875 0.064704 186 161 143
-0.003906 -0.921875 0.074289 191 166 148
0.000000 -0.921875 0.083164 200 175 157
0.003906 -0.921875 0.090715 201 177 159
0.007812 -0.921875 0.097040 201 176 159
0.011719 -0.921875 0.102602 201 177 161
0.015625 -0.921875 0.107874 202 179 163
0.019531 -0.921875 0.112967 203 181 165
0.023438 -0.921875 0.116313 202 182 166
0.027344 -0.921875 0.118961 202 185 169
0.031250 -0.921875 0.122108 205 188 171
0.035156 -0.921875 0.126223 209 190 173
0.039062 -0.921875 0.131676 212 192 173
0.042969 -0.921875 0.137313 209 186 167
0.046875 -0.921875 0.142240 204 179 160
0.050781 -0.921875 0.144644 203 179 158
0.054688 -0.921875 0.143987 203 180 158
0.058594 -0.921875 0.141827 204 181 162
0.062500 -0.921875 0.138616 201 177 160
0.066406 -0.921875 0.133677 203 174 156
0.070312 -0.921875 0.126483 208 178 154
0.074219 -0.921875 0.116289 213 184 160
0.078125 -0.921875 0.102526 199 168 147
0.082031 -0.921875 0.009735 23 14 15
-0.019531 -0.925781 -0.002242 154 95 77
-0.015625 -0.925781 0.039298 191 145 122
-0.011719 -0.925781 0.057103 200 173 152
-0.007812 -0.925781 0.070513 206 184 165
-0.003906 -0.925781 0.080718 207 187 167
0.000000 -0.925781 0.089486 211 191 172
0.003906 -0.925781 0.097230 211 189 171
0.007812 -0.925781 0.103767 212 190 172
0.011719 -0.925781 0.109093 212 190 173
0.015625 -0.925781 0.114630 210 189 172
0.019531 -0.925781 0.120063 209 189 171
0.023438 -0.925781 0.123875 207 189 171
0.027344 -0.925781 0.127300 209 192 175
0.031250 -0.925781 0.131009 211 194 176
0.035156 -0.925781 0.135422 209 191 172
0.039062 -0.925781 0.140761 211 190 170
0.042969 -0.925781 0.146044 213 190 170
0.046875 -0.925781 0.150680 213 190 168
0.050781 -0.925781 0.152848 211 189 167
0.054688 -0.925781 0.152158 211 189 168
0.058594 -0.925781 0.149971 213 192 174
0.062500 -0.925781 0.146992 214 191 174
0.066406 -0.925781 0.142097 215 186 168
0.070312 -0.925781 0.134821 219 190 169
0.074219 -0.925781 0.124995 224 197 176
0.078125 -0.925781 0.113793 214 185 161
0.082031 -0.925781 0.090743 66 45 39
-0.019531 -0.929688 -0.014730 128 85 68
-0.015625 -0.929688 0.040142 201 163 139
-0.011719 -0.929688 0.061726 216 190 169
-0.007812 -0.929688 0.075920 215 192 171
-0.003906 -0.929688 0.086381 210 188 165
0.000000 -0.929688 0.095261 205 182 159
0.003906 -0.929688 0.103401 199 174 153
0.007812 -0.929688 0.110331 201 175 155
0.011719 -0.929688 0.115642 203 177 157
0.015625 -0.929688 0.121506 202 177 157
0.019531 -0.929688 0.127271 201 178 158
0.023438 -0.929688 0.131330 197 175 156
0.027344 -0.929688 0.135246 197 175 156
0.031250 -0.929688 0.139441 199 178 157
0.035156 -0.929688 0.144135 197 175 155
0.039062 -0.929688 0.149335 199 175 154
0.042969 -0.929688 0.154208 202 176 154
0.046875 -0.929688 0.158493 204 177 155
0.050781 -0.929688 0.160562 206 181 160
0.054688 -0.929688 0.159926 208 184 163
0.058594 -0.929688 0.157804 211 187 169
0.062500 -0.929688 0.154919 216 191 174
0.066406 -0.929688 0.150443 220 191 174
0.070312 -0.929688 0.143143 230 203 185
0.074219 -0.929688 0.135012 236 213 193
0.078125 -0.929688 0.122369 227 204 176
0.082031 -0.929688 0.107527 152 124 99
-0.015625 -0.933594 0.039034 201 163 140
-0.011719 -0.933594 0.069167 214 182 157
-0.007812 -0.933594 0.080399 195 161 136
-0.003906 -0.933594 0.091236 180 149 123
0.000000 -0.933594 0.100604 179 147 122
0.003906 -0.933594 0.109235 182 149 127
0.007812 -0.933594 0.116114 184 151 129
0.011719 -0.933594 0.121366 178 143 122
0.015625 -0.933594 0.127441 176 144 121
0.019531 -0.933594 0.133365 184 154 131
0.023438 -0.933594 0.137659 182 151 131
0.027344 -0.933594 0.141914 176 146 124
0.031250 -0.933594 0.146583 180 152 128
0.035156 -0.933594 0.151823 187 158 136
0.039062 -0.933594 0.156937 192 162 142
0.042969 -0.933594 0.161322 186 154 132
0.046875 -0.933594 0.165123 178 145 124
0.050781 -0.933594 0.166992 189 158 138
0.054688 -0.933594 0.166336 198 171 150
0.058594 -0.933594 0.164164 197 172 151
0.062500 -0.933594 0.161181 200 173 154
0.066406 -0.933594 0.156721 208 176 159
0.070312 -0.933594 0.149788 223 193 177
0.074219 -0.933594 0.142874 233 208 189
0.078125 -0.933594 0.130640 230 210 181
0.082031 -0.933594 0.115244 190 176 143
0.085938 -0.933594 0.019917 13 7 10
-0.011719 -0.937500 0.073450 196 158 129
-0.007812 -0.937500 0.085454 158 117 93
-0.003906 -0.937500 0.096590 151 116 92
0.000000 -0.937500 0.106179 173 140 112
0.003906 -0.937500 0.114606 195 162 134
0.007812 -0.937500 0.121257 192 156 130
0.011719 -0.937500 0.126781 170 131 108
0.015625 -0.937500 0.133310 168 131 108
0.019531 -0.937500 0.139440 185 152 127
0.023438 -0.937500 0.143767 182 147 123
0.027344 -0.937500 0.147893 165 128 104
0.031250 -0.937500 0.152536 164 129 105
0.035156 -0.937500 0.158119 176 142 121
0.039062 -0.937500 0.163010 186 152 132
0.042969 -0.937500 0.166680 175 139 118
0.046875 -0.937500 0.169677 161 126 105
0.050781 -0.937500 0.171117 183 150 128
0.054688 -0.937500 0.170406 200 173 150
0.058594 -0.937500 0.168202 197 171 149
0.062500 -0.937500 0.165303 191 164 143
0.066406 -0.937500 0.160776 191 160 143
0.070312 -0.937500 0.153771 203 169 154
0.074219 -0.937500 0.147517 220 187 167
0.078125 -0.937500 0.136716 229 209 177
0.082031 -0.937500 0.122560 209 203 166
0.085938 -0.937500 0.082545 50 54 46
-0.011719 -0.941406 0.076530 171 128 99
-0.007812 -0.941406 0.089180 158 110 86
-0.003906 -0.941406 0.101486 173 130 105
0.000000 -0.941406 0.111949 187 150 122
0.003906 -0.941406 0.120058 196 162 134
0.007812 -0.941406 0.126460 187 148 123
0.011719 -0.941406 0.132584 170 127 106
0.015625 -0.941406 0.139193 186 146 121
0.019531 -0.941406 0.144744 207 173 148
0.023438 -0.941406 0.148891 188 149 126
0.027344 -0.941406 0.152543 143 101 83
0.031250 -0.941406 0.156945 145 105 86
0.035156 -0.941406 0.162590 181 142 123
0.039062 -0.941406 0.167111 198 163 144
0.042969 -0.941406 0.170017 178 140 119
0.046875 -0.941406 0.172202 145 107 89
0.050781 -0.941406 0.173308 163 125 106
0.054688 -0.941406 0.172751 190 156 135
0.058594 -0.941406 0.170793 192 161 140
0.062500 -0.941406 0.167907 186 154 135
0.066406 -0.941406 0.163067 186 156 138
0.070312 -0.941406 0.156127 188 157 140
0.074219 -0.941406 0.149744 198 161 138
0.078125 -0.941406 0.139039 219 190 155
0.082031 -0.941406 0.125450 213 200 169
0.085938 -0.941406 0.095468 109 121 106
-0.011719 -0.945312 0.082764 139 96 77
-0.007812 -0.945312 0.092574 182 131 103
-0.003906 -0.945312 0.106153 191 144 116
0.000000 -0.945312 0.118461 188 145 118
0.003906 -0.945312 0.126128 190 150 127
0.007812 -0.945312 0.131901 182 138 119
0.011719 -0.945312 0.138248 169 124 105
0.015625 -0.945312 0.144799 187 145 121
0.019531 -0.945312 0.150007 205 167 142
0.023438 -0.945312 0.154158 172 125 108
0.027344 -0.945312 0.157902 110 72 63
0.031250 -0.945312 0.162119 133 94 78
0.035156 -0.945312 0.167250 198 160 138
0.039062 -0.945312 0.170975 219 186 167
0.042969 -0.945312 0.173226 189 148 127
0.046875 -0.945312 0.174826 130 92 77
0.050781 -0.945312 0.175590 139 101 87
0.054688 -0.945312 0.175044 176 137 121
0.058594 -0.945312 0.173249 182 146 129
0.062500 -0.945312 0.170338 174 142 123
0.066406 -0.945312 0.165057 178 148 127
0.070312 -0.945312 0.157856 178 147 127
0.074219 -0.945312 0.151123 170 132 112
0.078125 -0.945312 0.141080 178 135 113
0.082031 -0.945312 0.128010 194 163 149
0.085938 -0.945312 0.106019 173 162 160
-0.007812 -0.949219 0.096006 202 156 118
-0.003906 -0.949219 0.110843 172 123 96
0.000000 -0.949219 0.124149 161 116 96
0.003906 -0.949219 0.132188 187 144 127
0.007812 -0.949219 0.138406 189 146 130
0.011719 -0.949219 0.144769 170 126 108
0.015625 -0.949219 0.151202 174 132 113
0.019531 -0.949219 0.156567 189 147 127
0.023438 -0.949219 0.160649 166 119 106
0.027344 -0.949219 0.163932 134 90 82
0.031250 -0.949219 0.167674 159 117 102
0.035156 -0.949219 0.171926 199 159 139
0.039062 -0.949219 0.174799 210 170 151
0.042969 -0.949219 0.176658 186 141 123
0.046875 -0.949219 0.177966 146 105 91
0.050781 -0.949219 0.178402 168 128 113
0.054688 -0.949219 0.177649 201 167 149
0.058594 -0.949219 0.175837 202 172 154
0.062500 -0.949219 0.172989 186 157 140
0.066406 -0.949219 0.167419 172 142 124
0.070312 -0.949219 0.160012 163 127 110
0.074219 -0.949219 0.152985 154 109 98
0.078125 -0.949219 0.144534 154 103 96
0.082031 -0.949219 0.132278 187 143 139
0.085938 -0.949219 0.109132 212 190 187
-0.007812 -0.953125 0.098583 159 113 84
-0.003906 -0.953125 0.113376 187 140 110
0.000000 -0.953125 0.127722 215 173 149
0.003906 -0.953125 0.136927 223 190 171
0.007812 -0.953125 0.144665 197 155 141
0.011719 -0.953125 0.151696 159 115 103
0.015625 -0.953125 0.158047 177 136 121
0.019531 -0.953125 0.162931 202 164 148
0.023438 -0.953125 0.166417 190 146 132
0.027344 -0.953125 0.169228 178 130 118
0.031250 -0.953125 0.172926 188 143 130
0.035156 -0.953125 0.176736 181 137 126
0.039062 -0.953125 0.178984 171 124 114
0.042969 -0.953125 0.180224 167 120 107
0.046875 -0.953125 0.180980 164 122 108
0.050781 -0.953125 0.180999 192 155 139
0.054688 -0.953125 0.179880 213 184 166
0.058594 -0.953125 0.177862 218 192 175
0.062500 -0.953125 0.175010 216 189 174
0.066406 -0.953125 0.169563 201 169 153
0.070312 -0.953125 0.162980 179 136 120
0.074219 -0.953125 0.155931 174 120 114
0.078125 -0.953125 0.145517 183 130 135
0.082031 -0.953125 0.133261 172 132 151
0.085938 -0.953125 0.097192 95 63 100
-0.007812 -0.957031 0.075834 81 58 51
-0.003906 -0.957031 0.119289 151 102 88
0.000000 -0.957031 0.131254 205 154 128
0.003906 -0.957031 0.140107 220 181 153
0.007812 -0.957031 0.149676 193 149 130
0.011719 -0.957031 0.158434 170 124 107
0.015625 -0.957031 0.165079 203 165 145
0.019531 -0.957031 0.169333 219 189 173
0.023438 -0.957031 0.172227 188 148 137
0.027344 -0.957031 0.175058 166 122 114
0.031250 -0.957031 0.178449 200 160 147
0.035156 -0.957031 0.181536 209 176 163
0.039062 -0.957031 0.182924 201 165 154
0.042969 -0.957031 0.182927 194 152 139
0.046875 -0.957031 0.182602 183 142 125
0.050781 -0.957031 0.182133 190 152 136
0.054688 -0.957031 0.180714 198 163 147
0.058594 -0.957031 0.178333 205 170 154
0.062500 -0.957031 0.175351 213 181 166
0.066406 -0.957031 0.170210 207 171 153
0.070312 -0.957031 0.164392 187 139 124
0.074219 -0.957031 0.158604 192 137 135
0.078125 -0.957031 0.145047 205 157 174
0.082031 -0.957031 0.130911 133 96 143
0.085938 -0.957031 0.058740 13 6 22
-0.003906 -0.960938 0.127280 96 79 99
0.000000 -0.960938 0.135722 67 52 52
0.003906 -0.960938 0.145605 135 101 77
0.007812 -0.960938 0.157794 156 110 91
0.011719 -0.960938 0.166979 164 112 94
0.015625 -0.960938 0.174571 196 149 128
0.019531 -0.960938 0.178153 208 168 154
0.023438 -0.960938 0.179910 176 135 125
0.027344 -0.960938 0.182045 148 110 105
0.031250 -0.960938 0.184051 194 157 147
0.035156 -0.960938 0.185952 225 197 184
0.039062 -0.960938 0.186533 222 191 179
0.042969 -0.960938 0.185656 194 151 138
0.046875 -0.960938 0.184457 159 114 101
0.050781 -0.960938 0.183396 162 119 106
0.054688 -0.960938 0.181660 168 125 114
0.058594 -0.960938 0.178867 163 120 111
0.062500 -0.960938 0.175804 167 123 112
0.066406 -0.960938 0.171121 167 118 105
0.070312 -0.960938 0.166970 163 109 100
0.074219 -0.960938 0.160387 178 126 125
0.078125 -0.960938 0.145894 162 111 137
0.082031 -0.960938 0.119560 41 24 59
-0.003906 -0.964844 0.122159 227 228 225
0.000000 -0.964844 0.137540 212 204 188
0.003906 -0.964844 0.151052 220 202 170
0.007812 -0.964844 0.169692 186 145 118
0.011719 -0.964844 0.171849 179 132 111
0.015625 -0.964844 0.179113 199 154 133
0.019531 -0.964844 0.184439 205 161 145
0.023438 -0.964844 0.186162 197 152 138
0.027344 -0.964844 0.187775 168 122 115
0.031250 -0.964844 0.188745 160 114 111
0.035156 -0.964844 0.190011 175 127 121
0.039062 -0.964844 0.190320 165 116 107
0.042969 -0.964844 0.189586 118 75 70
0.046875 -0.964844 0.188176 93 57 54
0.050781 -0.964844 0.186148 123 78 72
0.054688 -0.964844 0.183367 144 93 87
0.058594 -0.964844 0.180016 126 80 76
0.062500 -0.964844 0.177034 112 68 65
0.066406 -0.964844 0.173572 124 72 67
0.070312 -0.964844 0.168679 160 102 92
0.074219 -0.964844 0.157810 181 137 123
0.078125 -0.964844 0.151093 129 97 101
0.082031 -0.964844 0.078456 19 15 29
0.000000 -0.968750 0.058611 98 58 77
0.003906 -0.968750 0.101350 72 40 48
0.007812 -0.968750 0.155531 52 30 35
0.011719 -0.968750 0.180439 125 92 85
0.015625 -0.968750 0.180957 173 137 115
0.019531 -0.968750 0.185015 184 136 119
0.023438 -0.968750 0.188233 208 161 148
0.027344 -0.968750 0.191352 203 158 151
0.031250 -0.968750 0.193429 176 127 126
0.035156 -0.968750 0.194377 159 110 108
0.039062 -0.968750 0.194409 159 111 106
0.042969 -0.968750 0.194085 159 109 104
0.046875 -0.968750 0.192774 156 105 99
0.050781 -0.968750 0.189852 164 111 105
0.054688 -0.968750 0.186644 161 104 99
0.058594 -0.968750 0.183931 139 86 83
0.062500 -0.968750 0.182404 130 81 77
0.066406 -0.968750 0.177661 138 86 80
0.070312 -0.968750 0.164394 152 99 89
0.074219 -0.968750 0.167148 129 87 78
0.078125 -0.968750 0.149612 53 37 46
0.011719 -0.972656 0.151134 46 37 37
0.015625 -0.972656 0.192477 53 36 32
0.019531 -0.972656 0.195414 44 21 23
0.023438 -0.972656 0.194759 122 65 65
0.027344 -0.972656 0.195744 196 144 136
0.031250 -0.972656 0.196983 205 161 152
0.035156 -0.972656 0.196022 194 151 139
0.039062 -0.972656 0.196020 202 161 147
0.042969 -0.972656 0.195522 220 186 172
0.046875 -0.972656 0.194522 220 185 170
0.050781 -0.972656 0.191439 200 157 144
0.054688 -0.972656 0.188325 174 124 115
0.058594 -0.972656 0.186322 172 121 113
0.062500 -0.972656 0.184801 193 147 135
0.066406 -0.972656 0.182578 174 127 117
0.070312 -0.972656 0.181785 99 59 60
0.074219 -0.972656 0.155317 35 21 25
0.015625 -0.976562 0.022893 169 138 127
0.019531 -0.976562 0.060496 40 23 33
0.023438 -0.976562 0.127683 29 16 24
0.027344 -0.976562 0.171843 63 33 44
0.031250 -0.976562 0.189900 77 41 54
0.035156 -0.976562 0.188160 65 36 46
0.039062 -0.976562 0.186665 69 40 46
0.042969 -0.976562 0.185911 93 56 61
0.046875 -0.976562 0.186059 91 55 61
0.050781 -0.976562 0.184226 63 37 44
0.054688 -0.976562 0.181218 52 31 37
0.058594 -0.976562 0.180139 63 38 45
0.062500 -0.976562 0.185655 95 61 72
0.066406 -0.976562 0.192650 76 46 62
0.070312 -0.976562 0.153367 25 14 25
0.031250 -0.980469 0.017324 7 4 6
0.035156 -0.980469 0.094088 7 4 5
0.039062 -0.980469 0.135806 7 4 5
0.042969 -0.980469 0.165307 8 5 5
0.046875 -0.980469 0.174345 8 5 5
0.050781 -0.980469 0.174643 6 4 5
0.054688 -0.980469 0.171171 8 5 7
0.058594 -0.980469 0.154813 9 7 10
0.062500 -0.980469 0.114639 12 11 17
0.093750 0.703125 -0.012578 56 52 51
0.097656 0.703125 -0.016326 50 43 43
0.101562 0.703125 -0.019413 38 29 30
0.105469 0.703125 -0.022236 35 24 24
0.109375 0.703125 -0.025399 35 24 23
0.113281 0.703125 -0.027801 40 27 25
0.117188 0.703125 -0.030133 45 32 27
0.121094 0.703125 -0.032301 49 33 26
0.125000 0.703125 -0.034215 56 36 29
0.128906 0.703125 -0.035381 54 35 29
0.132812 0.703125 -0.035599 51 34 31
0.136719 0.703125 -0.035292 45 32 31
0.085938 0.699219 -0.011536 54 41 40
0.089844 0.699219 -0.016853 47 39 37
0.093750 0.699219 -0.020296 44 35 34
0.097656 0.699219 -0.023584 31 27 34
0.101562 0.699219 -0.026806 23 19 25
0.105469 0.699219 -0.029706 29 23 28
0.109375 0.699219 -0.032916 31 26 30
0.113281 0.699219 -0.035641 37 30 34
0.117188 0.699219 -0.038035 37 29 32
0.121094 0.699219 -0.040222 36 28 31
0.125000 0.699219 -0.042032 41 32 34
0.128906 0.699219 -0.043033 54 43 41
0.132812 0.699219 -0.043382 59 48 44
0.136719 0.699219 -0.043060 46 31 28
0.140625 0.699219 -0.042094 39 27 26
0.144531 0.699219 -0.040421 36 26 27
0.078125 0.695312 -0.006037 21 10 11
0.082031 0.695312 -0.015277 31 18 19
0.085938 0.695312 -0.020545 34 22 22
0.089844 0.695312 -0.024399 40 40 46
0.093750 0.695312 -0.028065 51 48 52
0.097656 0.695312 -0.031253 42 38 44
0.101562 0.695312 -0.034264 34 29 33
0.105469 0.695312 -0.037234 39 30 33
0.109375 0.695312 -0.040246 40 31 33
0.113281 0.695312 -0.042929 41 32 33
0.117188 0.695312 -0.045337 36 28 29
0.121094 0.695312 -0.047595 31 23 24
0.125000 0.695312 -0.049441 32 22 22
0.128906 0.695312 -0.050480 34 23 22
0.132812 0.695312 -0.050910 35 24 24
0.136719 0.695312 -0.050721 35 26 27
0.140625 0.695312 -0.049939 37 30 33
0.144531 0.695312 -0.048435 48 33 29
0.148438 0.695312 -0.045996 41 28 26
0.152344 0.695312 -0.042714 27 18 18
0.070312 0.691406 0.008804 22 11 13
0.074219 0.691406 -0.007020 17 9 9
0.078125 0.691406 -0.015963 23 13 13
0.082031 0.691406 -0.022477 77 69 72
0.085938 0.691406 -0.027986 54 52 53
0.089844 0.691406 -0.032443 47 46 47
0.093750 0.691406 -0.036212 56 52 51
0.097656 0.691406 -0.039315 50 43 43
0.101562 0.691406 -0.042300 38 29 30
0.105469 0.691406 -0.044996 35 24 24
0.109375 0.691406 -0.047659 35 24 23
0.113281 0.691406 -0.049997 40 27 25
0.117188 0.691406 -0.052174 45 32 27
0.121094 0.691406 -0.054216 49 33 26
0.125000 0.691406 -0.056045 56 36 29
0.128906 0.691406 -0.057166 54 35 29
0.132812 0.691406 -0.057656 51 34 31
0.136719 0.691406 -0.057714 45 32 31
0.140625 0.691406 -0.057179 33 24 25
0.144531 0.691406 -0.055609 28 21 24
0.148438 0.691406 -0.053210 39 30 33
0.152344 0.691406 -0.050521 30 20 18
0.156250 0.691406 -0.047138 31 22 19
0.160156 0.691406 -0.043037 34 25 23
0.066406 0.687500 0.012274 46 37 39
0.070312 0.687500 -0.007991 25 18 19
0.074219 0.687500 -0.016872 28 15 18
0.078125 0.687500 -0.023257 47 28 30
0.082031 0.687500 -0.029293 65 46 45
0.085938 0.687500 -0.034621 54 41 40
0.089844 0.687500 -0.038951 47 39 37
0.093750 0.687500 -0.042597 44 35 34
0.097656 0.687500 -0.045764 36 27 26
0.101562 0.687500 -0.048639 30 19 19
0.105469 0.687500 -0.051259 27 16 15
0.109375 0.687500 -0.053768 28 15 14
0.113281 0.687500 -0.055947 31 17 14
0.117188 0.687500 -0.057984 35 19 14
0.121094 0.687500 -0.059870 37 20 14
0.125000 0.687500 -0.061554 49 26 20
0.128906 0.687500 -0.062661 49 27 23
0.132812 0.687500 -0.063159 44 27 24
0.136719 0.687500 -0.063302 46 31 28
0.140625 0.687500 -0.062933 39 27 26
0.144531 0.687500 -0.061664 36 26 27
0.148438 0.687500 -0.059618 32 24 26
0.152344 0.687500 -0.057134 29 21 24
0.156250 0.687500 -0.054232 44 34 37
0.160156 0.687500 -0.050841 41 29 23
0.164062 0.687500 -0.045355 39 29 26
0.167969 0.687500 -0.040560 46 35 33
0.066406 0.683594 -0.003966 35 27 29
0.070312 0.683594 -0.015514 33 16 20
0.074219 0.683594 -0.023775 17 7 9
0.078125 0.683594 -0.030478 21 10 11
0.082031 0.683594 -0.036212 31 18 19
0.085938 0.683594 -0.040996 34 22 22
0.089844 0.683594 -0.044745 38 27 26
0.093750 0.683594 -0.048629 40 30 28
0.097656 0.683594 -0.051559 42 30 28
0.101562 0.683594 -0.054214 44 29 26
0.105469 0.683594 -0.056933 44 27 23
0.109375 0.683594 -0.059408 44 25 20
0.113281 0.683594 -0.061530 43 22 17
0.117188 0.683594 -0.063451 33 17 12
0.121094 0.683594 -0.065235 23 11 9
0.125000 0.683594 -0.066776 24 11 9
0.128906 0.683594 -0.067840 25 11 9
0.132812 0.683594 -0.068358 28 14 12
0.136719 0.683594 -0.068513 42 24 20
0.140625 0.683594 -0.068079 47 30 25
0.144531 0.683594 -0.067109 48 33 29
0.148438 0.683594 -0.065625 41 28 26
0.152344 0.683594 -0.063425 27 18 18
0.156250 0.683594 -0.060907 30 21 21
0.160156 0.683594 -0.058035 43 32 33
0.164062 0.683594 -0.053557 61 49 50
0.167969 0.683594 -0.048702 39 30 26
0.171875 0.683594 -0.041931 38 28 28
0.062500 0.679688 0.000690 59 44 46
0.066406 0.679688 -0.013988 75 46 53
0.070312 0.679688 -0.022427 22 11 13
0.074219 0.679688 -0.029925 17 9 9
0.078125 0.679688 -0.036472 23 13 13
0.082031 0.679688 -0.041877 38 24 23
0.085938 0.679688 -0.046513 58 40 35
0.089844 0.679688 -0.050297 75 53 45
0.093750 0.679688 -0.053969 51 37 34
0.097656 0.679688 -0.056877 43 33 30
0.101562 0.679688 -0.059405 41 27 27
0.105469 0.679688 -0.062006 40 25 23
0.109375 0.679688 -0.064478 40 23 20
0.113281 0.679688 -0.066549 48 27 21
0.117188 0.679688 -0.068255 100 62 42
0.121094 0.679688 -0.069866 60 35 23
0.125000 0.679688 -0.071202 32 18 12
0.128906 0.679688 -0.072055 21 10 8
0.132812 0.679688 -0.072462 24 11 8
0.136719 0.679688 -0.072652 39 20 15
0.140625 0.679688 -0.072277 46 26 20
0.144531 0.679688 -0.071511 48 28 24
0.148438 0.679688 -0.070385 40 26 22
0.152344 0.679688 -0.068723 30 20 18
0.156250 0.679688 -0.066834 31 22 19
0.160156 0.679688 -0.064348 34 25 23
0.164062 0.679688 -0.060493 42 33 31
0.167969 0.679688 -0.056400 55 42 44
0.171875 0.679688 -0.050734 47 34 30
0.175781 0.679688 -0.045328 36 25 26
0.058594 0.675781 0.009614 44 28 29
0.062500 0.675781 -0.012378 54 37 36
0.066406 0.675781 -0.021810 46 37 39
0.070312 0.675781 -0.029885 25 18 19
0.074219 0.675781 -0.036876 35 19 18
0.078125 0.675781 -0.042920 29 17 17
0.082031 0.675781 -0.047558 36 23 22
0.085938 0.675781 -0.051980 49 33 30
0.089844 0.675781 -0.055757 55 39 35
0.093750 0.675781 -0.059112 52 37 33
0.097656 0.675781 -0.061973 47 34 31
0.101562 0.675781 -0.064444 43 29 27
0.105469 0.675781 -0.066908 42 26 23
0.109375 0.675781 -0.069286 46 27 23
0.113281 0.675781 -0.071250 55 32 23
0.117188 0.675781 -0.072740 62 37 26
0.121094 0.675781 -0.074261 52 29 20
0.125000 0.675781 -0.075501 39 22 17
0.128906 0.675781 -0.076181 37 22 15
0.132812 0.675781 -0.076514 24 13 9
0.136719 0.675781 -0.076703 28 15 10
0.140625 0.675781 -0.076459 33 16 12
0.144531 0.675781 -0.075951 39 19 14
0.148438 0.675781 -0.074996 42 23 17
0.152344 0.675781 -0.073773 40 26 19
0.156250 0.675781 -0.072450 44 30 21
0.160156 0.675781 -0.070160 41 29 23
0.164062 0.675781 -0.067083 39 29 26
0.167969 0.675781 -0.063156 46 35 33
0.171875 0.675781 -0.057605 53 41 39
0.175781 0.675781 -0.052223 44 32 29
0.179688 0.675781 -0.044477 44 30 30
0.058594 0.671875 -0.006891 49 31 27
0.062500 0.671875 -0.019954 73 62 63
0.066406 0.671875 -0.029072 35 27 29
0.070312 0.671875 -0.036604 40 20 23
0.074219 0.671875 -0.043118 37 22 24
0.078125 0.671875 -0.048858 33 20 21
0.082031 0.671875 -0.053078 35 22 21
0.085938 0.671875 -0.057055 45 30 28
0.089844 0.671875 -0.060582 52 36 33
0.093750 0.671875 -0.063801 51 36 32
0.097656 0.671875 -0.066576 49 34 30
0.101562 0.671875 -0.068973 46 31 28
0.105469 0.671875 -0.071333 45 28 25
0.109375 0.671875 -0.073662 51 30 24
0.113281 0.671875 -0.075571 55 32 23
0.117188 0.671875 -0.077028 56 33 23
0.121094 0.671875 -0.078544 49 28 19
0.125000 0.671875 -0.079707 37 21 15
0.128906 0.671875 -0.080320 36 21 15
0.132812 0.671875 -0.080544 35 18 15
0.136719 0.671875 -0.080559 49 31 19
0.140625 0.671875 -0.080322 32 17 12
0.144531 0.671875 -0.079964 27 13 9
0.148438 0.671875 -0.079211 34 16 11
0.152344 0.671875 -0.078327 39 21 14
0.156250 0.671875 -0.077240 39 24 16
0.160156 0.671875 -0.075209 34 24 18
0.164062 0.671875 -0.072401 35 26 20
0.167969 0.671875 -0.068375 39 30 26
0.171875 0.671875 -0.063475 38 28 28
0.175781 0.671875 -0.058308 35 24 28
0.179688 0.671875 -0.051510 51 35 32
0.183594 0.671875 -0.041895 41 27 29
0.187500 0.671875 -0.008040 43 31 35
0.054688 0.667969 0.002492 66 34 34
0.058594 0.667969 -0.017150 54 30 27
0.062500 0.667969 -0.026143 59 44 46
0.066406 0.667969 -0.035462 51 38 39
0.070312 0.667969 -0.042774 42 28 29
0.074219 0.667969 -0.048668 39 25 26
0.078125 0.667969 -0.053962 37 23 24
0.082031 0.667969 -0.058268 37 24 24
0.085938 0.667969 -0.061807 43 29 27
0.089844 0.667969 -0.065038 50 35 31
0.093750 0.667969 -0.068225 50 35 31
0.097656 0.667969 -0.070849 48 34 31
0.101562 0.667969 -0.073107 48 32 29
0.105469 0.667969 -0.075341 47 30 26
0.109375 0.667969 -0.077594 50 30 23
0.113281 0.667969 -0.079370 53 31 23
0.117188 0.667969 -0.080740 53 31 22
0.121094 0.667969 -0.082171 45 26 18
0.125000 0.667969 -0.083247 38 22 15
0.128906 0.667969 -0.083914 36 20 15
0.132812 0.667969 -0.084140 36 19 14
0.136719 0.667969 -0.084196 38 21 14
0.140625 0.667969 -0.084094 35 19 14
0.144531 0.667969 -0.083869 32 18 12
0.148438 0.667969 -0.083436 25 12 8
0.152344 0.667969 -0.082828 28 13 8
0.156250 0.667969 -0.081748 32 16 11
0.160156 0.667969 -0.079832 32 20 14
0.164062 0.667969 -0.076894 35 26 18
0.167969 0.667969 -0.073376 42 32 25
0.171875 0.667969 -0.069686 47 34 30
0.175781 0.667969 -0.064793 36 25 26
0.179688 0.667969 -0.056962 40 28 32
0.183594 0.667969 -0.050121 44 30 41
0.187500 0.667969 -0.040571 35 26 28
0.191406 0.667969 -0.005856 45 34 37
0.054688 0.664062 -0.011368 52 26 25
0.058594 0.664062 -0.022918 44 28 29
0.062500 0.664062 -0.032583 54 37 36
0.066406 0.664062 -0.040577 52 37 38
0.070312 0.664062 -0.047721 46 32 33
0.074219 0.664062 -0.053361 42 28 29
0.078125 0.664062 -0.058120 40 26 27
0.082031 0.664062 -0.062210 40 26 26
0.085938 0.664062 -0.065693 43 28 28
0.089844 0.664062 -0.068925 48 33 30
0.093750 0.664062 -0.072061 49 34 30
0.097656 0.664062 -0.074579 48 33 30
0.101562 0.664062 -0.076714 48 32 28
0.105469 0.664062 -0.078794 49 31 26
0.109375 0.664062 -0.080899 50 29 23
0.113281 0.664062 -0.082535 51 30 22
0.117188 0.664062 -0.083795 50 29 21
0.121094 0.664062 -0.085181 44 25 18
0.125000 0.664062 -0.086296 40 23 17
0.128906 0.664062 -0.087026 37 21 15
0.132812 0.664062 -0.087327 35 19 13
0.136719 0.664062 -0.087490 35 19 13
0.140625 0.664062 -0.087371 33 17 12
0.144531 0.664062 -0.087199 34 18 12
0.148438 0.664062 -0.087019 42 23 14
0.152344 0.664062 -0.086557 24 11 7
0.156250 0.664062 -0.085590 27 12 8
0.160156 0.664062 -0.083913 32 18 12
0.164062 0.664062 -0.081045 34 22 15
0.167969 0.664062 -0.077818 35 24 18
0.171875 0.664062 -0.074515 43 30 25
0.175781 0.664062 -0.069496 44 32 29
