ply
    format ascii 1.0
    element vertex 100940
    property float x
    property float y
    property float z
    property uchar red
    property uchar green
    property uchar blue
    end_header
0.226562 -0.023438 0.006267 227 217 222
-0.273438 -0.027344 -0.017153 83 83 84
-0.269531 -0.027344 -0.030076 90 90 91
-0.265625 -0.027344 -0.041073 110 110 111
-0.261719 -0.027344 -0.050237 128 129 132
-0.257812 -0.027344 -0.058741 137 137 142
-0.253906 -0.027344 -0.065830 131 130 138
-0.250000 -0.027344 -0.072099 125 124 135
-0.246094 -0.027344 -0.077534 112 112 126
-0.242188 -0.027344 -0.082776 99 100 119
-0.238281 -0.027344 -0.087216 93 95 121
-0.234375 -0.027344 -0.091410 99 103 136
-0.230469 -0.027344 -0.095363 122 127 162
-0.226562 -0.027344 -0.099178 137 146 177
-0.222656 -0.027344 -0.103044 138 155 183
-0.218750 -0.027344 -0.106882 145 168 199
-0.214844 -0.027344 -0.110630 142 168 202
-0.210938 -0.027344 -0.114264 127 157 194
-0.207031 -0.027344 -0.117807 111 146 185
-0.203125 -0.027344 -0.121102 104 144 180
-0.199219 -0.027344 -0.124130 104 146 182
-0.195312 -0.027344 -0.126895 105 150 184
-0.191406 -0.027344 -0.129572 108 127 186
-0.187500 -0.027344 -0.132236 123 144 204
-0.183594 -0.027344 -0.135093 118 144 205
-0.179688 -0.027344 -0.137975 92 122 186
-0.175781 -0.027344 -0.140755 73 110 173
-0.171875 -0.027344 -0.143201 73 114 176
-0.167969 -0.027344 -0.145067 68 115 171
-0.164062 -0.027344 -0.146627 54 104 153
-0.160156 -0.027344 -0.147909 43 94 137
-0.156250 -0.027344 -0.148968 31 80 113
-0.152344 -0.027344 -0.149919 65 110 136
-0.148438 -0.027344 -0.150733 115 155 175
-0.144531 -0.027344 -0.151409 139 171 187
-0.140625 -0.027344 -0.151989 152 179 193
-0.136719 -0.027344 -0.152422 146 170 182
-0.132812 -0.027344 -0.152776 116 138 149
-0.128906 -0.027344 -0.153110 94 115 172
-0.125000 -0.027344 -0.153364 83 103 164
-0.121094 -0.027344 -0.153465 66 85 151
-0.117188 -0.027344 -0.153444 71 90 158
-0.113281 -0.027344 -0.153466 87 106 175
-0.109375 -0.027344 -0.153569 73 92 158
-0.105469 -0.027344 -0.153777 59 78 137
-0.101562 -0.027344 -0.154109 71 89 137
-0.097656 -0.027344 -0.154466 92 110 146
-0.093750 -0.027344 -0.155019 79 95 118
-0.089844 -0.027344 -0.155603 73 87 98
-0.085938 -0.027344 -0.156256 76 86 88
-0.082031 -0.027344 -0.156888 80 86 84
-0.078125 -0.027344 -0.157277 91 93 90
-0.074219 -0.027344 -0.157559 97 98 93
-0.070312 -0.027344 -0.157655 93 92 88
-0.066406 -0.027344 -0.157490 71 79 82
-0.062500 -0.027344 -0.157076 65 70 74
-0.058594 -0.027344 -0.156644 106 111 114
-0.054688 -0.027344 -0.156165 102 106 105
-0.050781 -0.027344 -0.155712 91 93 90
-0.046875 -0.027344 -0.155311 97 99 94
-0.042969 -0.027344 -0.154950 85 86 80
-0.039062 -0.027344 -0.154742 104 105 99
-0.035156 -0.027344 -0.154584 133 134 128
-0.031250 -0.027344 -0.154570 119 121 118
-0.027344 -0.027344 -0.154559 104 106 105
-0.023438 -0.027344 -0.154501 87 91 94
-0.019531 -0.027344 -0.154580 82 87 93
-0.015625 -0.027344 -0.154394 95 102 112
-0.011719 -0.027344 -0.154157 106 114 125
-0.007812 -0.027344 -0.153682 101 109 122
-0.003906 -0.027344 -0.152966 136 140 141
0.000000 -0.027344 -0.152247 96 100 101
0.003906 -0.027344 -0.151067 93 94 96
0.007812 -0.027344 -0.149552 107 109 106
0.011719 -0.027344 -0.147583 94 96 91
0.015625 -0.027344 -0.145235 84 87 78
0.019531 -0.027344 -0.142567 103 106 95
0.023438 -0.027344 -0.139724 121 127 113
0.027344 -0.027344 -0.136850 108 116 101
0.031250 -0.027344 -0.134119 93 103 92
0.035156 -0.027344 -0.131912 88 101 94
0.039062 -0.027344 -0.129894 95 109 112
0.042969 -0.027344 -0.128050 98 114 129
0.046875 -0.027344 -0.126280 83 99 124
0.050781 -0.027344 -0.124515 78 94 127
0.054688 -0.027344 -0.122869 102 117 156
0.058594 -0.027344 -0.121236 85 101 114
0.062500 -0.027344 -0.119739 77 95 109
0.066406 -0.027344 -0.118313 91 109 123
0.070312 -0.027344 -0.116967 107 126 141
0.074219 -0.027344 -0.115682 112 135 151
0.078125 -0.027344 -0.114403 117 140 158
0.082031 -0.027344 -0.113193 113 139 156
0.085938 -0.027344 -0.112017 117 143 160
0.089844 -0.027344 -0.110926 138 161 177
0.093750 -0.027344 -0.109927 105 124 138
0.097656 -0.027344 -0.108889 153 170 179
0.101562 -0.027344 -0.107881 167 180 188
0.105469 -0.027344 -0.106935 136 146 148
0.109375 -0.027344 -0.106154 170 175 175
0.113281 -0.027344 -0.105625 174 174 176
0.117188 -0.027344 -0.105239 156 155 157
0.121094 -0.027344 -0.105022 168 166 168
0.125000 -0.027344 -0.104708 186 184 186
0.128906 -0.027344 -0.104206 194 193 194
0.132812 -0.027344 -0.103631 195 193 194
0.136719 -0.027344 -0.102806 195 194 194
0.140625 -0.027344 -0.101706 197 196 197
0.144531 -0.027344 -0.100288 195 194 195
0.148438 -0.027344 -0.098508 192 192 192
0.152344 -0.027344 -0.096433 187 187 187
0.156250 -0.027344 -0.094059 181 181 181
0.160156 -0.027344 -0.091301 176 175 176
0.164062 -0.027344 -0.088177 171 171 171
0.167969 -0.027344 -0.084910 168 167 167
0.171875 -0.027344 -0.081532 166 165 165
0.175781 -0.027344 -0.078181 166 164 165
0.179688 -0.027344 -0.074870 168 166 166
0.183594 -0.027344 -0.071657 172 169 170
0.187500 -0.027344 -0.068411 178 174 175
0.191406 -0.027344 -0.064619 185 180 181
0.195312 -0.027344 -0.060090 191 186 187
0.199219 -0.027344 -0.055334 195 192 192
0.203125 -0.027344 -0.050079 202 199 199
0.207031 -0.027344 -0.044044 206 204 204
0.210938 -0.027344 -0.037017 202 201 201
0.214844 -0.027344 -0.029098 195 194 194
0.218750 -0.027344 -0.019491 199 195 196
0.222656 -0.027344 -0.008881 213 207 209
0.226562 -0.027344 0.007924 232 224 228
-0.273438 -0.031250 -0.019635 105 105 106
-0.269531 -0.031250 -0.031445 110 109 110
-0.265625 -0.031250 -0.041906 128 128 129
-0.261719 -0.031250 -0.050850 146 146 148
-0.257812 -0.031250 -0.059167 153 153 157
-0.253906 -0.031250 -0.066039 148 147 152
-0.250000 -0.031250 -0.072230 137 136 144
-0.246094 -0.031250 -0.077549 122 121 134
-0.242188 -0.031250 -0.082692 110 110 127
-0.238281 -0.031250 -0.087060 97 99 123
-0.234375 -0.031250 -0.091181 93 95 127
-0.230469 -0.031250 -0.095083 106 106 142
-0.226562 -0.031250 -0.098848 140 145 182
-0.222656 -0.031250 -0.102683 117 128 158
-0.218750 -0.031250 -0.106482 133 152 180
-0.214844 -0.031250 -0.110214 139 164 194
-0.210938 -0.031250 -0.113813 132 163 196
-0.207031 -0.031250 -0.117295 118 155 192
-0.203125 -0.031250 -0.120538 107 148 184
-0.199219 -0.031250 -0.123498 98 142 179
-0.195312 -0.031250 -0.126196 90 137 175
-0.191406 -0.031250 -0.128809 107 124 200
-0.187500 -0.031250 -0.131434 120 140 213
-0.183594 -0.031250 -0.134246 118 143 210
-0.179688 -0.031250 -0.137075 95 129 190
-0.175781 -0.031250 -0.139803 80 120 174
-0.171875 -0.031250 -0.142224 80 126 178
-0.167969 -0.031250 -0.144140 78 129 182
-0.164062 -0.031250 -0.145757 71 123 180
-0.160156 -0.031250 -0.147078 54 106 164
-0.156250 -0.031250 -0.148182 49 98 156
-0.152344 -0.031250 -0.149161 29 72 125
-0.148438 -0.031250 -0.149973 50 88 131
-0.144531 -0.031250 -0.150621 116 148 179
-0.140625 -0.031250 -0.151168 152 180 195
-0.136719 -0.031250 -0.151563 157 181 185
-0.132812 -0.031250 -0.151860 171 195 192
-0.128906 -0.031250 -0.152132 108 128 151
-0.125000 -0.031250 -0.152336 108 129 158
-0.121094 -0.031250 -0.152389 78 97 137
-0.117188 -0.031250 -0.152326 63 83 133
-0.113281 -0.031250 -0.152320 85 105 164
-0.109375 -0.031250 -0.152408 82 101 167
-0.105469 -0.031250 -0.152614 59 79 142
-0.101562 -0.031250 -0.152940 62 81 139
-0.097656 -0.031250 -0.153319 77 94 140
-0.093750 -0.031250 -0.153925 77 92 125
-0.089844 -0.031250 -0.154583 94 105 123
-0.085938 -0.031250 -0.155330 99 106 112
-0.082031 -0.031250 -0.156063 89 94 88
-0.078125 -0.031250 -0.156558 100 100 88
-0.074219 -0.031250 -0.156964 113 110 93
-0.070312 -0.031250 -0.157219 104 99 80
-0.066406 -0.031250 -0.157232 83 91 94
-0.062500 -0.031250 -0.157005 63 71 73
-0.058594 -0.031250 -0.156732 96 102 102
-0.054688 -0.031250 -0.156318 88 92 91
-0.050781 -0.031250 -0.155915 78 83 77
-0.046875 -0.031250 -0.155542 92 95 88
-0.042969 -0.031250 -0.155254 79 80 72
-0.039062 -0.031250 -0.155130 97 98 90
-0.035156 -0.031250 -0.155046 127 128 120
-0.031250 -0.031250 -0.155150 108 111 104
-0.027344 -0.031250 -0.155261 103 105 102
-0.023438 -0.031250 -0.155331 94 98 99
-0.019531 -0.031250 -0.155481 77 82 86
-0.015625 -0.031250 -0.155343 80 87 93
-0.011719 -0.031250 -0.155120 90 97 107
-0.007812 -0.031250 -0.154610 80 89 98
-0.003906 -0.031250 -0.153893 128 131 138
0.000000 -0.031250 -0.153144 82 85 90
0.003906 -0.031250 -0.151877 91 92 94
0.007812 -0.031250 -0.150245 121 123 120
0.011719 -0.031250 -0.148084 103 106 97
0.015625 -0.031250 -0.145535 86 90 75
0.019531 -0.031250 -0.142724 104 108 91
0.023438 -0.031250 -0.139755 118 126 105
0.027344 -0.031250 -0.136856 117 126 107
0.031250 -0.031250 -0.134136 100 111 97
0.035156 -0.031250 -0.131970 93 106 99
0.039062 -0.031250 -0.129979 89 102 108
0.042969 -0.031250 -0.128146 92 108 123
0.046875 -0.031250 -0.126389 96 112 137
0.050781 -0.031250 -0.124587 93 109 142
0.054688 -0.031250 -0.122891 101 116 155
0.058594 -0.031250 -0.121209 86 105 120
0.062500 -0.031250 -0.119650 110 129 146
0.066406 -0.031250 -0.118181 105 126 142
0.070312 -0.031250 -0.116813 137 160 178
0.074219 -0.031250 -0.115504 150 174 194
0.078125 -0.031250 -0.114234 130 155 177
0.082031 -0.031250 -0.113038 112 137 159
0.085938 -0.031250 -0.111865 83 108 128
0.089844 -0.031250 -0.110781 131 154 172
0.093750 -0.031250 -0.109816 139 158 173
0.097656 -0.031250 -0.108827 155 170 183
0.101562 -0.031250 -0.107846 140 150 159
0.105469 -0.031250 -0.106944 146 153 159
0.109375 -0.031250 -0.106207 194 194 199
0.113281 -0.031250 -0.105703 142 141 144
0.117188 -0.031250 -0.105334 151 149 151
0.121094 -0.031250 -0.105108 173 171 173
0.125000 -0.031250 -0.104755 188 187 188
0.128906 -0.031250 -0.104170 195 194 195
0.132812 -0.031250 -0.103522 197 196 196
0.136719 -0.031250 -0.102625 197 196 197
0.140625 -0.031250 -0.101450 196 195 195
0.144531 -0.031250 -0.099998 194 194 194
0.148438 -0.031250 -0.098147 187 186 186
0.152344 -0.031250 -0.096042 188 188 188
0.156250 -0.031250 -0.093643 183 183 183
0.160156 -0.031250 -0.090870 178 178 178
0.164062 -0.031250 -0.087745 174 174 174
0.167969 -0.031250 -0.084467 171 171 171
0.171875 -0.031250 -0.081081 169 168 169
0.175781 -0.031250 -0.077671 169 168 168
0.179688 -0.031250 -0.074249 171 169 169
0.183594 -0.031250 -0.070908 175 172 173
0.187500 -0.031250 -0.067551 181 177 177
0.191406 -0.031250 -0.063641 187 182 183
0.195312 -0.031250 -0.059012 192 188 189
0.199219 -0.031250 -0.054162 197 193 194
0.203125 -0.031250 -0.048827 202 200 200
0.207031 -0.031250 -0.042752 206 205 205
0.210938 -0.031250 -0.035747 202 201 201
0.214844 -0.031250 -0.027759 194 193 193
0.218750 -0.031250 -0.018228 195 192 193
0.222656 -0.031250 -0.008460 209 203 205
0.226562 -0.031250 0.008340 233 224 228
-0.273438 -0.035156 -0.021731 124 124 125
-0.269531 -0.035156 -0.032679 128 128 129
-0.265625 -0.035156 -0.042623 146 145 146
-0.261719 -0.035156 -0.051286 161 160 162
-0.257812 -0.035156 -0.059364 165 165 168
-0.253906 -0.035156 -0.066072 159 159 162
-0.250000 -0.035156 -0.072209 148 147 154
-0.246094 -0.035156 -0.077436 134 133 144
-0.242188 -0.035156 -0.082472 120 119 136
-0.238281 -0.035156 -0.086781 107 106 130
-0.234375 -0.035156 -0.090839 93 93 123
-0.230469 -0.035156 -0.094689 92 91 127
-0.226562 -0.035156 -0.098406 122 121 161
-0.222656 -0.035156 -0.102197 148 151 187
-0.218750 -0.035156 -0.105924 136 150 177
-0.214844 -0.035156 -0.109600 122 144 170
-0.210938 -0.035156 -0.113158 146 177 204
-0.207031 -0.035156 -0.116582 121 157 190
-0.203125 -0.035156 -0.119780 104 145 181
-0.199219 -0.035156 -0.122688 111 157 195
-0.195312 -0.035156 -0.125332 88 135 176
-0.191406 -0.035156 -0.127908 102 120 199
-0.187500 -0.035156 -0.130503 98 119 195
-0.183594 -0.035156 -0.133262 99 125 194
-0.179688 -0.035156 -0.136037 100 134 197
-0.175781 -0.035156 -0.138725 95 137 195
-0.171875 -0.035156 -0.141132 84 132 188
-0.167969 -0.035156 -0.143088 77 128 188
-0.164062 -0.035156 -0.144744 76 128 194
-0.160156 -0.035156 -0.146108 69 122 192
-0.156250 -0.035156 -0.147282 68 116 188
-0.152344 -0.035156 -0.148287 49 92 160
-0.148438 -0.035156 -0.149096 30 69 126
-0.144531 -0.035156 -0.149740 55 87 128
-0.140625 -0.035156 -0.150260 112 143 163
-0.136719 -0.035156 -0.150609 157 183 190
-0.132812 -0.035156 -0.150856 169 194 193
-0.128906 -0.035156 -0.151074 178 198 199
-0.125000 -0.035156 -0.151224 137 157 164
-0.121094 -0.035156 -0.151239 101 122 141
-0.117188 -0.035156 -0.151145 75 96 127
-0.113281 -0.035156 -0.151108 95 114 157
-0.109375 -0.035156 -0.151176 90 110 161
-0.105469 -0.035156 -0.151378 88 108 161
-0.101562 -0.035156 -0.151685 71 89 139
-0.097656 -0.035156 -0.152048 65 83 123
-0.093750 -0.035156 -0.152659 71 85 114
-0.089844 -0.035156 -0.153335 94 106 120
-0.085938 -0.035156 -0.154143 110 115 119
-0.082031 -0.035156 -0.154950 107 108 102
-0.078125 -0.035156 -0.155556 119 117 104
-0.074219 -0.035156 -0.156116 130 125 106
-0.070312 -0.035156 -0.156552 116 109 90
-0.066406 -0.035156 -0.156765 98 108 110
-0.062500 -0.035156 -0.156731 88 96 98
-0.058594 -0.035156 -0.156600 84 93 92
-0.054688 -0.035156 -0.156251 101 107 105
-0.050781 -0.035156 -0.155873 109 114 108
-0.046875 -0.035156 -0.155464 92 95 88
-0.042969 -0.035156 -0.155099 86 89 80
-0.039062 -0.035156 -0.154838 107 108 100
-0.035156 -0.035156 -0.154603 124 125 117
-0.031250 -0.035156 -0.154581 118 119 113
-0.027344 -0.035156 -0.154581 101 103 98
-0.023438 -0.035156 -0.154631 84 88 87
-0.019531 -0.035156 -0.154820 85 89 92
-0.015625 -0.035156 -0.154812 93 98 102
-0.011719 -0.035156 -0.154713 85 92 100
-0.007812 -0.035156 -0.154336 70 77 85
-0.003906 -0.035156 -0.153812 93 95 107
0.000000 -0.035156 -0.153215 106 109 118
0.003906 -0.035156 -0.152053 88 89 93
0.007812 -0.035156 -0.150495 102 104 99
0.011719 -0.035156 -0.148353 114 118 104
0.015625 -0.035156 -0.145727 75 80 60
0.019531 -0.035156 -0.142893 78 83 61
0.023438 -0.035156 -0.139890 128 136 113
0.027344 -0.035156 -0.136992 113 122 103
0.031250 -0.035156 -0.134269 128 138 127
0.035156 -0.035156 -0.132018 111 123 119
0.039062 -0.035156 -0.129946 89 102 110
0.042969 -0.035156 -0.128039 97 113 129
0.046875 -0.035156 -0.126263 102 118 143
0.050781 -0.035156 -0.124455 92 108 141
0.054688 -0.035156 -0.122728 90 106 140
0.058594 -0.035156 -0.121006 108 129 147
0.062500 -0.035156 -0.119380 121 142 161
0.066406 -0.035156 -0.117845 135 157 178
0.070312 -0.035156 -0.116436 139 164 184
0.074219 -0.035156 -0.115106 139 163 185
0.078125 -0.035156 -0.113845 131 157 180
0.082031 -0.035156 -0.112660 113 139 162
0.085938 -0.035156 -0.111503 97 122 144
0.089844 -0.035156 -0.110440 145 166 187
0.093750 -0.035156 -0.109482 122 141 158
0.097656 -0.035156 -0.108510 125 139 152
0.101562 -0.035156 -0.107555 147 155 166
0.105469 -0.035156 -0.106694 147 152 158
0.109375 -0.035156 -0.105991 183 183 184
0.113281 -0.035156 -0.105505 134 132 135
0.117188 -0.035156 -0.105136 153 151 152
0.121094 -0.035156 -0.104877 175 174 176
0.125000 -0.035156 -0.104478 187 186 187
0.128906 -0.035156 -0.103841 193 192 192
0.132812 -0.035156 -0.103138 195 194 195
0.136719 -0.035156 -0.102195 195 194 195
0.140625 -0.035156 -0.100977 194 194 194
0.144531 -0.035156 -0.099503 193 193 193
0.148438 -0.035156 -0.097621 192 192 192
0.152344 -0.035156 -0.095500 189 188 189
0.156250 -0.035156 -0.093087 185 185 185
0.160156 -0.035156 -0.090308 181 181 181
0.164062 -0.035156 -0.087186 177 177 177
0.167969 -0.035156 -0.083903 174 174 174
0.171875 -0.035156 -0.080515 173 172 172
0.175781 -0.035156 -0.077057 173 172 172
0.179688 -0.035156 -0.073542 174 172 173
0.183594 -0.035156 -0.070089 178 175 176
0.187500 -0.035156 -0.066624 183 179 180
0.191406 -0.035156 -0.062597 189 184 185
0.195312 -0.035156 -0.057866 194 190 190
0.199219 -0.035156 -0.052923 198 194 195
0.203125 -0.035156 -0.047520 203 200 201
0.207031 -0.035156 -0.041412 205 204 204
0.210938 -0.035156 -0.034462 201 199 200
0.214844 -0.035156 -0.026433 192 191 191
0.218750 -0.035156 -0.017021 191 189 189
0.222656 -0.035156 -0.007557 205 198 200
0.226562 -0.035156 0.006688 231 222 226
-0.273438 -0.039062 -0.023008 137 137 138
-0.269531 -0.039062 -0.033772 144 144 144
-0.265625 -0.039062 -0.043388 161 161 162
-0.261719 -0.039062 -0.051863 173 172 174
-0.257812 -0.039062 -0.059721 175 174 176
-0.253906 -0.039062 -0.066213 167 166 168
-0.250000 -0.039062 -0.072224 156 155 160
-0.246094 -0.039062 -0.077320 143 142 151
-0.242188 -0.039062 -0.082253 130 128 143
-0.238281 -0.039062 -0.086497 116 114 135
-0.234375 -0.039062 -0.090501 100 98 125
-0.230469 -0.039062 -0.094321 89 86 120
-0.226562 -0.039062 -0.097991 99 96 136
-0.222656 -0.039062 -0.101715 133 129 166
-0.218750 -0.039062 -0.105373 122 128 157
-0.214844 -0.039062 -0.108989 142 160 181
-0.210938 -0.039062 -0.112491 134 162 185
-0.207031 -0.039062 -0.115868 141 175 203
-0.203125 -0.039062 -0.119026 124 164 198
-0.199219 -0.039062 -0.121897 96 139 178
-0.195312 -0.039062 -0.124525 93 140 181
-0.191406 -0.039062 -0.127088 91 115 182
-0.187500 -0.039062 -0.129644 90 116 183
-0.183594 -0.039062 -0.132330 89 119 186
-0.179688 -0.039062 -0.135058 88 124 192
-0.175781 -0.039062 -0.137713 91 130 200
-0.171875 -0.039062 -0.140100 89 135 207
-0.167969 -0.039062 -0.142086 83 131 207
-0.164062 -0.039062 -0.143769 73 125 201
-0.160156 -0.039062 -0.145178 63 115 191
-0.156250 -0.039062 -0.146394 63 111 185
-0.152344 -0.039062 -0.147402 64 109 176
-0.148438 -0.039062 -0.148232 60 99 158
-0.144531 -0.039062 -0.148885 47 81 127
-0.140625 -0.039062 -0.149391 52 82 117
-0.136719 -0.039062 -0.149723 97 125 149
-0.132812 -0.039062 -0.149938 148 172 192
-0.128906 -0.039062 -0.150122 177 198 193
-0.125000 -0.039062 -0.150237 167 188 189
-0.121094 -0.039062 -0.150228 158 178 187
-0.117188 -0.039062 -0.150134 118 139 156
-0.113281 -0.039062 -0.150100 103 125 149
-0.109375 -0.039062 -0.150145 85 106 137
-0.105469 -0.039062 -0.150305 103 124 155
-0.101562 -0.039062 -0.150566 113 133 160
-0.097656 -0.039062 -0.150884 87 105 125
-0.093750 -0.039062 -0.151449 76 90 101
-0.089844 -0.039062 -0.152109 91 102 104
-0.085938 -0.039062 -0.152985 110 116 114
-0.082031 -0.039062 -0.153872 102 103 97
-0.078125 -0.039062 -0.154574 103 98 92
-0.074219 -0.039062 -0.155282 128 119 112
-0.070312 -0.039062 -0.155860 145 134 128
-0.066406 -0.039062 -0.156233 108 118 120
-0.062500 -0.039062 -0.156375 129 139 140
-0.058594 -0.039062 -0.156360 125 134 133
-0.054688 -0.039062 -0.156080 106 112 110
-0.050781 -0.039062 -0.155727 102 107 101
-0.046875 -0.039062 -0.155306 104 107 100
-0.042969 -0.039062 -0.154910 93 96 87
-0.039062 -0.039062 -0.154602 85 87 76
-0.035156 -0.039062 -0.154332 121 123 112
-0.031250 -0.039062 -0.154299 106 107 99
-0.027344 -0.039062 -0.154348 92 94 89
-0.023438 -0.039062 -0.154459 92 94 91
-0.019531 -0.039062 -0.154720 90 94 95
-0.015625 -0.039062 -0.154803 86 91 95
-0.011719 -0.039062 -0.154770 83 88 94
-0.007812 -0.039062 -0.154487 82 89 97
-0.003906 -0.039062 -0.154013 84 86 99
0.000000 -0.039062 -0.153417 100 103 112
0.003906 -0.039062 -0.152226 75 76 78
0.007812 -0.039062 -0.150652 80 83 76
0.011719 -0.039062 -0.148499 105 109 92
0.015625 -0.039062 -0.145874 93 98 76
0.019531 -0.039062 -0.143160 101 107 81
0.023438 -0.039062 -0.140297 132 140 117
0.027344 -0.039062 -0.137573 130 139 120
0.031250 -0.039062 -0.134924 121 131 122
0.035156 -0.039062 -0.132578 98 110 110
0.039062 -0.039062 -0.130376 88 101 110
0.042969 -0.039062 -0.128313 93 109 125
0.046875 -0.039062 -0.126425 87 103 128
0.050781 -0.039062 -0.124512 85 102 130
0.054688 -0.039062 -0.122693 103 120 150
0.058594 -0.039062 -0.120899 114 135 154
0.062500 -0.039062 -0.119173 122 145 163
0.066406 -0.039062 -0.117558 130 152 173
0.070312 -0.039062 -0.116085 130 155 175
0.074219 -0.039062 -0.114700 130 157 177
0.078125 -0.039062 -0.113402 126 152 175
0.082031 -0.039062 -0.112177 115 141 164
0.085938 -0.039062 -0.111016 105 130 152
0.089844 -0.039062 -0.109955 125 146 167
0.093750 -0.039062 -0.108983 117 134 152
0.097656 -0.039062 -0.108044 159 173 186
0.101562 -0.039062 -0.107146 144 152 162
0.105469 -0.039062 -0.106341 172 174 181
0.109375 -0.039062 -0.105667 176 175 178
0.113281 -0.039062 -0.105205 147 143 146
0.117188 -0.039062 -0.104846 162 159 161
0.121094 -0.039062 -0.104545 180 178 179
0.125000 -0.039062 -0.104088 189 188 189
0.128906 -0.039062 -0.103406 194 193 193
0.132812 -0.039062 -0.102648 195 194 195
0.136719 -0.039062 -0.101644 195 194 194
0.140625 -0.039062 -0.100369 194 193 193
0.144531 -0.039062 -0.098843 193 193 193
0.148438 -0.039062 -0.096916 192 192 192
0.152344 -0.039062 -0.094759 189 189 189
0.156250 -0.039062 -0.092330 186 186 186
0.160156 -0.039062 -0.089540 183 182 182
0.164062 -0.039062 -0.086430 179 179 179
0.167969 -0.039062 -0.083155 177 177 177
0.171875 -0.039062 -0.079780 176 175 175
0.175781 -0.039062 -0.076300 176 175 175
0.179688 -0.039062 -0.072724 177 175 176
0.183594 -0.039062 -0.069189 180 178 178
0.187500 -0.039062 -0.065637 185 181 182
0.191406 -0.039062 -0.061505 190 186 187
0.195312 -0.039062 -0.056680 195 191 191
0.199219 -0.039062 -0.051647 198 195 196
0.203125 -0.039062 -0.046169 203 201 201
0.207031 -0.039062 -0.040021 205 204 204
0.210938 -0.039062 -0.033087 200 199 199
0.214844 -0.039062 -0.025058 192 191 191
0.218750 -0.039062 -0.015839 189 187 187
0.222656 -0.039062 -0.006186 199 193 194
0.226562 -0.039062 0.004649 224 216 219
0.230469 -0.039062 0.008541 235 224 231
-0.273438 -0.042969 -0.023739 146 146 146
-0.269531 -0.042969 -0.034602 155 155 155
-0.265625 -0.042969 -0.044036 173 172 173
-0.261719 -0.042969 -0.052318 181 181 182
-0.257812 -0.042969 -0.059962 181 180 182
-0.253906 -0.042969 -0.066287 172 171 172
-0.250000 -0.042969 -0.072193 161 161 164
-0.246094 -0.042969 -0.077164 150 148 156
-0.242188 -0.042969 -0.081996 138 135 148
-0.238281 -0.042969 -0.086171 126 121 140
-0.234375 -0.042969 -0.090124 110 106 129
-0.230469 -0.042969 -0.093908 95 90 120
-0.226562 -0.042969 -0.097511 91 84 122
-0.222656 -0.042969 -0.101171 102 95 136
-0.218750 -0.042969 -0.104789 143 139 174
-0.214844 -0.042969 -0.108340 104 115 135
-0.210938 -0.042969 -0.111777 126 150 166
-0.207031 -0.042969 -0.115108 139 172 194
-0.203125 -0.042969 -0.118227 138 176 206
-0.199219 -0.042969 -0.121066 121 162 200
-0.195312 -0.042969 -0.123654 108 154 195
-0.191406 -0.042969 -0.126183 118 150 195
-0.187500 -0.042969 -0.128719 91 123 174
-0.183594 -0.042969 -0.131368 74 109 169
-0.179688 -0.042969 -0.134073 78 115 188
-0.175781 -0.042969 -0.136699 79 119 201
-0.171875 -0.042969 -0.139053 69 112 201
-0.167969 -0.042969 -0.141043 72 116 207
-0.164062 -0.042969 -0.142734 85 133 218
-0.160156 -0.042969 -0.144177 81 128 206
-0.156250 -0.042969 -0.145415 67 114 182
-0.152344 -0.042969 -0.146444 66 111 170
-0.148438 -0.042969 -0.147310 69 110 162
-0.144531 -0.042969 -0.147957 54 90 140
-0.140625 -0.042969 -0.148452 35 67 114
-0.136719 -0.042969 -0.148772 51 79 127
-0.132812 -0.042969 -0.148951 85 111 159
-0.128906 -0.042969 -0.149104 132 155 161
-0.125000 -0.042969 -0.149188 150 175 182
-0.121094 -0.042969 -0.149151 177 201 211
-0.117188 -0.042969 -0.149051 161 184 196
-0.113281 -0.042969 -0.149017 144 168 180
-0.109375 -0.042969 -0.149046 111 135 145
-0.105469 -0.042969 -0.149177 113 138 143
-0.101562 -0.042969 -0.149384 115 139 139
-0.097656 -0.042969 -0.149650 109 130 123
-0.093750 -0.042969 -0.150187 78 95 85
-0.089844 -0.042969 -0.150848 67 81 68
-0.085938 -0.042969 -0.151815 81 88 80
-0.082031 -0.042969 -0.152793 87 89 86
-0.078125 -0.042969 -0.153622 93 91 94
-0.074219 -0.042969 -0.154509 105 97 108
-0.070312 -0.042969 -0.155244 108 100 113
-0.066406 -0.042969 -0.155787 116 127 129
-0.062500 -0.042969 -0.156087 132 142 144
-0.058594 -0.042969 -0.156161 134 144 145
-0.054688 -0.042969 -0.155927 129 138 135
-0.050781 -0.042969 -0.155619 132 138 134
-0.046875 -0.042969 -0.155232 126 131 124
-0.042969 -0.042969 -0.154805 112 115 106
-0.039062 -0.042969 -0.154473 106 108 97
-0.035156 -0.042969 -0.154152 134 136 125
-0.031250 -0.042969 -0.154014 111 112 104
-0.027344 -0.042969 -0.154002 105 106 100
-0.023438 -0.042969 -0.154075 116 118 115
-0.019531 -0.042969 -0.154310 109 113 114
-0.015625 -0.042969 -0.154434 85 89 92
-0.011719 -0.042969 -0.154449 78 83 87
-0.007812 -0.042969 -0.154285 91 96 102
-0.003906 -0.042969 -0.153912 100 102 115
0.000000 -0.042969 -0.153369 118 121 128
0.003906 -0.042969 -0.152201 86 88 87
0.007812 -0.042969 -0.150579 75 78 67
0.011719 -0.042969 -0.148358 103 108 88
0.015625 -0.042969 -0.145687 112 117 94
0.019531 -0.042969 -0.143064 120 126 100
0.023438 -0.042969 -0.140326 128 136 113
0.027344 -0.042969 -0.137686 109 117 102
0.031250 -0.042969 -0.135055 114 123 118
0.035156 -0.042969 -0.132601 112 123 127
0.039062 -0.042969 -0.130317 107 119 131
0.042969 -0.042969 -0.128176 101 117 133
0.046875 -0.042969 -0.126205 87 103 126
0.050781 -0.042969 -0.124221 86 104 128
0.054688 -0.042969 -0.122328 105 123 147
0.058594 -0.042969 -0.120443 109 130 147
0.062500 -0.042969 -0.118608 114 137 153
0.066406 -0.042969 -0.116891 117 140 157
0.070312 -0.042969 -0.115330 115 141 158
0.074219 -0.042969 -0.113874 113 140 159
0.078125 -0.042969 -0.112533 112 139 160
0.082031 -0.042969 -0.111297 108 135 156
0.085938 -0.042969 -0.110159 103 128 148
0.089844 -0.042969 -0.109104 160 181 200
0.093750 -0.042969 -0.108145 140 157 173
0.097656 -0.042969 -0.107262 171 185 198
0.101562 -0.042969 -0.106409 130 138 147
0.105469 -0.042969 -0.105638 193 194 201
0.109375 -0.042969 -0.105005 171 168 171
0.113281 -0.042969 -0.104573 160 155 158
0.117188 -0.042969 -0.104221 171 167 169
0.121094 -0.042969 -0.103898 183 181 182
0.125000 -0.042969 -0.103412 191 190 191
0.128906 -0.042969 -0.102728 195 194 194
0.132812 -0.042969 -0.101937 196 195 195
0.136719 -0.042969 -0.100885 195 194 194
0.140625 -0.042969 -0.099567 194 193 193
0.144531 -0.042969 -0.098003 193 193 193
0.148438 -0.042969 -0.096055 192 192 192
0.152344 -0.042969 -0.093877 190 190 190
0.156250 -0.042969 -0.091441 187 187 187
0.160156 -0.042969 -0.088654 184 184 184
0.164062 -0.042969 -0.085564 181 181 181
0.167969 -0.042969 -0.082305 179 179 179
0.171875 -0.042969 -0.078953 178 178 178
0.175781 -0.042969 -0.075460 178 178 178
0.179688 -0.042969 -0.071838 179 178 179
0.183594 -0.042969 -0.068240 182 180 181
0.187500 -0.042969 -0.064616 186 183 184
0.191406 -0.042969 -0.060385 191 188 188
0.195312 -0.042969 -0.055468 195 192 192
0.199219 -0.042969 -0.050347 199 196 196
0.203125 -0.042969 -0.044805 203 201 201
0.207031 -0.042969 -0.038648 205 203 203
0.210938 -0.042969 -0.031765 201 199 199
0.214844 -0.042969 -0.023823 193 192 192
0.218750 -0.042969 -0.014759 188 186 186
0.222656 -0.042969 -0.005422 194 189 190
0.226562 -0.042969 0.005241 218 210 213
0.230469 -0.042969 0.018225 229 217 224
-0.273438 -0.046875 -0.024002 152 152 152
-0.269531 -0.046875 -0.035195 163 163 163
-0.265625 -0.046875 -0.044570 180 180 180
-0.261719 -0.046875 -0.052731 187 186 187
-0.257812 -0.046875 -0.060248 184 184 185
-0.253906 -0.046875 -0.066430 173 174 174
-0.250000 -0.046875 -0.072226 165 164 167
-0.246094 -0.046875 -0.077076 155 153 159
-0.242188 -0.046875 -0.081804 145 141 152
-0.238281 -0.046875 -0.085904 134 129 144
-0.234375 -0.046875 -0.089800 120 114 134
-0.230469 -0.046875 -0.093525 105 98 123
-0.226562 -0.046875 -0.097045 92 84 117
-0.222656 -0.046875 -0.100630 91 82 120
-0.218750 -0.046875 -0.104165 113 104 141
-0.214844 -0.046875 -0.107607 149 149 174
-0.210938 -0.046875 -0.110965 106 122 137
-0.207031 -0.046875 -0.114237 125 152 171
-0.203125 -0.046875 -0.117316 137 170 198
-0.199219 -0.046875 -0.120170 139 179 214
-0.195312 -0.046875 -0.122764 117 158 198
-0.191406 -0.046875 -0.125277 119 161 187
-0.187500 -0.046875 -0.127821 103 145 179
-0.183594 -0.046875 -0.130463 86 126 178
-0.179688 -0.046875 -0.133141 76 115 185
-0.175781 -0.046875 -0.135721 70 109 196
-0.171875 -0.046875 -0.138060 68 107 203
-0.167969 -0.046875 -0.140071 71 113 208
-0.164062 -0.046875 -0.141775 78 122 211
-0.160156 -0.046875 -0.143235 90 136 213
-0.156250 -0.046875 -0.144478 85 131 193
-0.152344 -0.046875 -0.145523 73 119 171
-0.148438 -0.046875 -0.146395 67 109 159
-0.144531 -0.046875 -0.147029 66 106 158
-0.140625 -0.046875 -0.147536 66 101 159
-0.136719 -0.046875 -0.147847 53 84 149
-0.132812 -0.046875 -0.148010 37 67 137
-0.128906 -0.046875 -0.148142 69 100 121
-0.125000 -0.046875 -0.148198 83 114 134
-0.121094 -0.046875 -0.148145 122 150 168
-0.117188 -0.046875 -0.148016 141 170 184
-0.113281 -0.046875 -0.147958 167 196 204
-0.109375 -0.046875 -0.147956 152 179 180
-0.105469 -0.046875 -0.148040 139 166 157
-0.101562 -0.046875 -0.148147 116 143 126
-0.097656 -0.046875 -0.148293 120 146 121
-0.093750 -0.046875 -0.148741 105 128 102
-0.089844 -0.046875 -0.149340 87 105 83
-0.085938 -0.046875 -0.150352 79 91 77
-0.082031 -0.046875 -0.151402 89 98 95
-0.078125 -0.046875 -0.152355 107 109 121
-0.074219 -0.046875 -0.153437 103 101 122
-0.070312 -0.046875 -0.154337 81 78 105
-0.066406 -0.046875 -0.155056 97 108 112
-0.062500 -0.046875 -0.155496 110 121 123
-0.058594 -0.046875 -0.155636 117 127 128
-0.054688 -0.046875 -0.155424 128 137 136
-0.050781 -0.046875 -0.155140 145 151 147
-0.046875 -0.046875 -0.154777 145 150 144
-0.042969 -0.046875 -0.154325 133 136 127
-0.039062 -0.046875 -0.153997 128 129 121
-0.035156 -0.046875 -0.153677 133 134 126
-0.031250 -0.046875 -0.153496 118 119 111
-0.027344 -0.046875 -0.153470 119 120 114
-0.023438 -0.046875 -0.153527 132 134 131
-0.019531 -0.046875 -0.153750 123 124 126
-0.015625 -0.046875 -0.153892 93 97 100
-0.011719 -0.046875 -0.153894 85 88 93
-0.007812 -0.046875 -0.153734 97 102 108
-0.003906 -0.046875 -0.153368 94 96 108
0.000000 -0.046875 -0.152874 115 118 123
0.003906 -0.046875 -0.151812 90 92 89
0.007812 -0.046875 -0.150338 79 83 69
0.011719 -0.046875 -0.148328 99 104 82
0.015625 -0.046875 -0.145831 108 114 88
0.019531 -0.046875 -0.143449 117 122 99
0.023438 -0.046875 -0.140851 117 124 104
0.027344 -0.046875 -0.138290 104 112 101
0.031250 -0.046875 -0.135733 131 140 139
0.035156 -0.046875 -0.133172 138 148 157
0.039062 -0.046875 -0.130747 114 126 140
0.042969 -0.046875 -0.128418 90 106 122
0.046875 -0.046875 -0.126276 87 104 122
0.050781 -0.046875 -0.124182 91 110 127
0.054688 -0.046875 -0.122170 94 113 130
0.058594 -0.046875 -0.120175 94 116 129
0.062500 -0.046875 -0.118230 98 120 133
0.066406 -0.046875 -0.116410 103 126 140
0.070312 -0.046875 -0.114747 108 134 149
0.074219 -0.046875 -0.113200 115 141 158
0.078125 -0.046875 -0.111783 123 150 167
0.082031 -0.046875 -0.110490 131 158 177
0.085938 -0.046875 -0.109314 136 162 179
0.089844 -0.046875 -0.108214 175 196 213
0.093750 -0.046875 -0.107223 164 181 195
0.097656 -0.046875 -0.106335 154 167 178
0.101562 -0.046875 -0.105507 145 153 162
0.105469 -0.046875 -0.104772 190 192 194
0.109375 -0.046875 -0.104173 168 165 168
0.113281 -0.046875 -0.103752 169 164 167
0.117188 -0.046875 -0.103394 179 175 176
0.121094 -0.046875 -0.103041 186 184 185
0.125000 -0.046875 -0.102522 192 191 192
0.128906 -0.046875 -0.101836 195 194 195
0.132812 -0.046875 -0.101026 195 195 195
0.136719 -0.046875 -0.099947 195 194 194
0.140625 -0.046875 -0.098605 194 193 193
0.144531 -0.046875 -0.097014 193 193 193
0.148438 -0.046875 -0.095042 193 193 193
0.152344 -0.046875 -0.092849 191 191 191
0.156250 -0.046875 -0.090403 188 188 188
0.160156 -0.046875 -0.087619 185 185 185
0.164062 -0.046875 -0.084557 182 182 182
0.167969 -0.046875 -0.081323 181 180 180
0.171875 -0.046875 -0.077997 180 179 179
0.175781 -0.046875 -0.074517 180 179 180
0.179688 -0.046875 -0.070879 181 180 181
0.183594 -0.046875 -0.067247 184 182 183
0.187500 -0.046875 -0.063575 188 185 186
0.191406 -0.046875 -0.059275 192 189 190
0.195312 -0.046875 -0.054293 196 193 193
0.199219 -0.046875 -0.049108 199 196 196
0.203125 -0.046875 -0.043516 202 200 200
0.207031 -0.046875 -0.037368 204 202 202
0.210938 -0.046875 -0.030572 200 199 199
0.214844 -0.046875 -0.022775 193 192 192
0.218750 -0.046875 -0.013881 186 184 185
0.222656 -0.046875 -0.004879 189 184 185
0.226562 -0.046875 0.004284 210 203 205
0.230469 -0.046875 0.021718 219 209 215
-0.273438 -0.050781 -0.023895 157 156 157
-0.269531 -0.050781 -0.035661 168 168 168
-0.265625 -0.050781 -0.045092 184 184 184
-0.261719 -0.050781 -0.053155 190 189 190
-0.257812 -0.050781 -0.060546 186 186 186
-0.253906 -0.050781 -0.066570 175 177 175
-0.250000 -0.050781 -0.072245 167 167 169
-0.246094 -0.050781 -0.076980 159 157 162
-0.242188 -0.050781 -0.081606 152 146 155
-0.238281 -0.050781 -0.085632 143 136 149
-0.234375 -0.050781 -0.089463 131 123 139
-0.230469 -0.050781 -0.093134 116 108 128
-0.226562 -0.050781 -0.096599 102 93 118
-0.222656 -0.050781 -0.100118 94 84 114
-0.218750 -0.050781 -0.103553 98 86 121
-0.214844 -0.050781 -0.106908 127 116 150
-0.210938 -0.050781 -0.110223 162 163 186
-0.207031 -0.050781 -0.113447 105 123 142
-0.203125 -0.050781 -0.116462 136 164 190
-0.199219 -0.050781 -0.119309 141 175 210
-0.195312 -0.050781 -0.121923 140 179 217
-0.191406 -0.050781 -0.124430 92 142 157
-0.187500 -0.050781 -0.126943 115 163 189
-0.183594 -0.050781 -0.129540 113 160 200
-0.179688 -0.050781 -0.132186 84 127 186
-0.175781 -0.050781 -0.134730 72 113 188
-0.171875 -0.050781 -0.137055 85 125 211
-0.167969 -0.050781 -0.139074 84 124 212
-0.164062 -0.050781 -0.140776 66 106 191
-0.160156 -0.050781 -0.142236 79 121 195
-0.156250 -0.050781 -0.143466 95 136 202
-0.152344 -0.050781 -0.144502 95 137 195
-0.148438 -0.050781 -0.145358 80 121 177
-0.144531 -0.050781 -0.145989 73 113 172
-0.140625 -0.050781 -0.146518 79 117 182
-0.136719 -0.050781 -0.146818 72 109 180
-0.132812 -0.050781 -0.146978 54 90 166
-0.128906 -0.050781 -0.147096 50 89 122
-0.125000 -0.050781 -0.147118 43 82 113
-0.121094 -0.050781 -0.147053 60 97 126
-0.117188 -0.050781 -0.146895 77 113 137
-0.113281 -0.050781 -0.146808 126 158 173
-0.109375 -0.050781 -0.146774 140 172 177
-0.105469 -0.050781 -0.146801 153 184 178
-0.101562 -0.050781 -0.146814 145 173 158
-0.097656 -0.050781 -0.146855 118 146 123
-0.093750 -0.050781 -0.147199 132 156 130
-0.089844 -0.050781 -0.147734 126 148 125
-0.085938 -0.050781 -0.148830 107 125 109
-0.082031 -0.050781 -0.150001 97 113 110
-0.078125 -0.050781 -0.151106 98 111 120
-0.074219 -0.050781 -0.152403 96 107 127
-0.070312 -0.050781 -0.153505 90 100 127
-0.066406 -0.050781 -0.154435 70 81 87
-0.062500 -0.050781 -0.155010 108 119 123
-0.058594 -0.050781 -0.155226 114 124 126
-0.054688 -0.050781 -0.155017 92 101 100
-0.050781 -0.050781 -0.154709 100 106 104
-0.046875 -0.050781 -0.154347 125 130 124
-0.042969 -0.050781 -0.153889 131 134 127
-0.039062 -0.050781 -0.153566 121 122 114
-0.035156 -0.050781 -0.153247 115 116 108
-0.031250 -0.050781 -0.153042 110 111 105
-0.027344 -0.050781 -0.153020 112 113 108
-0.023438 -0.050781 -0.153090 117 117 115
-0.019531 -0.050781 -0.153308 109 110 112
-0.015625 -0.050781 -0.153456 96 100 103
-0.011719 -0.050781 -0.153430 97 100 105
-0.007812 -0.050781 -0.153253 107 110 117
-0.003906 -0.050781 -0.152868 78 81 88
0.000000 -0.050781 -0.152343 105 109 112
0.003906 -0.050781 -0.151317 103 105 100
0.007812 -0.050781 -0.149928 110 114 99
0.011719 -0.050781 -0.148068 124 129 107
0.015625 -0.050781 -0.145700 126 132 106
0.019531 -0.050781 -0.143430 140 145 122
0.023438 -0.050781 -0.140910 148 155 139
0.027344 -0.050781 -0.138429 149 156 149
0.031250 -0.050781 -0.136001 147 154 160
0.035156 -0.050781 -0.133493 126 136 148
0.039062 -0.050781 -0.131016 89 100 118
0.042969 -0.050781 -0.128575 65 81 97
0.046875 -0.050781 -0.126279 75 93 107
0.050781 -0.050781 -0.124026 88 108 119
0.054688 -0.050781 -0.121871 86 106 115
0.058594 -0.050781 -0.119742 92 115 123
0.062500 -0.050781 -0.117671 89 112 120
0.066406 -0.050781 -0.115753 85 109 119
0.070312 -0.050781 -0.113990 85 109 121
0.074219 -0.050781 -0.112351 88 114 127
0.078125 -0.050781 -0.110857 99 127 141
0.082031 -0.050781 -0.109465 115 143 157
0.085938 -0.050781 -0.108220 128 154 169
0.089844 -0.050781 -0.107076 131 153 167
0.093750 -0.050781 -0.106053 160 180 191
0.097656 -0.050781 -0.105168 135 148 157
0.101562 -0.050781 -0.104390 185 193 200
0.105469 -0.050781 -0.103706 177 176 179
0.109375 -0.050781 -0.103129 169 166 171
0.113281 -0.050781 -0.102707 175 171 171
0.117188 -0.050781 -0.102350 188 186 185
0.121094 -0.050781 -0.102001 190 189 190
0.125000 -0.050781 -0.101475 194 193 194
0.128906 -0.050781 -0.100804 196 195 196
0.132812 -0.050781 -0.099978 196 196 196
0.136719 -0.050781 -0.098878 195 195 195
0.140625 -0.050781 -0.097513 194 194 194
0.144531 -0.050781 -0.095892 194 193 193
0.148438 -0.050781 -0.093904 193 193 193
0.152344 -0.050781 -0.091697 191 191 191
0.156250 -0.050781 -0.089247 189 189 189
0.160156 -0.050781 -0.086474 186 186 186
0.164062 -0.050781 -0.083442 183 183 183
0.167969 -0.050781 -0.080231 182 181 182
0.171875 -0.050781 -0.076938 181 181 181
0.175781 -0.050781 -0.073475 181 181 181
0.179688 -0.050781 -0.069839 183 182 182
0.183594 -0.050781 -0.066195 185 184 184
0.187500 -0.050781 -0.062500 189 186 187
0.191406 -0.050781 -0.058158 193 190 191
0.195312 -0.050781 -0.053143 197 194 194
0.199219 -0.050781 -0.047915 199 196 197
0.203125 -0.050781 -0.042284 202 199 200
0.207031 -0.050781 -0.036164 203 201 201
0.210938 -0.050781 -0.029448 200 198 198
0.214844 -0.050781 -0.021772 193 192 192
0.218750 -0.050781 -0.013068 185 182 183
0.222656 -0.050781 -0.004322 182 178 179
0.226562 -0.050781 0.003515 198 193 194
0.230469 -0.050781 0.019454 210 202 206
-0.273438 -0.054688 -0.024199 161 161 161
-0.269531 -0.054688 -0.036046 171 171 171
-0.265625 -0.054688 -0.045480 186 186 186
-0.261719 -0.054688 -0.053513 190 190 190
-0.257812 -0.054688 -0.060812 187 186 187
-0.253906 -0.054688 -0.066716 177 178 177
-0.250000 -0.054688 -0.072293 170 170 171
-0.246094 -0.054688 -0.076925 164 161 165
-0.242188 -0.054688 -0.081454 158 152 160
-0.238281 -0.054688 -0.085411 151 143 154
-0.234375 -0.054688 -0.089170 141 132 146
-0.230469 -0.054688 -0.092774 129 120 136
-0.226562 -0.054688 -0.096161 116 107 125
-0.222656 -0.054688 -0.099596 103 91 113
-0.218750 -0.054688 -0.102934 100 87 116
-0.214844 -0.054688 -0.106194 101 88 122
-0.210938 -0.054688 -0.109433 130 117 151
-0.207031 -0.054688 -0.112601 158 162 187
-0.203125 -0.054688 -0.115582 91 111 138
-0.199219 -0.054688 -0.118408 115 144 177
-0.195312 -0.054688 -0.121028 138 172 210
-0.191406 -0.054688 -0.123566 115 168 188
-0.187500 -0.054688 -0.126057 114 167 191
-0.183594 -0.054688 -0.128607 111 161 193
-0.179688 -0.054688 -0.131247 101 148 189
-0.175781 -0.054688 -0.133780 83 128 180
-0.171875 -0.054688 -0.136068 72 113 174
-0.167969 -0.054688 -0.138055 73 113 182
-0.164062 -0.054688 -0.139756 84 122 195
-0.160156 -0.054688 -0.141219 77 115 190
-0.156250 -0.054688 -0.142436 84 122 197
-0.152344 -0.054688 -0.143455 89 127 200
-0.148438 -0.054688 -0.144290 88 126 197
-0.144531 -0.054688 -0.144913 82 122 192
-0.140625 -0.054688 -0.145409 79 119 188
-0.136719 -0.054688 -0.145649 78 121 189
-0.132812 -0.054688 -0.145777 81 124 192
-0.128906 -0.054688 -0.145856 64 114 151
-0.125000 -0.054688 -0.145840 56 106 141
-0.121094 -0.054688 -0.145746 60 106 142
-0.117188 -0.054688 -0.145559 49 92 126
-0.113281 -0.054688 -0.145443 69 108 137
-0.109375 -0.054688 -0.145360 80 115 137
-0.105469 -0.054688 -0.145315 113 145 158
-0.101562 -0.054688 -0.145188 128 158 160
-0.097656 -0.054688 -0.145075 138 165 158
-0.093750 -0.054688 -0.145278 140 166 153
-0.089844 -0.054688 -0.145703 133 160 145
-0.085938 -0.054688 -0.146855 126 152 139
-0.082031 -0.054688 -0.148168 116 141 135
-0.078125 -0.054688 -0.149507 95 119 119
-0.074219 -0.054688 -0.151113 84 107 113
-0.070312 -0.054688 -0.152484 94 118 128
-0.066406 -0.054688 -0.153660 79 92 100
-0.062500 -0.054688 -0.154357 103 114 120
-0.058594 -0.054688 -0.154606 104 115 119
-0.054688 -0.054688 -0.154429 84 94 95
-0.050781 -0.054688 -0.154104 75 81 79
-0.046875 -0.054688 -0.153726 83 88 84
-0.042969 -0.054688 -0.153272 108 111 104
-0.039062 -0.054688 -0.152955 135 136 130
-0.035156 -0.054688 -0.152641 116 117 109
-0.031250 -0.054688 -0.152440 114 115 109
-0.027344 -0.054688 -0.152441 109 110 105
-0.023438 -0.054688 -0.152564 101 101 99
-0.019531 -0.054688 -0.152790 93 94 96
-0.015625 -0.054688 -0.152958 95 96 100
-0.011719 -0.054688 -0.152934 101 104 109
-0.007812 -0.054688 -0.152760 109 112 119
-0.003906 -0.054688 -0.152417 89 92 97
0.000000 -0.054688 -0.151919 117 121 122
0.003906 -0.054688 -0.150990 130 133 124
0.007812 -0.054688 -0.149707 148 152 135
0.011719 -0.054688 -0.148002 158 163 140
0.015625 -0.054688 -0.145760 152 158 132
0.019531 -0.054688 -0.143541 165 170 148
0.023438 -0.054688 -0.141072 170 176 164
0.027344 -0.054688 -0.138586 160 166 166
0.031250 -0.054688 -0.136195 118 125 135
0.035156 -0.054688 -0.133667 86 95 112
0.039062 -0.054688 -0.131125 78 89 109
0.042969 -0.054688 -0.128627 75 91 107
0.046875 -0.054688 -0.126217 84 102 114
0.050781 -0.054688 -0.123848 91 111 118
0.054688 -0.054688 -0.121581 88 109 112
0.058594 -0.054688 -0.119336 85 106 111
0.062500 -0.054688 -0.117159 77 98 103
0.066406 -0.054688 -0.115142 66 89 95
0.070312 -0.054688 -0.113266 61 86 93
0.074219 -0.054688 -0.111516 63 90 99
0.078125 -0.054688 -0.109929 77 104 115
0.082031 -0.054688 -0.108446 101 127 140
0.085938 -0.054688 -0.107118 120 146 159
0.089844 -0.054688 -0.105905 135 159 171
0.093750 -0.054688 -0.104830 156 175 184
0.097656 -0.054688 -0.103914 132 144 153
0.101562 -0.054688 -0.103138 189 196 199
0.105469 -0.054688 -0.102462 161 161 166
0.109375 -0.054688 -0.101897 173 171 173
0.113281 -0.054688 -0.101477 184 182 182
0.117188 -0.054688 -0.101111 191 189 187
0.121094 -0.054688 -0.100755 191 190 191
0.125000 -0.054688 -0.100217 194 193 193
0.128906 -0.054688 -0.099562 196 195 195
0.132812 -0.054688 -0.098739 196 195 195
0.136719 -0.054688 -0.097651 195 195 195
0.140625 -0.054688 -0.096298 194 194 194
0.144531 -0.054688 -0.094675 194 194 194
0.148438 -0.054688 -0.092694 193 193 193
0.152344 -0.054688 -0.090490 192 192 192
0.156250 -0.054688 -0.088045 189 189 189
0.160156 -0.054688 -0.085290 187 187 187
0.164062 -0.054688 -0.082285 184 184 184
0.167969 -0.054688 -0.079100 183 183 183
0.171875 -0.054688 -0.075851 182 182 182
0.175781 -0.054688 -0.072423 183 182 182
0.179688 -0.054688 -0.068810 184 183 184
0.183594 -0.054688 -0.065179 187 185 186
0.187500 -0.054688 -0.061481 190 188 188
0.191406 -0.054688 -0.057115 194 191 192
0.195312 -0.054688 -0.052077 197 194 195
0.199219 -0.054688 -0.046813 199 196 196
0.203125 -0.054688 -0.041158 201 199 199
0.207031 -0.054688 -0.035063 202 200 200
0.210938 -0.054688 -0.028447 200 198 198
0.214844 -0.054688 -0.020893 194 193 193
0.218750 -0.054688 -0.012383 186 184 184
0.222656 -0.054688 -0.004150 182 178 179
0.226562 -0.054688 0.003649 198 192 194
0.230469 -0.054688 0.015275 220 213 216
0.234375 -0.054688 0.007872 186 179 184
-0.273438 -0.058594 -0.024909 166 166 166
-0.269531 -0.058594 -0.036537 174 174 174
-0.265625 -0.058594 -0.045926 186 186 186
-0.261719 -0.058594 -0.053893 190 190 190
-0.257812 -0.058594 -0.061064 187 187 187
-0.253906 -0.058594 -0.066841 178 181 179
-0.250000 -0.058594 -0.072313 174 174 174
-0.246094 -0.058594 -0.076848 170 166 169
-0.242188 -0.058594 -0.081292 165 158 164
-0.238281 -0.058594 -0.085185 159 149 159
-0.234375 -0.058594 -0.088878 150 140 152
-0.230469 -0.058594 -0.092412 139 129 143
-0.226562 -0.058594 -0.095708 128 117 131
-0.222656 -0.058594 -0.099073 118 107 122
-0.218750 -0.058594 -0.102362 105 92 113
-0.214844 -0.058594 -0.105547 96 81 111
-0.210938 -0.058594 -0.108671 107 88 125
-0.207031 -0.058594 -0.111765 128 118 153
-0.203125 -0.058594 -0.114753 140 144 178
-0.199219 -0.058594 -0.117576 75 95 130
-0.195312 -0.058594 -0.120168 111 139 178
-0.191406 -0.058594 -0.122688 127 180 212
-0.187500 -0.058594 -0.125164 109 165 192
-0.183594 -0.058594 -0.127697 106 161 183
-0.179688 -0.058594 -0.130306 112 164 186
-0.175781 -0.058594 -0.132782 96 144 167
-0.171875 -0.058594 -0.135014 67 111 144
-0.167969 -0.058594 -0.136955 66 106 150
-0.164062 -0.058594 -0.138637 86 124 186
-0.160156 -0.058594 -0.140083 83 116 193
-0.156250 -0.058594 -0.141276 74 108 197
-0.152344 -0.058594 -0.142272 74 107 200
-0.148438 -0.058594 -0.143070 80 115 207
-0.144531 -0.058594 -0.143660 79 120 202
-0.140625 -0.058594 -0.144114 74 119 187
-0.136719 -0.058594 -0.144312 73 122 180
-0.132812 -0.058594 -0.144415 81 131 182
-0.128906 -0.058594 -0.144452 77 137 171
-0.125000 -0.058594 -0.144409 75 133 170
-0.121094 -0.058594 -0.144282 84 137 177
-0.117188 -0.058594 -0.144053 66 115 158
-0.113281 -0.058594 -0.143907 68 111 156
-0.109375 -0.058594 -0.143759 55 92 136
-0.105469 -0.058594 -0.143612 68 100 138
-0.101562 -0.058594 -0.143306 72 102 130
-0.097656 -0.058594 -0.142990 125 152 169
-0.093750 -0.058594 -0.143014 133 161 165
-0.089844 -0.058594 -0.143336 130 159 155
-0.085938 -0.058594 -0.144542 134 165 157
-0.082031 -0.058594 -0.146049 143 175 164
-0.078125 -0.058594 -0.147680 124 157 146
-0.074219 -0.058594 -0.149648 100 136 126
-0.070312 -0.058594 -0.151322 103 139 129
-0.066406 -0.058594 -0.152730 110 123 131
-0.062500 -0.058594 -0.153571 96 109 117
-0.058594 -0.058594 -0.153865 91 102 106
-0.054688 -0.058594 -0.153736 102 112 114
-0.050781 -0.058594 -0.153396 98 107 106
-0.046875 -0.058594 -0.152993 79 84 80
-0.042969 -0.058594 -0.152539 96 98 93
-0.039062 -0.058594 -0.152218 144 145 139
-0.035156 -0.058594 -0.151934 125 126 120
-0.031250 -0.058594 -0.151766 122 123 117
-0.027344 -0.058594 -0.151807 117 118 113
-0.023438 -0.058594 -0.151990 111 111 109
-0.019531 -0.058594 -0.152218 102 103 105
-0.015625 -0.058594 -0.152362 99 100 104
-0.011719 -0.058594 -0.152294 102 103 108
-0.007812 -0.058594 -0.152024 106 109 116
-0.003906 -0.058594 -0.151615 111 115 118
0.000000 -0.058594 -0.151063 132 137 133
0.003906 -0.058594 -0.150165 138 140 130
0.007812 -0.058594 -0.148972 150 155 135
0.011719 -0.058594 -0.147459 153 159 134
0.015625 -0.058594 -0.145484 144 150 125
0.019531 -0.058594 -0.143467 145 150 130
0.023438 -0.058594 -0.141210 130 136 126
0.027344 -0.058594 -0.138855 110 115 118
0.031250 -0.058594 -0.136499 81 87 101
0.035156 -0.058594 -0.133966 78 86 105
0.039062 -0.058594 -0.131345 95 106 126
0.042969 -0.058594 -0.128711 102 118 134
0.046875 -0.058594 -0.126135 113 131 141
0.050781 -0.058594 -0.123584 116 137 140
0.054688 -0.058594 -0.121149 103 125 123
0.058594 -0.058594 -0.118767 90 111 112
0.062500 -0.058594 -0.116459 88 109 112
0.066406 -0.058594 -0.114338 87 111 115
0.070312 -0.058594 -0.112343 93 118 123
0.074219 -0.058594 -0.110484 102 127 134
0.078125 -0.058594 -0.108828 114 141 150
0.082031 -0.058594 -0.107265 135 162 173
0.085938 -0.058594 -0.105869 155 182 193
0.089844 -0.058594 -0.104619 166 190 200
0.093750 -0.058594 -0.103520 146 165 174
0.097656 -0.058594 -0.102579 159 173 180
0.101562 -0.058594 -0.101798 169 174 178
0.105469 -0.058594 -0.101122 156 157 161
0.109375 -0.058594 -0.100561 178 177 179
0.113281 -0.058594 -0.100141 192 189 189
0.117188 -0.058594 -0.099761 190 188 185
0.121094 -0.058594 -0.099393 191 190 191
0.125000 -0.058594 -0.098842 193 192 192
0.128906 -0.058594 -0.098196 194 194 194
0.132812 -0.058594 -0.097370 195 194 195
0.136719 -0.058594 -0.096295 195 194 194
0.140625 -0.058594 -0.094950 194 194 194
0.144531 -0.058594 -0.093318 194 194 194
0.148438 -0.058594 -0.091334 194 193 193
0.152344 -0.058594 -0.089137 192 192 192
0.156250 -0.058594 -0.086707 190 190 190
0.160156 -0.058594 -0.083978 187 187 187
0.164062 -0.058594 -0.081015 185 185 185
0.167969 -0.058594 -0.077871 184 184 184
0.171875 -0.058594 -0.074677 183 183 183
0.175781 -0.058594 -0.071304 184 184 184
0.179688 -0.058594 -0.067734 185 185 185
0.183594 -0.058594 -0.064128 188 186 187
0.187500 -0.058594 -0.060446 190 189 189
0.191406 -0.058594 -0.056084 194 192 192
0.195312 -0.058594 -0.051056 197 194 195
0.199219 -0.058594 -0.045790 198 196 196
0.203125 -0.058594 -0.040128 200 198 198
0.207031 -0.058594 -0.034051 202 200 200
0.210938 -0.058594 -0.027481 200 199 199
0.214844 -0.058594 -0.020009 196 194 194
0.218750 -0.058594 -0.011693 186 184 184
