ply
    format ascii 1.0
    element vertex 94510
    property float x
    property float y
    property float z
    property uchar red
    property uchar green
    property uchar blue
    end_header
0.082031 0.562500 -0.138898 118 123 103
0.085938 0.562500 -0.138416 138 143 121
0.089844 0.562500 -0.137792 153 157 134
0.093750 0.562500 -0.136743 132 136 113
0.097656 0.562500 -0.135746 123 128 106
0.101562 0.562500 -0.134460 127 132 112
0.105469 0.562500 -0.132785 126 133 115
0.109375 0.562500 -0.130815 125 132 116
0.113281 0.562500 -0.128357 110 118 103
0.117188 0.562500 -0.125849 88 96 83
0.121094 0.562500 -0.123382 120 129 126
0.125000 0.562500 -0.120364 142 151 148
0.128906 0.562500 -0.117263 145 154 151
0.132812 0.562500 -0.114058 136 147 141
0.136719 0.562500 -0.110907 141 154 147
0.140625 0.562500 -0.108035 144 157 150
0.144531 0.562500 -0.105070 130 145 138
0.148438 0.562500 -0.102235 118 135 127
0.152344 0.562500 -0.099543 130 151 146
0.156250 0.562500 -0.097021 126 148 145
0.160156 0.562500 -0.094920 131 155 155
0.164062 0.562500 -0.093240 137 161 165
0.167969 0.562500 -0.091730 130 155 162
0.171875 0.562500 -0.090326 126 153 164
0.175781 0.562500 -0.089335 123 149 164
0.179688 0.562500 -0.088540 112 138 153
0.183594 0.562500 -0.087879 109 135 162
0.187500 0.562500 -0.087243 106 132 159
0.191406 0.562500 -0.086477 113 137 161
0.195312 0.562500 -0.085558 127 152 174
0.199219 0.562500 -0.084517 132 156 176
0.203125 0.562500 -0.083329 126 147 170
0.207031 0.562500 -0.081888 119 138 163
0.210938 0.562500 -0.080153 117 136 169
0.214844 0.562500 -0.078275 116 135 171
0.218750 0.562500 -0.076235 125 146 185
0.222656 0.562500 -0.073835 119 143 181
0.226562 0.562500 -0.070979 118 148 179
0.230469 0.562500 -0.068041 136 169 194
0.234375 0.562500 -0.064958 134 170 186
0.238281 0.562500 -0.061548 121 157 167
0.242188 0.562500 -0.057284 115 146 156
0.246094 0.562500 -0.053562 180 180 193
0.250000 0.562500 -0.049069 154 155 171
0.253906 0.562500 -0.043544 171 169 190
0.257812 0.562500 -0.036341 190 183 207
-0.285156 0.558594 -0.062562 96 90 90
-0.281250 0.558594 -0.069380 78 61 66
-0.277344 0.558594 -0.075755 87 77 79
-0.273438 0.558594 -0.081275 96 90 90
-0.269531 0.558594 -0.086387 89 85 85
-0.265625 0.558594 -0.090956 74 72 71
-0.261719 0.558594 -0.094611 62 62 58
-0.257812 0.558594 -0.097932 59 61 54
-0.253906 0.558594 -0.101035 56 60 53
-0.250000 0.558594 -0.103973 49 52 49
-0.246094 0.558594 -0.106969 47 47 48
-0.242188 0.558594 -0.109654 48 47 50
-0.238281 0.558594 -0.112147 85 82 86
-0.234375 0.558594 -0.114457 103 102 106
-0.230469 0.558594 -0.115836 48 51 58
-0.226562 0.558594 -0.115489 49 53 56
-0.222656 0.558594 -0.113442 74 79 81
-0.218750 0.558594 -0.111000 45 48 54
-0.214844 0.558594 -0.109044 27 26 31
-0.210938 0.558594 -0.109193 36 32 34
-0.207031 0.558594 -0.111265 45 39 39
-0.203125 0.558594 -0.115815 39 34 33
-0.199219 0.558594 -0.123074 32 27 28
-0.195312 0.558594 -0.131446 27 22 23
-0.191406 0.558594 -0.138457 23 20 21
-0.187500 0.558594 -0.143561 19 17 19
-0.183594 0.558594 -0.147749 20 18 22
-0.179688 0.558594 -0.151131 22 22 27
-0.175781 0.558594 -0.154275 19 21 27
-0.171875 0.558594 -0.157197 17 21 27
-0.167969 0.558594 -0.159608 24 31 40
-0.164062 0.558594 -0.161827 42 55 68
-0.160156 0.558594 -0.164092 63 79 89
-0.156250 0.558594 -0.166217 81 99 105
-0.152344 0.558594 -0.168241 81 102 104
-0.148438 0.558594 -0.170143 70 87 90
-0.144531 0.558594 -0.171569 44 53 57
-0.140625 0.558594 -0.172665 30 32 36
-0.136719 0.558594 -0.173242 39 38 40
-0.132812 0.558594 -0.173564 41 42 42
-0.128906 0.558594 -0.173689 38 42 44
-0.125000 0.558594 -0.173616 45 51 54
-0.121094 0.558594 -0.173594 57 64 62
-0.117188 0.558594 -0.173241 64 72 66
-0.113281 0.558594 -0.172656 64 70 66
-0.109375 0.558594 -0.171851 75 78 74
-0.105469 0.558594 -0.170769 94 92 91
-0.101562 0.558594 -0.169492 101 94 99
-0.097656 0.558594 -0.168072 91 82 93
-0.093750 0.558594 -0.166515 95 87 102
-0.089844 0.558594 -0.164746 99 96 114
-0.085938 0.558594 -0.162893 97 103 125
-0.082031 0.558594 -0.161079 98 109 135
-0.078125 0.558594 -0.159362 101 114 145
-0.074219 0.558594 -0.157703 100 115 149
-0.070312 0.558594 -0.156102 96 110 148
-0.066406 0.558594 -0.154485 92 111 161
-0.062500 0.558594 -0.153014 82 101 154
-0.058594 0.558594 -0.151599 76 95 152
-0.054688 0.558594 -0.150291 79 98 157
-0.050781 0.558594 -0.149167 75 93 157
-0.046875 0.558594 -0.147979 64 80 149
-0.042969 0.558594 -0.146750 57 73 143
-0.039062 0.558594 -0.145446 58 74 146
-0.035156 0.558594 -0.144092 55 71 141
-0.031250 0.558594 -0.142580 46 62 131
-0.027344 0.558594 -0.141421 41 58 120
-0.023438 0.558594 -0.140587 42 60 118
-0.019531 0.558594 -0.139783 44 63 114
-0.015625 0.558594 -0.139155 43 63 110
-0.011719 0.558594 -0.138751 43 63 106
-0.007812 0.558594 -0.138910 44 65 106
-0.003906 0.558594 -0.139260 53 79 122
0.000000 0.558594 -0.139263 44 70 113
0.003906 0.558594 -0.139188 47 71 112
0.007812 0.558594 -0.138928 63 83 126
0.011719 0.558594 -0.138867 76 92 135
0.015625 0.558594 -0.139032 79 92 134
0.019531 0.558594 -0.139140 82 91 132
0.023438 0.558594 -0.139443 88 96 133
0.027344 0.558594 -0.139852 97 101 136
0.031250 0.558594 -0.139891 94 97 130
0.035156 0.558594 -0.139694 96 100 129
0.039062 0.558594 -0.139477 106 108 133
0.042969 0.558594 -0.139380 108 110 131
0.046875 0.558594 -0.139103 102 105 124
0.050781 0.558594 -0.139040 98 101 118
0.054688 0.558594 -0.138993 99 102 117
0.058594 0.558594 -0.138920 102 109 117
0.062500 0.558594 -0.138852 90 97 103
0.066406 0.558594 -0.138886 91 96 99
0.070312 0.558594 -0.139143 104 109 105
0.074219 0.558594 -0.139411 110 113 104
0.078125 0.558594 -0.139842 106 108 94
0.082031 0.558594 -0.139622 113 115 94
0.085938 0.558594 -0.139053 129 128 107
0.089844 0.558594 -0.138344 132 134 110
0.093750 0.558594 -0.137249 142 144 120
0.097656 0.558594 -0.136153 147 151 128
0.101562 0.558594 -0.134715 139 147 124
0.105469 0.558594 -0.132960 124 133 114
0.109375 0.558594 -0.130989 110 121 105
0.113281 0.558594 -0.128635 108 120 106
0.117188 0.558594 -0.125934 110 124 111
0.121094 0.558594 -0.122884 119 128 111
0.125000 0.558594 -0.119781 126 137 121
0.128906 0.558594 -0.116639 130 143 126
0.132812 0.558594 -0.113419 119 136 118
0.136719 0.558594 -0.110321 103 124 107
0.140625 0.558594 -0.107499 96 123 108
0.144531 0.558594 -0.104545 101 131 121
0.148438 0.558594 -0.101693 108 140 135
0.152344 0.558594 -0.099026 101 134 139
0.156250 0.558594 -0.096571 131 164 179
0.160156 0.558594 -0.094469 137 171 196
0.164062 0.558594 -0.092747 127 159 197
0.167969 0.558594 -0.091234 119 150 197
0.171875 0.558594 -0.089824 101 127 184
0.175781 0.558594 -0.088845 85 110 176
0.179688 0.558594 -0.088108 93 118 185
0.183594 0.558594 -0.087487 89 126 152
0.187500 0.558594 -0.086908 92 131 160
0.191406 0.558594 -0.086211 76 116 152
0.195312 0.558594 -0.085359 88 128 174
0.199219 0.558594 -0.084419 93 133 186
0.203125 0.558594 -0.083335 89 128 189
0.207031 0.558594 -0.082001 107 143 211
0.210938 0.558594 -0.080396 104 137 205
0.214844 0.558594 -0.078672 123 154 221
0.218750 0.558594 -0.076778 103 133 191
0.222656 0.558594 -0.074500 87 116 163
0.226562 0.558594 -0.071847 129 153 189
0.230469 0.558594 -0.069073 144 165 188
0.234375 0.558594 -0.066167 113 129 141
0.238281 0.558594 -0.063006 142 154 160
0.242188 0.558594 -0.059102 170 175 186
0.246094 0.558594 -0.055611 145 139 158
0.250000 0.558594 -0.051567 151 146 164
0.253906 0.558594 -0.047384 165 159 178
0.257812 0.558594 -0.041167 182 173 194
0.261719 0.558594 -0.031897 183 179 196
-0.285156 0.554688 -0.062438 100 74 81
-0.281250 0.554688 -0.069990 81 64 68
-0.277344 0.554688 -0.076250 90 81 82
-0.273438 0.554688 -0.081667 101 96 96
-0.269531 0.554688 -0.086786 97 93 93
-0.265625 0.554688 -0.091216 82 80 79
-0.261719 0.554688 -0.094776 67 67 64
-0.257812 0.554688 -0.098042 58 60 56
-0.253906 0.554688 -0.101058 52 54 49
-0.250000 0.554688 -0.103918 48 50 47
-0.246094 0.554688 -0.106655 51 50 50
-0.242188 0.554688 -0.109036 52 51 52
-0.238281 0.554688 -0.111388 70 68 67
-0.234375 0.554688 -0.113422 61 57 61
-0.230469 0.554688 -0.114190 44 41 49
-0.226562 0.554688 -0.113379 81 85 85
-0.222656 0.554688 -0.111167 107 116 118
-0.218750 0.554688 -0.108250 61 65 74
-0.214844 0.554688 -0.106152 25 25 29
-0.210938 0.554688 -0.106378 23 21 22
-0.207031 0.554688 -0.108235 34 29 28
-0.203125 0.554688 -0.112366 41 35 33
-0.199219 0.554688 -0.119624 32 26 27
-0.195312 0.554688 -0.128568 21 17 19
-0.191406 0.554688 -0.136140 23 21 23
-0.187500 0.554688 -0.141686 25 24 26
-0.183594 0.554688 -0.146276 25 23 26
-0.179688 0.554688 -0.149953 34 33 38
-0.175781 0.554688 -0.153299 40 43 51
-0.171875 0.554688 -0.156392 43 52 60
-0.167969 0.554688 -0.159012 66 85 93
-0.164062 0.554688 -0.161364 82 103 114
-0.160156 0.554688 -0.163602 66 80 92
-0.156250 0.554688 -0.165682 73 88 97
-0.152344 0.554688 -0.167679 89 105 110
-0.148438 0.554688 -0.169525 86 95 100
-0.144531 0.554688 -0.170904 65 67 72
-0.140625 0.554688 -0.172015 60 62 62
-0.136719 0.554688 -0.172701 70 71 67
-0.132812 0.554688 -0.173098 76 76 69
-0.128906 0.554688 -0.173208 82 81 66
-0.125000 0.554688 -0.173157 90 91 75
-0.121094 0.554688 -0.173092 99 99 84
-0.117188 0.554688 -0.172623 102 103 90
-0.113281 0.554688 -0.172070 99 98 88
-0.109375 0.554688 -0.171265 96 94 87
-0.105469 0.554688 -0.170133 98 93 91
-0.101562 0.554688 -0.168912 99 93 95
-0.097656 0.554688 -0.167469 96 91 97
-0.093750 0.554688 -0.165861 100 97 109
-0.089844 0.554688 -0.164112 102 106 121
-0.085938 0.554688 -0.162316 100 109 127
-0.082031 0.554688 -0.160561 99 111 135
-0.078125 0.554688 -0.158894 99 112 141
-0.074219 0.554688 -0.157345 95 109 142
-0.070312 0.554688 -0.155830 89 102 137
-0.066406 0.554688 -0.154277 92 110 159
-0.062500 0.554688 -0.152916 85 103 153
-0.058594 0.554688 -0.151520 79 96 148
-0.054688 0.554688 -0.150223 79 96 152
-0.050781 0.554688 -0.149070 77 93 153
-0.046875 0.554688 -0.147899 71 87 149
-0.042969 0.554688 -0.146729 68 82 147
-0.039062 0.554688 -0.145459 67 81 146
-0.035156 0.554688 -0.144195 70 84 149
-0.031250 0.554688 -0.142977 64 79 141
-0.027344 0.554688 -0.141988 59 74 133
-0.023438 0.554688 -0.141104 57 73 127
-0.019531 0.554688 -0.140430 53 70 120
-0.015625 0.554688 -0.139937 48 65 111
-0.011719 0.554688 -0.139502 46 64 107
-0.007812 0.554688 -0.139215 49 67 109
-0.003906 0.554688 -0.139133 55 82 122
0.000000 0.554688 -0.139219 52 76 116
0.003906 0.554688 -0.139426 54 76 117
0.007812 0.554688 -0.139479 67 85 125
0.011719 0.554688 -0.139351 78 96 136
0.015625 0.554688 -0.139333 88 102 141
0.019531 0.554688 -0.139211 94 104 140
0.023438 0.554688 -0.139132 100 106 142
0.027344 0.554688 -0.139232 117 122 154
0.031250 0.554688 -0.139324 116 119 150
0.035156 0.554688 -0.139381 119 120 148
0.039062 0.554688 -0.139164 119 121 144
0.042969 0.554688 -0.138941 111 114 133
0.046875 0.554688 -0.138689 96 99 116
0.050781 0.554688 -0.138808 85 88 103
0.054688 0.554688 -0.138885 82 85 100
0.058594 0.554688 -0.138900 77 84 94
0.062500 0.554688 -0.138796 71 78 86
0.066406 0.554688 -0.138859 73 78 82
0.070312 0.554688 -0.139455 79 83 82
0.074219 0.554688 -0.139829 81 84 77
0.078125 0.554688 -0.140035 82 84 73
0.082031 0.554688 -0.139573 92 93 79
0.085938 0.554688 -0.138881 106 107 89
0.089844 0.554688 -0.138163 82 85 64
0.093750 0.554688 -0.137102 100 103 84
0.097656 0.554688 -0.136028 120 124 107
0.101562 0.554688 -0.134616 128 136 121
0.105469 0.554688 -0.132850 122 132 121
0.109375 0.554688 -0.130730 110 121 113
0.113281 0.554688 -0.128041 100 113 106
0.117188 0.554688 -0.125161 94 109 104
0.121094 0.554688 -0.122201 98 109 101
0.125000 0.554688 -0.119164 114 127 118
0.128906 0.554688 -0.116069 129 144 137
0.132812 0.554688 -0.112851 128 148 139
0.136719 0.554688 -0.109690 117 140 132
0.140625 0.554688 -0.106768 109 136 129
0.144531 0.554688 -0.103799 110 142 139
0.148438 0.554688 -0.101055 115 149 151
0.152344 0.554688 -0.098421 130 164 174
0.156250 0.554688 -0.095951 135 170 190
0.160156 0.554688 -0.093831 125 160 190
0.164062 0.554688 -0.092074 108 141 182
0.167969 0.554688 -0.090550 98 128 180
0.171875 0.554688 -0.089138 86 115 175
0.175781 0.554688 -0.088173 79 104 171
0.179688 0.554688 -0.087483 79 103 175
0.183594 0.554688 -0.086905 88 123 161
0.187500 0.554688 -0.086372 97 132 172
0.191406 0.554688 -0.085736 84 121 165
0.195312 0.554688 -0.084955 92 128 181
0.199219 0.554688 -0.084116 91 128 189
0.203125 0.554688 -0.083139 86 123 189
0.207031 0.554688 -0.081926 101 136 204
0.210938 0.554688 -0.080458 94 128 196
0.214844 0.554688 -0.078870 89 119 184
0.218750 0.554688 -0.077129 92 119 176
0.222656 0.554688 -0.074985 107 132 179
0.226562 0.554688 -0.072481 117 139 174
0.230469 0.554688 -0.069834 106 125 147
0.234375 0.554688 -0.067084 139 153 165
0.238281 0.554688 -0.064097 179 187 197
0.242188 0.554688 -0.060529 142 146 159
0.246094 0.554688 -0.057459 131 127 143
0.250000 0.554688 -0.053963 146 141 157
0.253906 0.554688 -0.050388 164 158 175
0.257812 0.554688 -0.044653 182 175 193
0.261719 0.554688 -0.037195 196 191 208
-0.285156 0.550781 -0.062886 86 65 70
-0.281250 0.550781 -0.070635 83 65 68
-0.277344 0.550781 -0.077087 91 81 82
-0.273438 0.550781 -0.082460 103 99 98
-0.269531 0.550781 -0.087500 100 99 97
-0.265625 0.550781 -0.091706 90 89 87
-0.261719 0.550781 -0.095131 76 76 74
-0.257812 0.550781 -0.098312 65 66 63
-0.253906 0.550781 -0.101334 54 55 53
-0.250000 0.550781 -0.104095 45 46 45
-0.246094 0.550781 -0.106535 45 46 46
-0.242188 0.550781 -0.108659 51 53 52
-0.238281 0.550781 -0.110775 65 70 65
-0.234375 0.550781 -0.112656 65 68 68
-0.230469 0.550781 -0.113063 58 58 62
-0.226562 0.550781 -0.111609 69 73 78
-0.222656 0.550781 -0.109750 101 106 119
-0.218750 0.550781 -0.107167 126 130 138
-0.214844 0.550781 -0.105271 88 92 93
-0.210938 0.550781 -0.105603 48 47 48
-0.207031 0.550781 -0.107110 34 31 33
-0.203125 0.550781 -0.110265 31 27 30
-0.199219 0.550781 -0.116815 26 22 26
-0.195312 0.550781 -0.125760 24 23 27
-0.191406 0.550781 -0.133779 51 52 52
-0.187500 0.550781 -0.139784 59 58 59
-0.183594 0.550781 -0.144816 31 31 35
-0.179688 0.550781 -0.148896 35 36 40
-0.175781 0.550781 -0.152548 56 60 64
-0.171875 0.550781 -0.155903 65 76 79
-0.167969 0.550781 -0.158783 82 98 100
-0.164062 0.550781 -0.161307 67 80 88
-0.160156 0.550781 -0.163513 35 41 52
-0.156250 0.550781 -0.165547 36 42 51
-0.152344 0.550781 -0.167435 49 55 61
-0.148438 0.550781 -0.169014 60 62 63
-0.144531 0.550781 -0.170291 73 74 71
-0.140625 0.550781 -0.171392 84 85 74
-0.136719 0.550781 -0.172043 92 92 78
-0.132812 0.550781 -0.172372 98 96 79
-0.128906 0.550781 -0.172481 92 92 75
-0.125000 0.550781 -0.172413 100 99 82
-0.121094 0.550781 -0.172295 108 107 90
-0.117188 0.550781 -0.171895 110 109 94
-0.113281 0.550781 -0.171325 107 104 92
-0.109375 0.550781 -0.170413 102 100 89
-0.105469 0.550781 -0.169240 99 98 91
-0.101562 0.550781 -0.168032 99 99 95
-0.097656 0.550781 -0.166618 92 94 95
-0.093750 0.550781 -0.165081 96 100 106
-0.089844 0.550781 -0.163443 97 105 115
-0.085938 0.550781 -0.161755 92 103 119
-0.082031 0.550781 -0.160131 90 101 120
-0.078125 0.550781 -0.158566 87 98 122
-0.074219 0.550781 -0.157117 81 92 120
-0.070312 0.550781 -0.155684 74 85 115
-0.066406 0.550781 -0.154272 67 80 124
-0.062500 0.550781 -0.152997 68 81 126
-0.058594 0.550781 -0.151544 67 80 125
-0.054688 0.550781 -0.150217 66 78 126
-0.050781 0.550781 -0.148955 70 82 132
-0.046875 0.550781 -0.147711 75 88 140
-0.042969 0.550781 -0.146599 77 90 143
-0.039062 0.550781 -0.145421 75 88 141
-0.035156 0.550781 -0.144334 69 81 134
-0.031250 0.550781 -0.143406 64 79 131
-0.027344 0.550781 -0.142623 65 80 131
-0.023438 0.550781 -0.141815 67 82 133
-0.019531 0.550781 -0.141026 65 80 129
-0.015625 0.550781 -0.140220 60 77 123
-0.011719 0.550781 -0.139802 61 79 122
-0.007812 0.550781 -0.139748 65 83 126
-0.003906 0.550781 -0.139516 65 90 127
0.000000 0.550781 -0.139160 71 95 131
0.003906 0.550781 -0.138998 78 100 137
0.007812 0.550781 -0.138982 86 104 140
0.011719 0.550781 -0.138950 96 112 148
0.015625 0.550781 -0.139168 109 122 156
0.019531 0.550781 -0.139115 119 128 161
0.023438 0.550781 -0.138870 122 128 160
0.027344 0.550781 -0.138802 134 138 167
0.031250 0.550781 -0.138638 134 135 163
0.035156 0.550781 -0.138788 132 134 157
0.039062 0.550781 -0.138846 127 130 149
0.042969 0.550781 -0.138903 114 117 134
0.046875 0.550781 -0.138895 96 99 114
0.050781 0.550781 -0.138882 82 86 98
0.054688 0.550781 -0.138906 77 81 93
0.058594 0.550781 -0.138945 67 73 85
0.062500 0.550781 -0.138982 72 79 89
0.066406 0.550781 -0.139247 77 82 88
0.070312 0.550781 -0.139505 74 78 81
0.074219 0.550781 -0.139267 68 70 69
0.078125 0.550781 -0.139150 65 67 62
0.082031 0.550781 -0.138664 71 74 65
0.085938 0.550781 -0.138048 79 82 71
0.089844 0.550781 -0.137374 67 70 59
0.093750 0.550781 -0.136316 75 81 71
0.097656 0.550781 -0.135158 86 96 88
0.101562 0.550781 -0.133624 94 105 101
0.105469 0.550781 -0.131730 94 108 108
0.109375 0.550781 -0.129607 94 109 112
0.113281 0.550781 -0.127100 92 109 116
0.117188 0.550781 -0.124378 93 110 118
0.121094 0.550781 -0.121457 100 119 126
0.125000 0.550781 -0.118334 117 136 143
0.128906 0.550781 -0.115149 134 154 161
0.132812 0.550781 -0.111937 136 161 166
0.136719 0.550781 -0.108887 125 154 160
0.140625 0.550781 -0.106124 117 147 155
0.144531 0.550781 -0.103261 116 150 159
0.148438 0.550781 -0.100491 120 156 170
0.152344 0.550781 -0.097770 127 163 185
0.156250 0.550781 -0.095245 113 150 179
0.160156 0.550781 -0.093097 101 136 174
0.164062 0.550781 -0.091285 90 122 171
0.167969 0.550781 -0.089727 80 111 168
0.171875 0.550781 -0.088307 83 110 177
0.175781 0.550781 -0.087330 81 107 181
0.179688 0.550781 -0.086676 69 95 170
0.183594 0.550781 -0.086146 79 110 165
0.187500 0.550781 -0.085664 88 120 179
0.191406 0.550781 -0.085099 76 110 170
0.195312 0.550781 -0.084400 73 107 173
0.199219 0.550781 -0.083661 73 105 176
0.203125 0.550781 -0.082788 73 108 178
0.207031 0.550781 -0.081704 85 119 189
0.210938 0.550781 -0.080379 82 113 180
0.214844 0.550781 -0.078927 72 102 163
0.218750 0.550781 -0.077346 99 125 178
0.222656 0.550781 -0.075349 94 118 159
0.226562 0.550781 -0.072966 106 123 154
0.230469 0.550781 -0.070425 146 159 180
0.234375 0.550781 -0.067817 179 189 203
0.238281 0.550781 -0.064989 165 169 182
0.242188 0.550781 -0.061737 138 141 152
0.246094 0.550781 -0.059058 138 136 147
0.250000 0.550781 -0.055996 151 147 158
0.253906 0.550781 -0.052769 164 159 172
0.257812 0.550781 -0.047899 180 174 188
0.261719 0.550781 -0.042260 201 196 211
0.265625 0.550781 -0.033621 216 211 228
-0.285156 0.546875 -0.063255 67 54 58
-0.281250 0.546875 -0.071504 78 62 64
-0.277344 0.546875 -0.077960 87 78 79
-0.273438 0.546875 -0.083285 103 99 99
-0.269531 0.546875 -0.088272 104 102 100
-0.265625 0.546875 -0.092312 97 96 94
-0.261719 0.546875 -0.095684 85 85 82
-0.257812 0.546875 -0.098768 72 74 70
-0.253906 0.546875 -0.101681 59 61 59
-0.250000 0.546875 -0.104322 46 48 47
-0.246094 0.546875 -0.106563 40 43 43
-0.242188 0.546875 -0.108443 43 48 46
-0.238281 0.546875 -0.110239 66 74 68
-0.234375 0.546875 -0.111918 98 112 103
-0.230469 0.546875 -0.112291 85 102 90
-0.226562 0.546875 -0.111058 48 60 55
-0.222656 0.546875 -0.109192 63 74 78
-0.218750 0.546875 -0.107058 128 141 140
-0.214844 0.546875 -0.105463 126 139 139
-0.210938 0.546875 -0.105544 79 85 94
-0.207031 0.546875 -0.106558 42 44 53
-0.203125 0.546875 -0.109193 31 31 39
-0.199219 0.546875 -0.115169 28 28 34
-0.195312 0.546875 -0.123861 30 34 40
-0.191406 0.546875 -0.131954 57 65 65
-0.187500 0.546875 -0.138092 60 65 65
-0.183594 0.546875 -0.143298 33 39 42
-0.179688 0.546875 -0.147650 40 49 48
-0.175781 0.546875 -0.151592 50 62 57
-0.171875 0.546875 -0.155143 49 62 57
-0.167969 0.546875 -0.158129 51 63 58
-0.164062 0.546875 -0.160736 49 59 54
-0.160156 0.546875 -0.162950 50 56 52
-0.156250 0.546875 -0.165000 58 61 57
-0.152344 0.546875 -0.166793 70 71 63
-0.148438 0.546875 -0.168239 81 80 69
-0.144531 0.546875 -0.169545 91 89 72
-0.140625 0.546875 -0.170651 97 96 74
-0.136719 0.546875 -0.171262 101 99 73
-0.132812 0.546875 -0.171577 105 101 75
-0.128906 0.546875 -0.171751 94 92 75
-0.125000 0.546875 -0.171671 95 93 76
-0.121094 0.546875 -0.171573 96 93 79
-0.117188 0.546875 -0.171269 93 93 77
-0.113281 0.546875 -0.170605 91 91 77
-0.109375 0.546875 -0.169599 90 90 78
-0.105469 0.546875 -0.168402 93 94 84
-0.101562 0.546875 -0.167150 95 99 92
-0.097656 0.546875 -0.165725 83 87 83
-0.093750 0.546875 -0.164233 87 92 92
-0.089844 0.546875 -0.162652 88 94 100
-0.085938 0.546875 -0.161050 84 93 102
-0.082031 0.546875 -0.159560 82 89 105
-0.078125 0.546875 -0.158117 79 87 106
-0.074219 0.546875 -0.156793 73 81 102
-0.070312 0.546875 -0.155464 67 75 98
-0.066406 0.546875 -0.154171 53 61 97
-0.062500 0.546875 -0.152951 61 69 105
-0.058594 0.546875 -0.151528 63 71 108
-0.054688 0.546875 -0.150258 59 67 104
-0.050781 0.546875 -0.149009 63 71 108
-0.046875 0.546875 -0.147831 72 82 118
-0.042969 0.546875 -0.146719 74 83 122
-0.039062 0.546875 -0.145555 67 79 117
-0.035156 0.546875 -0.144545 61 72 112
-0.031250 0.546875 -0.143657 58 70 112
-0.027344 0.546875 -0.142882 60 72 114
-0.023438 0.546875 -0.142170 66 80 123
-0.019531 0.546875 -0.141548 70 85 128
-0.015625 0.546875 -0.140770 69 83 128
-0.011719 0.546875 -0.140236 67 84 128
-0.007812 0.546875 -0.139882 69 86 130
-0.003906 0.546875 -0.139659 75 98 130
0.000000 0.546875 -0.139498 96 119 150
0.003906 0.546875 -0.139277 115 134 166
0.007812 0.546875 -0.138933 118 135 165
0.011719 0.546875 -0.138475 120 133 165
0.015625 0.546875 -0.138382 129 140 168
0.019531 0.546875 -0.138264 139 146 174
0.023438 0.546875 -0.138172 141 147 173
0.027344 0.546875 -0.138155 143 148 170
0.031250 0.546875 -0.137795 138 140 161
0.035156 0.546875 -0.137860 128 129 147
0.039062 0.546875 -0.137934 119 121 136
0.042969 0.546875 -0.138075 110 112 125
0.046875 0.546875 -0.138332 99 101 113
0.050781 0.546875 -0.138440 90 93 102
0.054688 0.546875 -0.138571 85 88 97
0.058594 0.546875 -0.138547 66 72 84
0.062500 0.546875 -0.138393 87 91 103
0.066406 0.546875 -0.138363 99 103 114
0.070312 0.546875 -0.138373 93 98 104
0.074219 0.546875 -0.138146 85 88 93
0.078125 0.546875 -0.138035 84 88 91
0.082031 0.546875 -0.137640 87 91 92
0.085938 0.546875 -0.137110 87 93 93
0.089844 0.546875 -0.136597 76 84 86
0.093750 0.546875 -0.135717 76 86 88
0.097656 0.546875 -0.134611 78 89 95
0.101562 0.546875 -0.133059 78 92 103
0.105469 0.546875 -0.131140 81 99 113
0.109375 0.546875 -0.128882 88 107 124
0.113281 0.546875 -0.126203 94 115 136
0.117188 0.546875 -0.123374 98 120 143
0.121094 0.546875 -0.120387 95 121 146
0.125000 0.546875 -0.117309 100 126 151
0.128906 0.546875 -0.114274 106 134 158
0.132812 0.546875 -0.111281 109 139 163
0.136719 0.546875 -0.108361 108 140 163
0.140625 0.546875 -0.105598 103 139 161
0.144531 0.546875 -0.102675 105 143 166
0.148438 0.546875 -0.099812 111 148 175
0.152344 0.546875 -0.097040 98 137 170
0.156250 0.546875 -0.094463 82 120 159
0.160156 0.546875 -0.092274 84 118 164
0.164062 0.546875 -0.090393 84 117 171
0.167969 0.546875 -0.088773 78 108 172
0.171875 0.546875 -0.087301 85 112 183
0.175781 0.546875 -0.086264 84 110 185
0.179688 0.546875 -0.085617 63 86 164
0.183594 0.546875 -0.085107 60 86 163
0.187500 0.546875 -0.084662 64 91 170
0.191406 0.546875 -0.084167 56 83 162
0.195312 0.546875 -0.083547 48 77 156
0.199219 0.546875 -0.082914 50 80 160
0.203125 0.546875 -0.082166 67 97 173
0.207031 0.546875 -0.081222 82 111 183
0.210938 0.546875 -0.080050 82 110 176
0.214844 0.546875 -0.078753 82 108 164
0.218750 0.546875 -0.077323 97 120 166
0.222656 0.546875 -0.075460 96 114 149
0.226562 0.546875 -0.073211 134 147 174
0.230469 0.546875 -0.070811 173 181 198
0.234375 0.546875 -0.068374 163 168 184
0.238281 0.546875 -0.065761 150 155 166
0.242188 0.546875 -0.062889 149 151 158
0.246094 0.546875 -0.060563 155 154 163
0.250000 0.546875 -0.057810 161 159 167
0.253906 0.546875 -0.055239 166 163 173
0.257812 0.546875 -0.051036 173 169 182
0.261719 0.546875 -0.045930 183 179 196
0.265625 0.546875 -0.039091 212 207 222
-0.285156 0.542969 -0.064175 100 74 81
-0.281250 0.542969 -0.072657 74 59 61
-0.277344 0.542969 -0.078994 83 75 76
-0.273438 0.542969 -0.084253 102 98 98
-0.269531 0.542969 -0.089276 105 103 102
-0.265625 0.542969 -0.093215 101 100 99
-0.261719 0.542969 -0.096488 92 92 89
-0.257812 0.542969 -0.099428 79 81 77
-0.253906 0.542969 -0.102174 61 66 65
-0.250000 0.542969 -0.104642 49 54 52
-0.246094 0.542969 -0.106640 45 50 48
-0.242188 0.542969 -0.108177 50 57 55
-0.238281 0.542969 -0.109696 69 82 79
-0.234375 0.542969 -0.111130 97 121 115
-0.230469 0.542969 -0.111462 94 126 115
-0.226562 0.542969 -0.110572 71 100 89
-0.222656 0.542969 -0.108746 70 95 85
-0.218750 0.542969 -0.106878 74 95 92
-0.214844 0.542969 -0.105894 68 83 89
-0.210938 0.542969 -0.105920 59 67 78
-0.207031 0.542969 -0.106530 41 45 55
-0.203125 0.542969 -0.108632 36 38 45
-0.199219 0.542969 -0.114106 34 36 42
-0.195312 0.542969 -0.122293 30 36 41
-0.191406 0.542969 -0.130095 35 44 44
-0.187500 0.542969 -0.136234 40 50 48
-0.183594 0.542969 -0.141526 44 54 52
-0.179688 0.542969 -0.146049 56 69 62
-0.175781 0.542969 -0.150219 64 77 65
-0.171875 0.542969 -0.153955 71 82 68
-0.167969 0.542969 -0.157059 76 85 71
-0.164062 0.542969 -0.159696 80 86 68
-0.160156 0.542969 -0.161977 74 76 58
-0.156250 0.542969 -0.164127 83 82 61
-0.152344 0.542969 -0.165922 93 88 67
-0.148438 0.542969 -0.167449 98 92 67
-0.144531 0.542969 -0.168791 98 93 65
-0.140625 0.542969 -0.169810 97 92 61
-0.136719 0.542969 -0.170426 95 91 57
-0.132812 0.542969 -0.170778 96 92 58
-0.128906 0.542969 -0.170990 91 87 73
-0.125000 0.542969 -0.170899 89 86 71
-0.121094 0.542969 -0.170738 85 82 67
-0.117188 0.542969 -0.170324 81 78 64
-0.113281 0.542969 -0.169570 79 77 62
-0.109375 0.542969 -0.168620 78 79 65
-0.105469 0.542969 -0.167485 81 81 69
-0.101562 0.542969 -0.166234 82 84 73
-0.097656 0.542969 -0.164832 78 81 74
-0.093750 0.542969 -0.163402 83 85 80
-0.089844 0.542969 -0.161891 84 88 87
-0.085938 0.542969 -0.160374 82 87 90
-0.082031 0.542969 -0.158974 81 86 92
-0.078125 0.542969 -0.157638 82 86 97
-0.074219 0.542969 -0.156472 77 83 95
-0.070312 0.542969 -0.155296 72 78 92
-0.066406 0.542969 -0.154195 74 75 103
-0.062500 0.542969 -0.153085 81 82 110
-0.058594 0.542969 -0.151769 82 84 109
-0.054688 0.542969 -0.150606 72 77 99
-0.050781 0.542969 -0.149297 69 74 96
-0.046875 0.542969 -0.148089 70 77 96
-0.042969 0.542969 -0.146908 67 73 95
-0.039062 0.542969 -0.145725 59 66 87
-0.035156 0.542969 -0.144727 69 80 102
-0.031250 0.542969 -0.143794 62 73 99
-0.027344 0.542969 -0.143109 60 70 100
-0.023438 0.542969 -0.142520 62 75 109
-0.019531 0.542969 -0.141939 66 80 117
-0.015625 0.542969 -0.141256 63 76 118
-0.011719 0.542969 -0.140648 58 70 115
-0.007812 0.542969 -0.140015 55 66 114
-0.003906 0.542969 -0.139369 75 95 120
0.000000 0.542969 -0.138682 107 127 152
0.003906 0.542969 -0.138259 135 152 178
0.007812 0.542969 -0.138099 137 151 177
0.011719 0.542969 -0.137832 128 140 164
0.015625 0.542969 -0.137617 129 137 160
0.019531 0.542969 -0.137179 135 141 163
0.023438 0.542969 -0.136772 140 145 164
0.027344 0.542969 -0.136518 142 145 162
0.031250 0.542969 -0.136273 129 131 146
0.035156 0.542969 -0.136365 111 113 126
0.039062 0.542969 -0.136539 103 103 113
0.042969 0.542969 -0.136803 101 104 113
0.046875 0.542969 -0.136994 103 106 113
0.050781 0.542969 -0.137081 101 104 109
0.054688 0.542969 -0.137247 97 100 105
0.058594 0.542969 -0.137277 102 108 120
0.062500 0.542969 -0.137296 120 124 136
0.066406 0.542969 -0.137359 126 130 141
0.070312 0.542969 -0.137387 112 116 127
0.074219 0.542969 -0.137270 99 103 112
0.078125 0.542969 -0.137201 93 100 108
0.082031 0.542969 -0.136892 93 100 108
0.085938 0.542969 -0.136394 88 97 106
0.089844 0.542969 -0.135833 86 96 108
0.093750 0.542969 -0.134857 88 101 117
0.097656 0.542969 -0.133563 93 110 128
0.101562 0.542969 -0.131755 99 117 141
0.105469 0.542969 -0.129644 100 121 150
0.109375 0.542969 -0.127301 96 121 152
0.113281 0.542969 -0.124663 91 117 152
0.117188 0.542969 -0.121971 87 113 150
0.121094 0.542969 -0.119091 69 100 144
0.125000 0.542969 -0.116239 62 95 136
0.128906 0.542969 -0.113365 63 96 137
0.132812 0.542969 -0.110407 73 108 146
0.136719 0.542969 -0.107462 85 120 158
0.140625 0.542969 -0.104696 88 126 162
0.144531 0.542969 -0.101791 92 130 167
0.148438 0.542969 -0.098894 97 135 174
0.152344 0.542969 -0.096115 83 120 162
0.156250 0.542969 -0.093511 75 112 157
0.160156 0.542969 -0.091317 85 118 171
0.164062 0.542969 -0.089422 90 120 180
0.167969 0.542969 -0.087747 81 108 175
0.171875 0.542969 -0.086215 83 107 179
0.175781 0.542969 -0.085140 78 101 177
0.179688 0.542969 -0.084510 55 76 155
0.183594 0.542969 -0.084009 50 70 165
0.187500 0.542969 -0.083585 49 72 165
0.191406 0.542969 -0.083136 49 72 165
0.195312 0.542969 -0.082573 42 68 155
0.199219 0.542969 -0.082045 49 75 158
0.203125 0.542969 -0.081428 69 94 170
0.207031 0.542969 -0.080620 79 106 174
0.210938 0.542969 -0.079613 84 110 169
0.214844 0.542969 -0.078505 88 110 157
0.218750 0.542969 -0.077256 101 118 157
0.222656 0.542969 -0.075552 137 150 181
0.226562 0.542969 -0.073453 165 174 190
0.230469 0.542969 -0.071217 151 158 177
0.234375 0.542969 -0.068967 143 148 164
0.238281 0.542969 -0.066590 156 158 168
0.242188 0.542969 -0.064024 155 157 159
0.246094 0.542969 -0.062012 162 161 169
0.250000 0.542969 -0.059679 164 162 169
0.253906 0.542969 -0.057426 166 163 172
0.257812 0.542969 -0.053872 169 166 178
0.261719 0.542969 -0.049330 180 176 193
0.265625 0.542969 -0.042499 208 203 225
0.269531 0.542969 -0.030089 200 198 214
-0.285156 0.539062 -0.065159 86 65 70
-0.281250 0.539062 -0.073918 66 55 56
-0.277344 0.539062 -0.080175 78 72 72
-0.273438 0.539062 -0.085284 98 95 95
-0.269531 0.539062 -0.090248 103 101 101
-0.265625 0.539062 -0.094085 102 100 100
-0.261719 0.539062 -0.097199 93 95 92
-0.257812 0.539062 -0.099961 80 83 79
-0.253906 0.539062 -0.102496 63 71 67
-0.250000 0.539062 -0.104756 54 62 57
-0.246094 0.539062 -0.106540 57 65 62
-0.242188 0.539062 -0.107824 67 79 80
-0.238281 0.539062 -0.109192 74 92 94
-0.234375 0.539062 -0.110499 81 109 110
-0.230469 0.539062 -0.110738 86 123 123
-0.226562 0.539062 -0.109989 90 133 131
-0.222656 0.539062 -0.108771 107 148 140
-0.218750 0.539062 -0.107299 98 126 117
-0.214844 0.539062 -0.106719 87 104 101
-0.210938 0.539062 -0.106727 83 90 94
-0.207031 0.539062 -0.107143 68 69 78
-0.203125 0.539062 -0.108708 61 63 70
-0.199219 0.539062 -0.113644 56 59 66
-0.195312 0.539062 -0.121459 46 54 63
-0.191406 0.539062 -0.129050 58 68 65
-0.187500 0.539062 -0.135232 61 70 67
-0.183594 0.539062 -0.140598 65 75 70
-0.179688 0.539062 -0.145158 73 85 77
-0.175781 0.539062 -0.149335 81 91 78
-0.171875 0.539062 -0.153143 82 89 72
-0.167969 0.539062 -0.156334 78 80 60
-0.164062 0.539062 -0.158971 72 72 49
-0.160156 0.539062 -0.161322 84 80 54
-0.156250 0.539062 -0.163502 91 86 58
-0.152344 0.539062 -0.165270 100 93 64
-0.148438 0.539062 -0.166805 103 96 64
-0.144531 0.539062 -0.168081 100 94 59
-0.140625 0.539062 -0.169051 98 92 57
-0.136719 0.539062 -0.169700 97 93 56
-0.132812 0.539062 -0.170020 99 95 58
-0.128906 0.539062 -0.170154 93 87 75
-0.125000 0.539062 -0.170006 91 85 73
-0.121094 0.539062 -0.169711 88 82 70
-0.117188 0.539062 -0.169186 85 82 67
-0.113281 0.539062 -0.168412 83 80 65
-0.109375 0.539062 -0.167468 78 76 61
-0.105469 0.539062 -0.166342 73 71 58
-0.101562 0.539062 -0.165146 67 68 54
-0.097656 0.539062 -0.163857 75 75 63
-0.093750 0.539062 -0.162542 78 80 69
-0.089844 0.539062 -0.161156 80 81 75
-0.085938 0.539062 -0.159748 78 78 76
-0.082031 0.539062 -0.158422 78 80 79
-0.078125 0.539062 -0.157166 81 82 84
-0.074219 0.539062 -0.156075 81 82 86
-0.070312 0.539062 -0.154985 77 78 83
-0.066406 0.539062 -0.153998 87 83 100
-0.062500 0.539062 -0.152986 91 87 102
-0.058594 0.539062 -0.151819 90 88 101
-0.054688 0.539062 -0.150730 85 83 94
-0.050781 0.539062 -0.149494 80 80 88
-0.046875 0.539062 -0.148317 76 79 84
-0.042969 0.539062 -0.147166 73 78 81
-0.039062 0.539062 -0.146078 68 76 79
-0.035156 0.539062 -0.145069 79 88 95
-0.031250 0.539062 -0.144089 72 80 91
-0.027344 0.539062 -0.143383 68 76 95
-0.023438 0.539062 -0.142769 68 78 103
-0.019531 0.539062 -0.142160 68 79 111
-0.015625 0.539062 -0.141494 63 72 113
-0.011719 0.539062 -0.140953 55 65 110
-0.007812 0.539062 -0.140356 53 63 109
-0.003906 0.539062 -0.139776 72 89 109
0.000000 0.539062 -0.139087 99 116 136
0.003906 0.539062 -0.138395 126 141 160
0.007812 0.539062 -0.137818 129 142 159
0.011719 0.539062 -0.137358 117 126 143
0.015625 0.539062 -0.137146 109 116 132
0.019531 0.539062 -0.136894 114 120 134
0.023438 0.539062 -0.136637 124 126 139
0.027344 0.539062 -0.136364 117 119 131
0.031250 0.539062 -0.136067 111 111 119
0.035156 0.539062 -0.135991 101 101 109
0.039062 0.539062 -0.136035 98 99 104
0.042969 0.539062 -0.136209 108 109 113
0.046875 0.539062 -0.136424 119 123 126
0.050781 0.539062 -0.136694 125 129 132
0.054688 0.539062 -0.137045 122 126 127
0.058594 0.539062 -0.137249 119 126 136
0.062500 0.539062 -0.137357 125 132 142
0.066406 0.539062 -0.137349 124 131 141
0.070312 0.539062 -0.137193 113 120 130
0.074219 0.539062 -0.136887 106 115 124
0.078125 0.539062 -0.136503 110 118 129
0.082031 0.539062 -0.135931 113 123 135
0.085938 0.539062 -0.135254 109 122 138
0.089844 0.539062 -0.134545 116 131 150
0.093750 0.539062 -0.133482 116 134 158
0.097656 0.539062 -0.132148 115 136 165
0.101562 0.539062 -0.130315 112 135 169
0.105469 0.539062 -0.128221 104 130 167
0.109375 0.539062 -0.125933 92 121 163
0.113281 0.539062 -0.123338 82 113 157
0.117188 0.539062 -0.120668 76 107 153
0.121094 0.539062 -0.117892 77 113 165
0.125000 0.539062 -0.115106 68 104 156
0.128906 0.539062 -0.112234 67 105 154
0.132812 0.539062 -0.109313 80 118 165
0.136719 0.539062 -0.106424 92 130 175
0.140625 0.539062 -0.103732 92 131 174
0.144531 0.539062 -0.100878 91 128 172
0.148438 0.539062 -0.097958 92 129 173
0.152344 0.539062 -0.095126 79 113 159
0.156250 0.539062 -0.092442 82 114 163
0.160156 0.539062 -0.090178 91 121 173
0.164062 0.539062 -0.088240 93 119 176
0.167969 0.539062 -0.086528 84 108 170
0.171875 0.539062 -0.084958 82 103 170
0.175781 0.539062 -0.083842 75 94 163
0.179688 0.539062 -0.083213 61 79 151
0.183594 0.539062 -0.082723 60 78 180
0.187500 0.539062 -0.082334 59 77 177
0.191406 0.539062 -0.081962 69 88 182
0.195312 0.539062 -0.081500 61 82 170
0.199219 0.539062 -0.081100 57 79 158
0.203125 0.539062 -0.080625 63 86 156
0.207031 0.539062 -0.079971 65 87 147
0.210938 0.539062 -0.079117 79 99 147
0.214844 0.539062 -0.078192 102 118 159
0.218750 0.539062 -0.077133 140 151 184
0.222656 0.539062 -0.075610 151 158 178
0.226562 0.539062 -0.073697 148 152 172
0.230469 0.539062 -0.071645 138 141 162
0.234375 0.539062 -0.069615 143 145 158
0.238281 0.539062 -0.067513 156 156 165
0.242188 0.539062 -0.065236 157 155 159
0.246094 0.539062 -0.063449 160 159 167
0.250000 0.539062 -0.061394 161 159 167
0.253906 0.539062 -0.059393 161 159 167
0.257812 0.539062 -0.056152 165 162 172
0.261719 0.539062 -0.052070 181 177 192
0.265625 0.539062 -0.045685 216 211 228
0.269531 0.539062 -0.038545 197 195 206
-0.285156 0.535156 -0.065987 67 54 58
-0.281250 0.535156 -0.075382 57 50 51
-0.277344 0.535156 -0.081407 73 68 68
-0.273438 0.535156 -0.086353 94 91 91
-0.269531 0.535156 -0.091255 99 98 98
-0.265625 0.535156 -0.095033 99 99 98
-0.261719 0.535156 -0.097976 93 95 92
-0.257812 0.535156 -0.100531 82 86 81
-0.253906 0.535156 -0.102895 73 84 76
-0.250000 0.535156 -0.105041 72 84 77
-0.246094 0.535156 -0.106670 79 93 91
-0.242188 0.535156 -0.107785 85 104 105
-0.238281 0.535156 -0.108979 79 102 105
-0.234375 0.535156 -0.109980 72 101 105
-0.230469 0.535156 -0.110204 74 109 112
-0.226562 0.535156 -0.109673 81 120 122
-0.222656 0.535156 -0.108749 91 131 126
-0.218750 0.535156 -0.107849 98 129 123
-0.214844 0.535156 -0.107456 104 122 120
-0.210938 0.535156 -0.107631 102 111 119
-0.207031 0.535156 -0.107959 93 96 112
-0.203125 0.535156 -0.109153 88 93 112
-0.199219 0.535156 -0.113598 79 88 111
-0.195312 0.535156 -0.120991 70 84 112
-0.191406 0.535156 -0.128333 66 81 84
-0.187500 0.535156 -0.134452 74 91 93
-0.183594 0.535156 -0.139806 87 104 103
-0.179688 0.535156 -0.144315 102 116 111
-0.175781 0.535156 -0.148438 109 120 111
-0.171875 0.535156 -0.152263 107 113 99
-0.167969 0.535156 -0.155470 100 101 84
-0.164062 0.535156 -0.158109 97 92 71
-0.160156 0.535156 -0.160439 93 86 60
-0.156250 0.535156 -0.162526 102 92 64
-0.152344 0.535156 -0.164236 108 99 69
-0.148438 0.535156 -0.165741 110 101 69
-0.144531 0.535156 -0.167010 106 100 67
-0.140625 0.535156 -0.168025 104 100 66
-0.136719 0.535156 -0.168727 108 105 71
-0.132812 0.535156 -0.169041 111 111 76
-0.128906 0.535156 -0.169105 98 91 81
-0.125000 0.535156 -0.168889 95 88 79
-0.121094 0.535156 -0.168549 95 89 77
-0.117188 0.535156 -0.168065 95 88 77
-0.113281 0.535156 -0.167356 92 89 74
-0.109375 0.535156 -0.166429 87 84 69
-0.105469 0.535156 -0.165316 79 76 61
-0.101562 0.535156 -0.164156 72 69 54
-0.097656 0.535156 -0.162946 79 77 62
-0.093750 0.535156 -0.161705 81 79 66
-0.089844 0.535156 -0.160405 80 78 66
-0.085938 0.535156 -0.159091 74 74 64
-0.082031 0.535156 -0.157856 74 74 66
-0.078125 0.535156 -0.156699 77 76 71
-0.074219 0.535156 -0.155668 77 76 72
-0.070312 0.535156 -0.154649 75 74 70
-0.066406 0.535156 -0.153716 86 76 85
-0.062500 0.535156 -0.152780 85 75 83
-0.058594 0.535156 -0.151818 84 78 80
-0.054688 0.535156 -0.150834 86 81 78
-0.050781 0.535156 -0.149749 84 81 74
-0.046875 0.535156 -0.148735 81 81 71
-0.042969 0.535156 -0.147555 85 87 74
-0.039062 0.535156 -0.146514 91 94 83
-0.035156 0.535156 -0.145445 92 97 90
-0.031250 0.535156 -0.144426 89 95 93
-0.027344 0.535156 -0.143641 87 94 102
-0.023438 0.535156 -0.142920 85 92 110
-0.019531 0.535156 -0.142297 78 85 113
-0.015625 0.535156 -0.141677 68 76 113
-0.011719 0.535156 -0.141169 67 74 118
-0.007812 0.535156 -0.140625 70 78 125
-0.003906 0.535156 -0.140068 81 94 110
0.000000 0.535156 -0.139351 92 106 119
0.003906 0.535156 -0.138666 107 119 133
0.007812 0.535156 -0.137970 112 122 134
0.011719 0.535156 -0.137258 102 110 121
0.015625 0.535156 -0.136662 94 101 109
0.019531 0.535156 -0.136019 101 104 111
0.023438 0.535156 -0.135499 113 114 119
0.027344 0.535156 -0.135052 102 103 107
0.031250 0.535156 -0.134698 110 110 112
0.035156 0.535156 -0.134609 116 117 119
0.039062 0.535156 -0.134723 121 123 122
0.042969 0.535156 -0.134952 130 132 131
0.046875 0.535156 -0.135222 139 143 142
0.050781 0.535156 -0.135560 142 146 145
0.054688 0.535156 -0.135883 140 144 143
0.058594 0.535156 -0.136058 110 117 123
0.062500 0.535156 -0.136108 113 120 126
0.066406 0.535156 -0.136040 117 126 133
0.070312 0.535156 -0.135829 125 134 143
0.074219 0.535156 -0.135496 136 146 156
0.078125 0.535156 -0.135121 146 158 170
0.082031 0.535156 -0.134568 153 166 182
0.085938 0.535156 -0.133912 152 169 187
0.089844 0.535156 -0.133157 140 160 184
0.093750 0.535156 -0.132041 134 155 184
0.097656 0.535156 -0.130643 121 145 179
0.101562 0.535156 -0.128793 105 133 172
0.105469 0.535156 -0.126693 93 122 164
0.109375 0.535156 -0.124392 86 119 164
0.113281 0.535156 -0.121870 86 120 168
0.117188 0.535156 -0.119281 89 122 173
0.121094 0.535156 -0.116514 104 141 194
0.125000 0.535156 -0.113734 93 130 183
0.128906 0.535156 -0.110891 89 126 178
0.132812 0.535156 -0.108011 95 133 182
0.136719 0.535156 -0.105153 95 132 177
0.140625 0.535156 -0.102527 88 122 167
0.144531 0.535156 -0.099688 83 118 160
0.148438 0.535156 -0.096684 87 118 162
0.152344 0.535156 -0.093780 80 109 151
0.156250 0.535156 -0.091084 92 119 164
0.160156 0.535156 -0.088803 96 120 166
0.164062 0.535156 -0.086875 93 113 163
0.167969 0.535156 -0.085167 92 109 161
0.171875 0.535156 -0.083611 82 97 152
0.175781 0.535156 -0.082487 68 80 138
0.179688 0.535156 -0.081872 61 73 133
0.183594 0.535156 -0.081372 69 83 179
0.187500 0.535156 -0.080984 69 84 176
0.191406 0.535156 -0.080693 89 105 192
0.195312 0.535156 -0.080337 82 99 177
0.199219 0.535156 -0.080061 69 87 156
0.203125 0.535156 -0.079751 71 90 146
0.207031 0.535156 -0.079289 78 96 143
0.210938 0.535156 -0.078606 104 121 156
0.214844 0.535156 -0.077873 130 141 172
0.218750 0.535156 -0.077038 150 156 176
0.222656 0.535156 -0.075733 142 144 167
0.226562 0.535156 -0.074036 135 138 160
0.230469 0.535156 -0.072167 147 147 165
0.234375 0.535156 -0.070303 152 152 166
0.238281 0.535156 -0.068414 156 156 165
0.242188 0.535156 -0.066399 157 156 163
0.246094 0.535156 -0.064825 159 158 167
0.250000 0.535156 -0.062986 158 157 165
0.253906 0.535156 -0.061054 156 155 162
0.257812 0.535156 -0.057823 158 157 165
0.261719 0.535156 -0.054217 175 173 185
0.265625 0.535156 -0.048324 212 207 222
0.269531 0.535156 -0.041057 202 200 219
-0.285156 0.531250 -0.067609 75 65 67
-0.281250 0.531250 -0.076684 60 55 54
-0.277344 0.531250 -0.082562 72 69 68
-0.273438 0.531250 -0.087431 88 86 86
-0.269531 0.531250 -0.092182 91 90 90
-0.265625 0.531250 -0.095954 89 89 89
-0.261719 0.531250 -0.098703 85 88 85
-0.257812 0.531250 -0.101001 81 86 80
-0.253906 0.531250 -0.103187 87 98 90
-0.250000 0.531250 -0.105213 95 109 106
-0.246094 0.531250 -0.106730 97 114 113
-0.242188 0.531250 -0.107698 95 117 118
-0.238281 0.531250 -0.108720 86 111 114
-0.234375 0.531250 -0.109560 75 104 107
-0.230469 0.531250 -0.109860 63 91 95
-0.226562 0.531250 -0.109571 58 85 87
-0.222656 0.531250 -0.108968 65 92 92
-0.218750 0.531250 -0.108506 73 95 98
-0.214844 0.531250 -0.108116 81 98 106
-0.210938 0.531250 -0.108213 85 98 115
-0.207031 0.531250 -0.108524 89 103 125
-0.203125 0.531250 -0.109359 93 110 137
-0.199219 0.531250 -0.113287 90 110 141
-0.195312 0.531250 -0.120362 80 104 138
-0.191406 0.531250 -0.127593 65 92 103
-0.187500 0.531250 -0.133749 79 105 116
-0.183594 0.531250 -0.139209 96 122 129
-0.179688 0.531250 -0.143821 109 128 133
-0.175781 0.531250 -0.148025 110 123 123
-0.171875 0.531250 -0.151888 107 113 107
-0.167969 0.531250 -0.155069 104 104 94
-0.164062 0.531250 -0.157669 105 101 87
-0.160156 0.531250 -0.159863 95 88 69
-0.156250 0.531250 -0.161785 102 94 71
-0.152344 0.531250 -0.163406 107 100 75
-0.148438 0.531250 -0.164821 107 101 75
-0.144531 0.531250 -0.166006 104 100 73
-0.140625 0.531250 -0.166965 103 102 75
-0.136719 0.531250 -0.167613 106 109 83
-0.132812 0.531250 -0.167884 113 116 90
-0.128906 0.531250 -0.167863 103 96 88
-0.125000 0.531250 -0.167577 100 93 85
-0.121094 0.531250 -0.167228 95 91 80
-0.117188 0.531250 -0.166758 94 90 80
-0.113281 0.531250 -0.166082 96 92 80
-0.109375 0.531250 -0.165225 95 92 77
-0.105469 0.531250 -0.164205 90 87 70
-0.101562 0.531250 -0.163127 85 82 65
-0.097656 0.531250 -0.162018 88 85 68
-0.093750 0.531250 -0.160880 89 86 69
-0.089844 0.531250 -0.159685 86 83 66
-0.085938 0.531250 -0.158474 79 76 61
-0.082031 0.531250 -0.157327 77 73 61
-0.078125 0.531250 -0.156250 80 76 64
-0.074219 0.531250 -0.155280 80 76 65
-0.070312 0.531250 -0.154327 78 74 63
-0.066406 0.531250 -0.153426 92 80 80
-0.062500 0.531250 -0.152546 86 75 73
-0.058594 0.531250 -0.151697 84 73 67
-0.054688 0.531250 -0.150794 87 79 68
-0.050781 0.531250 -0.149877 85 80 61
-0.046875 0.531250 -0.148977 81 79 56
-0.042969 0.531250 -0.147890 89 89 65
-0.039062 0.531250 -0.146929 100 102 78
-0.035156 0.531250 -0.145884 110 113 94
-0.031250 0.531250 -0.144933 110 116 104
-0.027344 0.531250 -0.144150 111 117 115
-0.023438 0.531250 -0.143429 102 109 119
-0.019531 0.531250 -0.142764 85 91 113
-0.015625 0.531250 -0.142099 73 78 110
-0.011719 0.531250 -0.141555 74 79 119
-0.007812 0.531250 -0.140945 83 87 132
-0.003906 0.531250 -0.140344 95 108 117
0.000000 0.531250 -0.139636 94 104 113
0.003906 0.531250 -0.138922 96 106 115
0.007812 0.531250 -0.138119 101 110 117
0.011719 0.531250 -0.137339 99 104 108
0.015625 0.531250 -0.136607 93 97 100
0.019531 0.531250 -0.135798 101 102 104
0.023438 0.531250 -0.135075 113 115 114
0.027344 0.531250 -0.134429 112 112 110
0.031250 0.531250 -0.133964 130 130 128
0.035156 0.531250 -0.133781 147 147 145
0.039062 0.531250 -0.133904 151 153 150
0.042969 0.531250 -0.134155 150 152 149
0.046875 0.531250 -0.134454 146 151 147
0.050781 0.531250 -0.134848 141 146 142
0.054688 0.531250 -0.135150 134 140 136
0.058594 0.531250 -0.135343 152 162 163
0.062500 0.531250 -0.135365 149 159 161
0.066406 0.531250 -0.135254 149 160 162
0.070312 0.531250 -0.134989 157 168 174
0.074219 0.531250 -0.134587 160 173 181
0.078125 0.531250 -0.134143 153 170 180
0.082031 0.531250 -0.133490 142 159 175
0.085938 0.531250 -0.132740 132 153 172
0.089844 0.531250 -0.131835 129 151 175
0.093750 0.531250 -0.130594 123 149 176
0.097656 0.531250 -0.129070 114 143 175
0.101562 0.531250 -0.127137 104 134 172
0.105469 0.531250 -0.125016 96 128 169
0.109375 0.531250 -0.122729 96 129 172
0.113281 0.531250 -0.120195 102 136 182
0.117188 0.531250 -0.117584 106 143 188
0.121094 0.531250 -0.114846 102 138 186
0.125000 0.531250 -0.112130 92 126 172
0.128906 0.531250 -0.109370 85 119 164
0.132812 0.531250 -0.106575 84 117 160
0.136719 0.531250 -0.103794 76 108 149
0.140625 0.531250 -0.101269 65 95 133
0.144531 0.531250 -0.098431 66 94 131
0.148438 0.531250 -0.095273 77 101 137
0.152344 0.531250 -0.092233 87 110 144
0.156250 0.531250 -0.089469 108 127 160
0.160156 0.531250 -0.087075 106 122 156
0.164062 0.531250 -0.085218 98 112 149
0.167969 0.531250 -0.083590 100 109 148
0.171875 0.531250 -0.082102 80 88 127
0.175781 0.531250 -0.081006 51 58 100
0.179688 0.531250 -0.080407 47 52 94
0.183594 0.531250 -0.079928 64 76 156
0.187500 0.531250 -0.079594 65 77 154
0.191406 0.531250 -0.079404 95 109 178
0.195312 0.531250 -0.079176 93 108 170
0.199219 0.531250 -0.079070 81 99 149
0.203125 0.531250 -0.078929 90 108 145
0.207031 0.531250 -0.078663 105 122 149
0.210938 0.531250 -0.078169 128 143 166
0.214844 0.531250 -0.077648 139 148 166
0.218750 0.531250 -0.077052 138 143 167
0.222656 0.531250 -0.075948 142 145 167
0.226562 0.531250 -0.074459 152 153 171
0.230469 0.531250 -0.072809 149 148 165
0.234375 0.531250 -0.071113 149 147 161
0.238281 0.531250 -0.069442 154 153 165
0.242188 0.531250 -0.067686 150 146 156
0.246094 0.531250 -0.066280 149 149 158
0.250000 0.531250 -0.064591 146 147 153
0.253906 0.531250 -0.062698 144 145 150
0.257812 0.531250 -0.059467 147 147 152
0.261719 0.531250 -0.056120 163 161 169
0.265625 0.531250 -0.050229 199 195 208
0.269531 0.531250 -0.043644 200 198 214
-0.285156 0.527344 -0.070283 68 62 64
-0.281250 0.527344 -0.078137 59 56 56
-0.277344 0.527344 -0.083865 72 69 69
-0.273438 0.527344 -0.088568 85 85 84
-0.269531 0.527344 -0.093103 85 86 85
-0.265625 0.527344 -0.096858 80 81 81
-0.261719 0.527344 -0.099444 80 84 81
-0.257812 0.527344 -0.101511 89 94 88
-0.253906 0.527344 -0.103527 106 117 113
-0.250000 0.527344 -0.105389 107 120 119
-0.246094 0.527344 -0.106791 95 113 112
-0.242188 0.527344 -0.107651 97 120 120
-0.238281 0.527344 -0.108548 93 120 121
-0.234375 0.527344 -0.109331 76 104 105
-0.230469 0.527344 -0.109652 61 86 87
-0.226562 0.527344 -0.109517 57 79 81
-0.222656 0.527344 -0.109188 61 80 83
-0.218750 0.527344 -0.109036 71 90 96
-0.214844 0.527344 -0.108762 86 107 117
-0.210938 0.527344 -0.108792 95 117 136
-0.207031 0.527344 -0.108970 95 121 145
-0.203125 0.527344 -0.109501 91 118 147
-0.199219 0.527344 -0.112814 90 116 150
-0.195312 0.527344 -0.119574 94 120 156
-0.191406 0.527344 -0.126793 80 114 136
-0.187500 0.527344 -0.133043 65 98 120
-0.183594 0.527344 -0.138588 60 90 110
-0.179688 0.527344 -0.143306 76 101 116
-0.175781 0.527344 -0.147608 101 118 128
-0.171875 0.527344 -0.151497 113 123 129
-0.167969 0.527344 -0.154620 108 112 113
-0.164062 0.527344 -0.157127 102 101 97
-0.160156 0.527344 -0.159195 99 95 86
-0.156250 0.527344 -0.161006 95 91 80
-0.152344 0.527344 -0.162543 103 99 87
-0.148438 0.527344 -0.163846 122 120 105
-0.144531 0.527344 -0.164924 131 132 117
-0.140625 0.527344 -0.165808 126 130 115
-0.136719 0.527344 -0.166413 118 125 109
-0.132812 0.527344 -0.166652 118 127 110
-0.128906 0.527344 -0.166582 118 113 109
