ply
    format ascii 1.0
    element vertex 106416
    property float x
    property float y
    property float z
    property uchar red
    property uchar green
    property uchar blue
    end_header
-0.222656 -0.437500 0.028444 15 17 22
-0.218750 -0.437500 0.028680 14 17 22
-0.214844 -0.437500 0.028948 14 17 22
-0.210938 -0.437500 0.029368 14 18 23
-0.207031 -0.437500 0.030044 14 18 24
-0.203125 -0.437500 0.031077 14 18 25
-0.199219 -0.437500 0.032317 15 19 26
-0.195312 -0.437500 0.033828 16 21 29
-0.191406 -0.437500 0.035502 18 22 31
-0.187500 -0.437500 0.037072 19 23 32
-0.183594 -0.437500 0.038313 19 23 33
-0.179688 -0.437500 0.038950 20 24 34
-0.175781 -0.437500 0.039508 21 26 35
-0.171875 -0.437500 0.039937 21 26 36
-0.167969 -0.437500 0.040339 20 25 34
-0.164062 -0.437500 0.040912 19 24 33
-0.160156 -0.437500 0.041519 19 24 33
-0.156250 -0.437500 0.042262 19 24 34
-0.152344 -0.437500 0.042882 19 23 32
-0.148438 -0.437500 0.043269 18 22 31
-0.144531 -0.437500 0.043827 18 22 31
-0.140625 -0.437500 0.044334 17 22 31
-0.136719 -0.437500 0.044935 17 22 32
-0.132812 -0.437500 0.045582 16 20 29
-0.128906 -0.437500 0.046017 14 19 27
-0.125000 -0.437500 0.047665 16 21 28
-0.121094 -0.437500 0.050122 19 24 31
-0.117188 -0.437500 0.049437 19 23 27
-0.113281 -0.437500 0.046869 16 19 22
-0.109375 -0.437500 0.044159 14 17 18
-0.105469 -0.437500 0.041743 14 16 16
-0.101562 -0.437500 0.038377 12 13 13
-0.097656 -0.437500 0.033168 6 6 8
-0.093750 -0.437500 0.024046 5 6 8
-0.039062 -0.437500 0.041981 23 26 34
-0.035156 -0.437500 0.042295 20 23 33
-0.031250 -0.437500 0.039563 19 23 32
-0.027344 -0.437500 0.041692 18 22 31
-0.023438 -0.437500 0.049050 19 23 32
-0.019531 -0.437500 0.057102 20 25 35
-0.015625 -0.437500 0.064475 20 26 34
-0.011719 -0.437500 0.070092 20 24 32
-0.007812 -0.437500 0.073608 20 23 32
-0.003906 -0.437500 0.076679 22 25 33
0.000000 -0.437500 0.079383 23 26 34
0.003906 -0.437500 0.081372 21 25 34
0.007812 -0.437500 0.082586 20 24 32
0.011719 -0.437500 0.083770 20 24 33
0.015625 -0.437500 0.085206 19 23 33
0.019531 -0.437500 0.086894 18 22 32
0.023438 -0.437500 0.089055 18 22 33
0.027344 -0.437500 0.091353 20 25 36
0.031250 -0.437500 0.093586 23 28 40
0.035156 -0.437500 0.095480 26 30 44
0.039062 -0.437500 0.096961 29 34 47
0.042969 -0.437500 0.098244 34 39 52
0.046875 -0.437500 0.099121 37 43 57
0.050781 -0.437500 0.099075 36 41 53
0.054688 -0.437500 0.098063 31 36 47
0.058594 -0.437500 0.096628 28 32 43
0.062500 -0.437500 0.095076 24 29 40
0.066406 -0.437500 0.093158 23 28 38
0.070312 -0.437500 0.090780 22 26 36
0.074219 -0.437500 0.088310 20 24 33
0.078125 -0.437500 0.085843 19 23 33
0.082031 -0.437500 0.084039 20 24 34
0.085938 -0.437500 0.083375 22 25 37
0.089844 -0.437500 0.082876 24 27 39
0.093750 -0.437500 0.082180 26 29 41
0.097656 -0.437500 0.079632 31 34 46
0.101562 -0.437500 0.073680 35 39 52
0.105469 -0.437500 0.066006 35 39 52
0.109375 -0.437500 0.056440 36 41 55
0.113281 -0.437500 0.046913 28 33 46
0.117188 -0.437500 0.037623 19 21 33
-0.257812 -0.441406 -0.003397 22 25 32
-0.253906 -0.441406 0.018467 19 20 25
-0.250000 -0.441406 0.025264 14 15 22
-0.246094 -0.441406 0.027613 17 19 28
-0.242188 -0.441406 0.028606 16 17 26
-0.238281 -0.441406 0.028949 15 16 25
-0.234375 -0.441406 0.028957 15 16 23
-0.230469 -0.441406 0.028618 14 16 23
-0.226562 -0.441406 0.028366 15 17 23
-0.222656 -0.441406 0.028370 15 18 23
-0.218750 -0.441406 0.028646 14 17 22
-0.214844 -0.441406 0.028912 14 17 21
-0.210938 -0.441406 0.029306 14 17 22
-0.207031 -0.441406 0.029955 14 17 23
-0.203125 -0.441406 0.030922 13 17 24
-0.199219 -0.441406 0.032091 14 18 26
-0.195312 -0.441406 0.033488 16 20 29
-0.191406 -0.441406 0.035033 17 22 31
-0.187500 -0.441406 0.036531 18 22 32
-0.183594 -0.441406 0.037825 18 22 31
-0.179688 -0.441406 0.038701 18 23 32
-0.175781 -0.441406 0.039514 19 24 33
-0.171875 -0.441406 0.040148 19 24 33
-0.167969 -0.441406 0.040668 19 24 33
-0.164062 -0.441406 0.041228 19 24 33
-0.160156 -0.441406 0.041799 19 24 34
-0.156250 -0.441406 0.042467 20 25 35
-0.152344 -0.441406 0.042979 18 23 32
-0.148438 -0.441406 0.043273 17 22 30
-0.144531 -0.441406 0.043754 17 22 30
-0.140625 -0.441406 0.044172 17 22 30
-0.136719 -0.441406 0.044717 17 21 29
-0.132812 -0.441406 0.045395 15 20 28
-0.128906 -0.441406 0.045914 15 20 27
-0.125000 -0.441406 0.047782 18 22 30
-0.121094 -0.441406 0.050334 19 24 30
-0.117188 -0.441406 0.049268 17 21 25
-0.113281 -0.441406 0.046715 15 18 20
-0.109375 -0.441406 0.043927 14 17 18
-0.105469 -0.441406 0.041567 14 16 16
-0.101562 -0.441406 0.038404 11 13 13
-0.097656 -0.441406 0.033191 6 6 8
-0.093750 -0.441406 0.025775 6 7 9
-0.039062 -0.441406 0.041447 24 27 36
-0.035156 -0.441406 0.041903 20 24 34
-0.031250 -0.441406 0.039737 19 23 32
-0.027344 -0.441406 0.041753 18 22 30
-0.023438 -0.441406 0.048892 19 23 32
-0.019531 -0.441406 0.056723 20 25 34
-0.015625 -0.441406 0.064002 21 26 34
-0.011719 -0.441406 0.069597 20 24 32
-0.007812 -0.441406 0.073152 20 23 31
-0.003906 -0.441406 0.076241 22 25 33
0.000000 -0.441406 0.078908 22 26 34
0.003906 -0.441406 0.080838 21 24 33
0.007812 -0.441406 0.081961 19 23 32
0.011719 -0.441406 0.083044 19 23 32
0.015625 -0.441406 0.084399 19 22 32
0.019531 -0.441406 0.086003 17 21 31
0.023438 -0.441406 0.088052 17 21 31
0.027344 -0.441406 0.090245 19 23 34
0.031250 -0.441406 0.092405 22 27 39
0.035156 -0.441406 0.094304 24 29 42
0.039062 -0.441406 0.095929 28 33 46
0.042969 -0.441406 0.097413 33 38 52
0.046875 -0.441406 0.098439 36 41 55
0.050781 -0.441406 0.098500 34 38 51
0.054688 -0.441406 0.097576 31 34 46
0.058594 -0.441406 0.096226 30 34 45
0.062500 -0.441406 0.094741 27 31 43
0.066406 -0.441406 0.092742 24 29 39
0.070312 -0.441406 0.090084 21 26 35
0.074219 -0.441406 0.087269 20 24 33
0.078125 -0.441406 0.084466 20 24 33
0.082031 -0.441406 0.082431 20 24 34
0.085938 -0.441406 0.081675 21 24 35
0.089844 -0.441406 0.081261 21 24 36
0.093750 -0.441406 0.080767 24 27 39
0.097656 -0.441406 0.078538 29 33 46
0.101562 -0.441406 0.073212 35 39 52
0.105469 -0.441406 0.066204 34 38 51
0.109375 -0.441406 0.057225 34 39 53
0.113281 -0.441406 0.048105 30 33 46
0.117188 -0.441406 0.039156 24 26 36
0.121094 -0.441406 0.025747 25 27 35
-0.257812 -0.445312 -0.002321 24 27 35
-0.253906 -0.445312 0.018412 20 21 26
-0.250000 -0.445312 0.024995 14 15 22
-0.246094 -0.445312 0.027322 17 19 27
-0.242188 -0.445312 0.028207 16 16 25
-0.238281 -0.445312 0.028517 16 16 23
-0.234375 -0.445312 0.028553 15 16 22
-0.230469 -0.445312 0.028295 15 16 22
-0.226562 -0.445312 0.028142 15 17 22
-0.222656 -0.445312 0.028207 15 18 23
-0.218750 -0.445312 0.028560 15 17 22
-0.214844 -0.445312 0.028877 14 17 22
-0.210938 -0.445312 0.029273 14 17 23
-0.207031 -0.445312 0.029907 14 17 23
-0.203125 -0.445312 0.030830 14 17 24
-0.199219 -0.445312 0.031941 14 18 26
-0.195312 -0.445312 0.033247 16 20 29
-0.191406 -0.445312 0.034689 17 22 31
-0.187500 -0.445312 0.036107 17 23 32
-0.183594 -0.445312 0.037444 18 23 32
-0.179688 -0.445312 0.038543 18 23 32
-0.175781 -0.445312 0.039578 18 23 32
-0.171875 -0.445312 0.040378 18 23 31
-0.167969 -0.445312 0.040979 18 23 31
-0.164062 -0.445312 0.041518 18 23 32
-0.160156 -0.445312 0.042046 19 24 33
-0.156250 -0.445312 0.042630 19 24 33
-0.152344 -0.445312 0.043055 17 21 30
-0.148438 -0.445312 0.043291 16 20 28
-0.144531 -0.445312 0.043686 17 21 29
-0.140625 -0.445312 0.044027 16 20 27
-0.136719 -0.445312 0.044535 15 19 26
-0.132812 -0.445312 0.045226 14 18 25
-0.128906 -0.445312 0.045743 16 20 27
-0.125000 -0.445312 0.047783 19 23 30
-0.121094 -0.445312 0.050090 18 23 28
-0.117188 -0.445312 0.048779 16 20 23
-0.113281 -0.445312 0.046452 14 17 19
-0.109375 -0.445312 0.043777 13 16 16
-0.105469 -0.445312 0.041515 13 15 15
-0.101562 -0.445312 0.038592 10 12 12
-0.097656 -0.445312 0.033637 5 6 7
-0.093750 -0.445312 0.027114 5 6 8
-0.039062 -0.445312 0.040618 24 27 36
-0.035156 -0.445312 0.041494 20 24 34
-0.031250 -0.445312 0.040173 19 23 32
-0.027344 -0.445312 0.042264 18 22 30
-0.023438 -0.445312 0.049041 19 23 32
-0.019531 -0.445312 0.056540 20 25 33
-0.015625 -0.445312 0.063620 21 25 33
-0.011719 -0.445312 0.069123 20 24 32
-0.007812 -0.445312 0.072684 20 23 31
-0.003906 -0.445312 0.075747 21 24 32
0.000000 -0.445312 0.078360 22 25 33
0.003906 -0.445312 0.080259 20 24 33
0.007812 -0.445312 0.081351 19 23 32
0.011719 -0.445312 0.082380 19 23 32
0.015625 -0.445312 0.083682 18 22 32
0.019531 -0.445312 0.085216 17 20 31
0.023438 -0.445312 0.087154 17 20 31
0.027344 -0.445312 0.089230 19 22 33
0.031250 -0.445312 0.091301 22 25 37
0.035156 -0.445312 0.093204 23 27 39
0.039062 -0.445312 0.094940 27 30 43
0.042969 -0.445312 0.096567 32 35 49
0.046875 -0.445312 0.097729 34 38 52
0.050781 -0.445312 0.097913 33 37 50
0.054688 -0.445312 0.097081 31 35 47
0.058594 -0.445312 0.095806 32 35 47
0.062500 -0.445312 0.094382 30 34 46
0.066406 -0.445312 0.092358 26 31 42
0.070312 -0.445312 0.089524 23 27 38
0.074219 -0.445312 0.086436 21 25 35
0.078125 -0.445312 0.083339 20 24 34
0.082031 -0.445312 0.081040 19 23 33
0.085938 -0.445312 0.080068 19 22 32
0.089844 -0.445312 0.079574 19 22 33
0.093750 -0.445312 0.079142 22 25 37
0.097656 -0.445312 0.077149 28 32 44
0.101562 -0.445312 0.072329 33 37 50
0.105469 -0.445312 0.066030 32 35 48
0.109375 -0.445312 0.057822 33 37 50
0.113281 -0.445312 0.049122 31 34 45
0.117188 -0.445312 0.040475 25 27 37
0.121094 -0.445312 0.026336 27 27 36
-0.257812 -0.449219 -0.001447 18 20 27
-0.253906 -0.449219 0.018237 18 19 24
-0.250000 -0.449219 0.024534 14 15 21
-0.246094 -0.449219 0.026954 18 18 27
-0.242188 -0.449219 0.027766 16 16 23
-0.238281 -0.449219 0.028014 15 15 22
-0.234375 -0.449219 0.028062 15 15 21
-0.230469 -0.449219 0.027864 15 15 21
-0.226562 -0.449219 0.027803 15 16 21
-0.222656 -0.449219 0.027945 15 17 22
-0.218750 -0.449219 0.028390 15 18 22
-0.214844 -0.449219 0.028774 15 18 23
-0.210938 -0.449219 0.029194 15 18 24
-0.207031 -0.449219 0.029834 15 18 24
-0.203125 -0.449219 0.030733 14 18 25
-0.199219 -0.449219 0.031815 15 18 26
-0.195312 -0.449219 0.033060 16 20 29
-0.191406 -0.449219 0.034425 17 22 31
-0.187500 -0.449219 0.035786 17 22 31
-0.183594 -0.449219 0.037139 17 22 31
-0.179688 -0.449219 0.038409 17 23 32
-0.175781 -0.449219 0.039627 17 23 32
-0.171875 -0.449219 0.040540 17 23 31
-0.167969 -0.449219 0.041209 17 22 31
-0.164062 -0.449219 0.041749 18 23 31
-0.160156 -0.449219 0.042264 19 24 32
-0.156250 -0.449219 0.042804 18 23 31
-0.152344 -0.449219 0.043189 16 20 28
-0.148438 -0.449219 0.043391 16 20 27
-0.144531 -0.449219 0.043724 16 20 28
-0.140625 -0.449219 0.044006 15 19 26
-0.136719 -0.449219 0.044449 14 17 24
-0.132812 -0.449219 0.045133 14 18 24
-0.128906 -0.449219 0.045665 17 21 28
-0.125000 -0.449219 0.047729 19 24 30
-0.121094 -0.449219 0.049349 18 22 27
-0.117188 -0.449219 0.048120 16 19 23
-0.113281 -0.449219 0.046135 14 17 19
-0.109375 -0.449219 0.043814 12 15 16
-0.105469 -0.449219 0.041603 12 15 15
-0.101562 -0.449219 0.038866 11 13 13
-0.097656 -0.449219 0.033936 6 7 8
-0.093750 -0.449219 0.027526 5 7 8
-0.089844 -0.449219 0.011732 9 9 11
-0.039062 -0.449219 0.039754 24 27 35
-0.035156 -0.449219 0.041543 20 23 33
-0.031250 -0.449219 0.040722 19 23 32
-0.027344 -0.449219 0.043089 19 23 31
-0.023438 -0.449219 0.049502 20 24 32
-0.019531 -0.449219 0.056592 20 25 33
-0.015625 -0.449219 0.063391 20 25 32
-0.011719 -0.449219 0.068748 20 24 31
-0.007812 -0.449219 0.072284 20 23 31
-0.003906 -0.449219 0.075288 20 23 31
0.000000 -0.449219 0.077817 20 23 32
0.003906 -0.449219 0.079694 20 23 32
0.007812 -0.449219 0.080800 20 23 33
0.011719 -0.449219 0.081824 20 23 33
0.015625 -0.449219 0.083108 18 21 32
0.019531 -0.449219 0.084593 18 20 31
0.023438 -0.449219 0.086422 18 20 32
0.027344 -0.449219 0.088372 19 22 34
0.031250 -0.449219 0.090347 21 24 36
0.035156 -0.449219 0.092242 23 26 39
0.039062 -0.449219 0.094046 27 30 43
0.042969 -0.449219 0.095757 31 34 48
0.046875 -0.449219 0.097009 34 37 51
0.050781 -0.449219 0.097284 35 38 52
0.054688 -0.449219 0.096537 33 36 50
0.058594 -0.449219 0.095342 32 36 49
0.062500 -0.449219 0.093957 30 34 47
0.066406 -0.449219 0.091917 27 32 45
0.070312 -0.449219 0.088997 24 29 41
0.074219 -0.449219 0.085754 22 27 38
0.078125 -0.449219 0.082465 21 25 36
0.082031 -0.449219 0.079989 19 23 33
0.085938 -0.449219 0.078820 18 21 31
0.089844 -0.449219 0.078158 19 22 32
0.093750 -0.449219 0.077646 22 25 35
0.097656 -0.449219 0.075791 26 30 42
0.101562 -0.449219 0.071347 31 35 46
0.105469 -0.449219 0.065590 29 33 45
0.109375 -0.449219 0.057971 32 36 48
0.113281 -0.449219 0.049955 31 34 46
0.117188 -0.449219 0.041282 26 28 38
0.121094 -0.449219 0.006305 27 27 36
-0.257812 -0.453125 -0.000258 19 22 28
-0.253906 -0.453125 0.018333 18 20 25
-0.250000 -0.453125 0.024299 14 15 22
-0.246094 -0.453125 0.026657 18 18 26
-0.242188 -0.453125 0.027363 15 15 23
-0.238281 -0.453125 0.027538 15 15 21
-0.234375 -0.453125 0.027574 15 15 21
-0.230469 -0.453125 0.027406 15 15 20
-0.226562 -0.453125 0.027420 15 16 21
-0.222656 -0.453125 0.027629 15 17 21
-0.218750 -0.453125 0.028150 15 17 22
-0.214844 -0.453125 0.028598 15 18 23
-0.210938 -0.453125 0.029051 15 18 24
-0.207031 -0.453125 0.029710 15 18 25
-0.203125 -0.453125 0.030614 14 18 25
-0.199219 -0.453125 0.031689 15 18 26
-0.195312 -0.453125 0.032899 16 20 29
-0.191406 -0.453125 0.034239 16 21 30
-0.187500 -0.453125 0.035601 16 21 30
-0.183594 -0.453125 0.036995 16 21 30
-0.179688 -0.453125 0.038401 17 23 31
-0.175781 -0.453125 0.039749 17 23 31
-0.171875 -0.453125 0.040732 17 23 31
-0.167969 -0.453125 0.041439 17 23 31
-0.164062 -0.453125 0.041967 18 23 31
-0.160156 -0.453125 0.042467 18 24 32
-0.156250 -0.453125 0.042996 18 23 31
-0.152344 -0.453125 0.043395 16 21 29
-0.148438 -0.453125 0.043586 16 20 27
-0.144531 -0.453125 0.043867 16 20 27
-0.140625 -0.453125 0.044125 14 18 24
-0.136719 -0.453125 0.044548 14 17 23
-0.132812 -0.453125 0.045222 15 19 25
-0.128906 -0.453125 0.045707 18 22 29
-0.125000 -0.453125 0.047524 19 23 29
-0.121094 -0.453125 0.048424 17 21 26
-0.117188 -0.453125 0.047416 15 19 22
-0.113281 -0.453125 0.045831 14 17 19
-0.109375 -0.453125 0.044007 13 16 16
-0.105469 -0.453125 0.041942 12 15 15
-0.101562 -0.453125 0.039356 11 13 13
-0.097656 -0.453125 0.034709 6 8 9
-0.093750 -0.453125 0.028247 6 8 9
-0.089844 -0.453125 0.017257 8 9 10
-0.039062 -0.453125 0.038513 23 26 35
-0.035156 -0.453125 0.041764 20 23 33
-0.031250 -0.453125 0.041385 20 23 33
-0.027344 -0.453125 0.044109 19 23 31
-0.023438 -0.453125 0.050172 20 24 32
-0.019531 -0.453125 0.056863 20 25 32
-0.015625 -0.453125 0.063340 20 24 32
-0.011719 -0.453125 0.068490 20 24 31
-0.007812 -0.453125 0.071971 20 24 32
-0.003906 -0.453125 0.074902 20 24 32
0.000000 -0.453125 0.077338 20 23 31
0.003906 -0.453125 0.079178 19 22 31
0.007812 -0.453125 0.080315 20 23 32
0.011719 -0.453125 0.081375 19 23 33
0.015625 -0.453125 0.082687 18 21 32
0.019531 -0.453125 0.084137 18 21 32
0.023438 -0.453125 0.085853 18 21 32
0.027344 -0.453125 0.087677 19 22 33
0.031250 -0.453125 0.089552 21 24 36
0.035156 -0.453125 0.091405 23 25 38
0.039062 -0.453125 0.093232 26 29 42
0.042969 -0.453125 0.094984 30 32 46
0.046875 -0.453125 0.096272 33 35 49
0.050781 -0.453125 0.096603 34 37 51
0.054688 -0.453125 0.095938 33 37 50
0.058594 -0.453125 0.094830 32 36 49
0.062500 -0.453125 0.093491 30 34 47
0.066406 -0.453125 0.091468 28 32 45
0.070312 -0.453125 0.088527 25 29 42
0.074219 -0.453125 0.085208 22 27 39
0.078125 -0.453125 0.081824 20 25 36
0.082031 -0.453125 0.079235 19 23 34
0.085938 -0.453125 0.077866 18 22 32
0.089844 -0.453125 0.076981 19 22 32
0.093750 -0.453125 0.076286 21 24 34
0.097656 -0.453125 0.074502 25 29 39
0.101562 -0.453125 0.070388 29 33 44
0.105469 -0.453125 0.065081 28 33 44
0.109375 -0.453125 0.058026 32 36 48
0.113281 -0.453125 0.050450 30 33 44
0.117188 -0.453125 0.041753 25 27 37
-0.257812 -0.457031 0.001694 15 17 23
-0.253906 -0.457031 0.018662 17 19 25
-0.250000 -0.457031 0.024192 14 16 23
-0.246094 -0.457031 0.026448 17 18 26
-0.242188 -0.457031 0.027095 16 16 23
-0.238281 -0.457031 0.027172 16 15 22
-0.234375 -0.457031 0.027142 15 15 21
-0.230469 -0.457031 0.026964 15 15 20
-0.226562 -0.457031 0.027029 15 16 21
-0.222656 -0.457031 0.027292 15 17 21
-0.218750 -0.457031 0.027883 15 17 22
-0.214844 -0.457031 0.028403 15 18 23
-0.210938 -0.457031 0.028893 15 18 24
-0.207031 -0.457031 0.029575 15 18 24
-0.203125 -0.457031 0.030494 14 18 24
-0.199219 -0.457031 0.031567 14 18 25
-0.195312 -0.457031 0.032760 15 19 28
-0.191406 -0.457031 0.034095 16 20 29
-0.187500 -0.457031 0.035505 16 21 29
-0.183594 -0.457031 0.036985 16 22 30
-0.179688 -0.457031 0.038488 17 23 31
-0.175781 -0.457031 0.039914 17 23 31
-0.171875 -0.457031 0.040932 17 23 30
-0.167969 -0.457031 0.041653 17 22 30
-0.164062 -0.457031 0.042165 17 22 30
-0.160156 -0.457031 0.042645 17 22 30
-0.156250 -0.457031 0.043176 17 22 29
-0.152344 -0.457031 0.043606 17 22 30
-0.148438 -0.457031 0.043787 16 21 28
-0.144531 -0.457031 0.043994 15 19 26
-0.140625 -0.457031 0.044281 14 17 24
-0.136719 -0.457031 0.044726 14 18 23
-0.132812 -0.457031 0.045391 16 20 26
-0.128906 -0.457031 0.045932 19 23 29
-0.125000 -0.457031 0.047232 18 22 28
-0.121094 -0.457031 0.047543 15 19 23
-0.117188 -0.457031 0.046824 14 17 21
-0.113281 -0.457031 0.045677 14 17 19
-0.109375 -0.457031 0.044310 13 17 17
-0.105469 -0.457031 0.042523 13 16 16
-0.101562 -0.457031 0.039988 11 13 13
-0.097656 -0.457031 0.035715 7 9 10
-0.093750 -0.457031 0.029527 7 8 9
-0.089844 -0.457031 0.018270 7 8 9
-0.039062 -0.457031 0.037212 23 26 35
-0.035156 -0.457031 0.041924 20 23 33
-0.031250 -0.457031 0.042013 20 23 32
-0.027344 -0.457031 0.045046 19 22 31
-0.023438 -0.457031 0.050791 20 24 31
-0.019531 -0.457031 0.057148 20 25 32
-0.015625 -0.457031 0.063317 20 24 32
-0.011719 -0.457031 0.068258 20 24 32
-0.007812 -0.457031 0.071673 20 24 32
-0.003906 -0.457031 0.074522 20 24 32
0.000000 -0.457031 0.076880 19 22 31
0.003906 -0.457031 0.078704 19 22 30
0.007812 -0.457031 0.079883 19 22 31
0.011719 -0.457031 0.081002 19 22 32
0.015625 -0.457031 0.082365 18 21 31
0.019531 -0.457031 0.083797 18 20 31
0.023438 -0.457031 0.085412 18 20 31
0.027344 -0.457031 0.087122 19 21 32
0.031250 -0.457031 0.088898 20 23 34
0.035156 -0.457031 0.090685 22 25 37
0.039062 -0.457031 0.092480 25 28 40
0.042969 -0.457031 0.094211 28 30 44
0.046875 -0.457031 0.095497 31 33 47
0.050781 -0.457031 0.095880 33 36 49
0.054688 -0.457031 0.095292 33 36 50
0.058594 -0.457031 0.094260 33 37 50
0.062500 -0.457031 0.092995 31 35 48
0.066406 -0.457031 0.091030 28 32 46
0.070312 -0.457031 0.088107 25 29 42
0.074219 -0.457031 0.084780 22 26 39
0.078125 -0.457031 0.081373 20 24 36
0.082031 -0.457031 0.078715 19 23 34
0.085938 -0.457031 0.077175 19 23 33
0.089844 -0.457031 0.076054 19 23 33
0.093750 -0.457031 0.075159 20 24 33
0.097656 -0.457031 0.073396 23 27 37
0.101562 -0.457031 0.069548 28 32 42
0.105469 -0.457031 0.064599 29 33 44
0.109375 -0.457031 0.057980 32 36 48
0.113281 -0.457031 0.050616 30 33 44
0.117188 -0.457031 0.042124 26 28 38
0.121094 -0.457031 0.009729 24 24 33
-0.257812 -0.460938 0.003067 13 14 20
-0.253906 -0.460938 0.018688 16 19 26
-0.250000 -0.460938 0.023911 15 17 24
-0.246094 -0.460938 0.026197 17 18 27
-0.242188 -0.460938 0.026864 16 16 24
-0.238281 -0.460938 0.026851 16 16 22
-0.234375 -0.460938 0.026744 15 15 21
-0.230469 -0.460938 0.026553 15 15 20
-0.226562 -0.460938 0.026642 15 16 20
-0.222656 -0.460938 0.026936 14 17 21
-0.218750 -0.460938 0.027584 15 17 22
-0.214844 -0.460938 0.028167 15 18 23
-0.210938 -0.460938 0.028715 15 18 23
-0.207031 -0.460938 0.029452 15 18 24
-0.203125 -0.460938 0.030401 15 18 24
-0.199219 -0.460938 0.031478 14 17 25
-0.195312 -0.460938 0.032647 15 18 27
-0.191406 -0.460938 0.033960 16 20 28
-0.187500 -0.460938 0.035422 16 21 30
-0.183594 -0.460938 0.036986 17 23 31
-0.179688 -0.460938 0.038606 18 23 31
-0.175781 -0.460938 0.040162 17 23 31
-0.171875 -0.460938 0.041241 17 22 30
-0.167969 -0.460938 0.041985 16 21 28
-0.164062 -0.460938 0.042476 16 21 28
-0.160156 -0.460938 0.042914 16 21 28
-0.156250 -0.460938 0.043409 16 21 28
-0.152344 -0.460938 0.043813 17 22 30
-0.148438 -0.460938 0.043959 16 21 28
-0.144531 -0.460938 0.044124 15 19 25
-0.140625 -0.460938 0.044489 14 17 24
-0.136719 -0.460938 0.044973 15 19 25
-0.132812 -0.460938 0.045623 17 21 27
-0.128906 -0.460938 0.046262 18 22 28
-0.125000 -0.460938 0.046860 17 20 26
-0.121094 -0.460938 0.046892 14 18 22
-0.117188 -0.460938 0.046447 13 17 20
-0.113281 -0.460938 0.045661 14 17 19
-0.109375 -0.460938 0.044632 14 17 18
-0.105469 -0.460938 0.043130 13 16 16
-0.101562 -0.460938 0.040655 11 14 14
-0.097656 -0.460938 0.036737 7 9 10
-0.093750 -0.460938 0.031258 7 9 10
-0.089844 -0.460938 0.021290 9 11 12
-0.039062 -0.460938 0.035618 24 27 36
-0.035156 -0.460938 0.041827 20 23 33
-0.031250 -0.460938 0.042467 19 22 32
-0.027344 -0.460938 0.045774 19 22 30
-0.023438 -0.460938 0.051266 20 23 31
-0.019531 -0.460938 0.057359 20 24 32
-0.015625 -0.460938 0.063260 20 24 32
-0.011719 -0.460938 0.068000 19 23 31
-0.007812 -0.460938 0.071350 19 23 31
-0.003906 -0.460938 0.074138 19 22 30
0.000000 -0.460938 0.076449 18 21 29
0.003906 -0.460938 0.078284 18 21 29
0.007812 -0.460938 0.079528 19 21 30
0.011719 -0.460938 0.080715 19 21 31
0.015625 -0.460938 0.082123 18 21 31
0.019531 -0.460938 0.083548 18 20 31
0.023438 -0.460938 0.085088 18 20 32
0.027344 -0.460938 0.086709 19 21 33
0.031250 -0.460938 0.088397 21 23 35
0.035156 -0.460938 0.090107 23 25 37
0.039062 -0.460938 0.091844 25 28 41
0.042969 -0.460938 0.093521 28 30 44
0.046875 -0.460938 0.094771 31 33 46
0.050781 -0.460938 0.095162 32 34 48
0.054688 -0.460938 0.094627 32 35 49
0.058594 -0.460938 0.093685 33 36 50
0.062500 -0.460938 0.092526 31 35 49
0.066406 -0.460938 0.090646 29 33 47
0.070312 -0.460938 0.087779 26 30 43
0.074219 -0.460938 0.084491 23 27 40
0.078125 -0.460938 0.081106 20 24 37
0.082031 -0.460938 0.078396 20 25 36
0.085938 -0.460938 0.076689 21 25 35
0.089844 -0.460938 0.075340 20 24 33
0.093750 -0.460938 0.074233 20 24 33
0.097656 -0.460938 0.072442 22 26 36
0.101562 -0.460938 0.068800 26 30 40
0.105469 -0.460938 0.064053 28 32 43
0.109375 -0.460938 0.057760 30 35 46
0.113281 -0.460938 0.050732 29 33 44
0.117188 -0.460938 0.042134 28 30 41
0.121094 -0.460938 0.017242 27 27 37
-0.257812 -0.464844 0.003432 14 16 23
-0.253906 -0.464844 0.018335 18 21 28
-0.250000 -0.464844 0.023643 15 17 25
-0.246094 -0.464844 0.025947 17 18 26
-0.242188 -0.464844 0.026622 16 16 24
-0.238281 -0.464844 0.026528 16 16 23
-0.234375 -0.464844 0.026343 15 15 21
-0.230469 -0.464844 0.026122 14 15 20
-0.226562 -0.464844 0.026200 14 16 20
-0.222656 -0.464844 0.026499 14 16 20
-0.218750 -0.464844 0.027186 14 17 21
-0.214844 -0.464844 0.027836 15 18 23
-0.210938 -0.464844 0.028464 15 18 24
-0.207031 -0.464844 0.029285 15 18 24
-0.203125 -0.464844 0.030288 15 18 24
-0.199219 -0.464844 0.031377 14 17 24
-0.195312 -0.464844 0.032519 14 17 25
-0.191406 -0.464844 0.033800 15 19 27
-0.187500 -0.464844 0.035295 16 20 29
-0.183594 -0.464844 0.036950 17 22 31
-0.179688 -0.464844 0.038748 17 23 31
-0.175781 -0.464844 0.040478 17 22 30
-0.171875 -0.464844 0.041668 17 22 29
-0.167969 -0.464844 0.042466 16 20 28
-0.164062 -0.464844 0.042922 16 20 28
-0.160156 -0.464844 0.043283 16 20 28
-0.156250 -0.464844 0.043700 16 20 28
-0.152344 -0.464844 0.044042 17 21 29
-0.148438 -0.464844 0.044150 15 20 27
-0.144531 -0.464844 0.044265 14 17 24
-0.140625 -0.464844 0.044748 14 17 24
-0.136719 -0.464844 0.045422 16 20 26
-0.132812 -0.464844 0.046129 18 22 28
-0.128906 -0.464844 0.046498 17 21 27
-0.125000 -0.464844 0.046552 15 19 24
-0.121094 -0.464844 0.046521 14 17 22
-0.117188 -0.464844 0.046293 14 17 21
-0.113281 -0.464844 0.045756 14 18 20
-0.109375 -0.464844 0.044970 14 17 18
-0.105469 -0.464844 0.043767 13 16 16
-0.101562 -0.464844 0.041421 11 14 14
-0.097656 -0.464844 0.037973 8 10 11
-0.093750 -0.464844 0.033094 8 9 10
-0.089844 -0.464844 0.024706 10 13 14
-0.039062 -0.464844 0.030786 25 27 36
-0.035156 -0.464844 0.041519 20 23 33
-0.031250 -0.464844 0.042858 19 22 31
-0.027344 -0.464844 0.046299 19 22 30
-0.023438 -0.464844 0.051550 19 23 31
-0.019531 -0.464844 0.057439 19 24 32
-0.015625 -0.464844 0.063107 19 24 32
-0.011719 -0.464844 0.067652 19 23 31
-0.007812 -0.464844 0.070957 18 22 30
-0.003906 -0.464844 0.073728 18 21 28
0.000000 -0.464844 0.076033 17 20 28
0.003906 -0.464844 0.077899 18 21 29
0.007812 -0.464844 0.079214 19 22 30
0.011719 -0.464844 0.080466 19 21 31
0.015625 -0.464844 0.081907 18 21 31
0.019531 -0.464844 0.083327 18 20 31
0.023438 -0.464844 0.084809 19 21 32
0.027344 -0.464844 0.086356 20 22 34
0.031250 -0.464844 0.087968 21 24 36
0.035156 -0.464844 0.089609 23 26 38
0.039062 -0.464844 0.091274 26 29 41
0.042969 -0.464844 0.092873 28 31 44
0.046875 -0.464844 0.094058 31 33 47
0.050781 -0.464844 0.094427 32 34 47
0.054688 -0.464844 0.093948 31 34 47
0.058594 -0.464844 0.093125 32 35 48
0.062500 -0.464844 0.092097 32 35 49
0.066406 -0.464844 0.090328 31 35 48
0.070312 -0.464844 0.087532 27 32 45
0.074219 -0.464844 0.084292 24 28 41
0.078125 -0.464844 0.080937 21 25 38
0.082031 -0.464844 0.078185 21 26 37
0.085938 -0.464844 0.076326 21 26 36
0.089844 -0.464844 0.074776 20 24 34
0.093750 -0.464844 0.073508 20 24 33
0.097656 -0.464844 0.071672 22 26 35
0.101562 -0.464844 0.068153 25 29 39
0.105469 -0.464844 0.063563 26 30 40
0.109375 -0.464844 0.057607 28 32 43
0.113281 -0.464844 0.050873 28 31 42
0.117188 -0.464844 0.042061 29 32 43
0.121094 -0.464844 0.022311 28 28 37
-0.261719 -0.468750 -0.014377 11 12 17
-0.257812 -0.468750 0.004060 14 16 23
-0.253906 -0.468750 0.017664 18 22 30
-0.250000 -0.468750 0.023226 15 18 26
-0.246094 -0.468750 0.025610 16 18 26
-0.242188 -0.468750 0.026320 16 17 24
-0.238281 -0.468750 0.026185 15 16 23
-0.234375 -0.468750 0.025957 14 15 21
-0.230469 -0.468750 0.025707 14 15 20
-0.226562 -0.468750 0.025747 13 15 20
-0.222656 -0.468750 0.026024 13 16 20
-0.218750 -0.468750 0.026741 14 16 21
-0.214844 -0.468750 0.027448 15 17 22
-0.210938 -0.468750 0.028160 15 18 23
-0.207031 -0.468750 0.029071 15 18 24
-0.203125 -0.468750 0.030146 15 17 24
-0.199219 -0.468750 0.031290 14 16 23
-0.195312 -0.468750 0.032413 14 17 24
-0.191406 -0.468750 0.033661 15 17 25
-0.187500 -0.468750 0.035189 15 19 27
-0.183594 -0.468750 0.036930 16 21 29
-0.179688 -0.468750 0.038918 17 21 29
-0.175781 -0.468750 0.040830 17 21 29
-0.171875 -0.468750 0.042146 17 21 29
-0.167969 -0.468750 0.043004 16 21 28
-0.164062 -0.468750 0.043407 17 22 29
-0.160156 -0.468750 0.043665 17 21 29
-0.156250 -0.468750 0.043981 16 21 28
-0.152344 -0.468750 0.044247 16 20 27
-0.148438 -0.468750 0.044316 14 18 25
-0.144531 -0.468750 0.044398 13 17 23
-0.140625 -0.468750 0.044992 15 18 25
-0.136719 -0.468750 0.045820 18 22 29
-0.132812 -0.468750 0.046373 18 22 29
-0.128906 -0.468750 0.046405 16 19 26
-0.125000 -0.468750 0.046232 14 18 23
-0.121094 -0.468750 0.046176 14 18 22
-0.117188 -0.468750 0.046107 14 18 21
-0.113281 -0.468750 0.045777 14 17 20
-0.109375 -0.468750 0.045246 13 17 18
-0.105469 -0.468750 0.044348 13 16 17
-0.101562 -0.468750 0.042177 12 15 15
-0.097656 -0.468750 0.039081 9 11 12
-0.093750 -0.468750 0.034637 9 10 11
-0.089844 -0.468750 0.027766 9 11 13
-0.035156 -0.468750 0.041381 20 23 33
-0.031250 -0.468750 0.043080 19 22 32
-0.027344 -0.468750 0.046632 19 22 30
-0.023438 -0.468750 0.051670 19 22 31
-0.019531 -0.468750 0.057374 19 23 31
-0.015625 -0.468750 0.062839 19 24 32
-0.011719 -0.468750 0.067227 18 23 30
-0.007812 -0.468750 0.070518 18 22 29
-0.003906 -0.468750 0.073298 17 21 27
0.000000 -0.468750 0.075618 17 20 27
0.003906 -0.468750 0.077528 18 21 29
0.007812 -0.468750 0.078914 19 22 30
0.011719 -0.468750 0.080227 19 21 30
0.015625 -0.468750 0.081700 18 20 30
0.019531 -0.468750 0.083106 18 20 30
0.023438 -0.468750 0.084514 18 20 31
0.027344 -0.468750 0.085972 19 21 32
0.031250 -0.468750 0.087501 20 23 34
0.035156 -0.468750 0.089069 22 24 36
0.039062 -0.468750 0.090653 24 27 39
0.042969 -0.468750 0.092158 27 29 42
0.046875 -0.468750 0.093267 30 32 45
0.050781 -0.468750 0.093635 31 33 46
0.054688 -0.468750 0.093249 30 33 46
0.058594 -0.468750 0.092556 31 34 47
0.062500 -0.468750 0.091668 32 35 48
0.066406 -0.468750 0.090021 31 35 48
0.070312 -0.468750 0.087314 28 32 46
0.074219 -0.468750 0.084145 25 29 42
0.078125 -0.468750 0.080828 22 26 39
0.082031 -0.468750 0.078040 22 26 38
0.085938 -0.468750 0.076059 21 26 36
0.089844 -0.468750 0.074367 20 24 34
0.093750 -0.468750 0.072985 20 24 33
0.097656 -0.468750 0.071074 22 26 36
0.101562 -0.468750 0.067606 25 29 39
0.105469 -0.468750 0.063131 25 29 39
0.109375 -0.468750 0.057416 26 30 41
0.113281 -0.468750 0.050912 26 29 40
0.117188 -0.468750 0.042181 28 30 41
0.121094 -0.468750 0.022953 26 25 35
-0.261719 -0.472656 -0.011976 13 14 20
-0.257812 -0.472656 0.005055 15 17 25
-0.253906 -0.472656 0.016777 19 23 32
-0.250000 -0.472656 0.022662 16 19 28
-0.246094 -0.472656 0.025213 16 18 27
-0.242188 -0.472656 0.025945 15 17 25
-0.238281 -0.472656 0.025808 15 16 23
-0.234375 -0.472656 0.025576 14 15 22
-0.230469 -0.472656 0.025297 13 15 20
-0.226562 -0.472656 0.025250 12 15 19
-0.222656 -0.472656 0.025459 13 15 19
-0.218750 -0.472656 0.026161 13 16 20
-0.214844 -0.472656 0.026908 14 17 21
-0.210938 -0.472656 0.027728 15 17 22
-0.207031 -0.472656 0.028763 15 18 23
-0.203125 -0.472656 0.029946 15 17 23
-0.199219 -0.472656 0.031190 15 17 23
-0.195312 -0.472656 0.032325 15 17 24
-0.191406 -0.472656 0.033596 15 17 24
-0.187500 -0.472656 0.035168 15 18 25
-0.183594 -0.472656 0.036974 16 19 27
-0.179688 -0.472656 0.039138 16 20 28
-0.175781 -0.472656 0.041209 17 20 28
-0.171875 -0.472656 0.042606 17 21 29
-0.167969 -0.472656 0.043506 17 21 29
-0.164062 -0.472656 0.043856 18 22 29
-0.160156 -0.472656 0.044020 17 21 28
-0.156250 -0.472656 0.044245 16 20 27
-0.152344 -0.472656 0.044435 16 20 27
-0.148438 -0.472656 0.044497 14 17 24
-0.144531 -0.472656 0.044613 13 16 22
-0.140625 -0.472656 0.045277 15 18 25
-0.136719 -0.472656 0.046107 18 22 30
-0.132812 -0.472656 0.046393 18 22 29
-0.128906 -0.472656 0.046174 15 18 25
-0.125000 -0.472656 0.045937 13 17 23
-0.121094 -0.472656 0.045900 14 18 23
-0.117188 -0.472656 0.045931 14 18 22
-0.113281 -0.472656 0.045749 14 17 20
-0.109375 -0.472656 0.045475 13 17 18
-0.105469 -0.472656 0.044888 14 17 17
-0.101562 -0.472656 0.042976 13 16 16
-0.097656 -0.472656 0.040122 10 13 13
-0.093750 -0.472656 0.036030 10 12 13
-0.089844 -0.472656 0.030405 9 11 14
-0.035156 -0.472656 0.041471 20 23 33
-0.031250 -0.472656 0.043142 19 22 32
-0.027344 -0.472656 0.046760 19 22 30
-0.023438 -0.472656 0.051656 18 22 31
-0.019531 -0.472656 0.057219 19 23 32
-0.015625 -0.472656 0.062508 19 24 31
-0.011719 -0.472656 0.066773 18 22 30
-0.007812 -0.472656 0.070071 17 21 28
-0.003906 -0.472656 0.072884 17 21 27
0.000000 -0.472656 0.075229 17 21 27
0.003906 -0.472656 0.077177 18 21 28
0.007812 -0.472656 0.078625 19 22 29
0.011719 -0.472656 0.079991 19 22 30
0.015625 -0.472656 0.081495 18 21 29
0.019531 -0.472656 0.082876 17 20 29
0.023438 -0.472656 0.084201 17 20 30
0.027344 -0.472656 0.085568 18 21 31
0.031250 -0.472656 0.087015 19 22 32
0.035156 -0.472656 0.088506 21 23 34
0.039062 -0.472656 0.090013 23 25 37
0.042969 -0.472656 0.091431 25 27 40
0.046875 -0.472656 0.092463 27 30 43
0.050781 -0.472656 0.092840 28 31 44
0.054688 -0.472656 0.092571 29 31 45
0.058594 -0.472656 0.092022 30 33 46
0.062500 -0.472656 0.091267 31 34 48
0.066406 -0.472656 0.089746 31 35 48
0.070312 -0.472656 0.087142 29 33 46
0.074219 -0.472656 0.084052 26 30 42
0.078125 -0.472656 0.080775 23 27 39
0.082031 -0.472656 0.077950 22 26 37
0.085938 -0.472656 0.075846 21 25 35
0.089844 -0.472656 0.074027 20 24 34
0.093750 -0.472656 0.072540 21 25 34
0.097656 -0.472656 0.070543 23 27 37
0.101562 -0.472656 0.067087 25 29 39
0.105469 -0.472656 0.062659 25 29 38
0.109375 -0.472656 0.057116 25 29 40
0.113281 -0.472656 0.050896 25 29 39
0.117188 -0.472656 0.042289 27 29 40
0.121094 -0.472656 0.018351 24 24 33
-0.261719 -0.476562 -0.010085 15 16 23
-0.257812 -0.476562 0.005550 15 17 25
-0.253906 -0.476562 0.015992 19 23 32
-0.250000 -0.476562 0.022038 16 19 28
-0.246094 -0.476562 0.024743 16 18 28
-0.242188 -0.476562 0.025578 15 17 26
-0.238281 -0.476562 0.025500 14 16 24
-0.234375 -0.476562 0.025291 13 15 22
-0.230469 -0.476562 0.024983 12 14 20
-0.226562 -0.476562 0.024797 11 14 19
-0.222656 -0.476562 0.024876 12 15 19
-0.218750 -0.476562 0.025505 13 15 19
-0.214844 -0.476562 0.026262 14 16 20
-0.210938 -0.476562 0.027202 14 16 21
-0.207031 -0.476562 0.028371 15 17 22
-0.203125 -0.476562 0.029676 15 17 23
-0.199219 -0.476562 0.031009 16 17 24
-0.195312 -0.476562 0.032197 16 17 24
-0.191406 -0.476562 0.033557 15 17 24
-0.187500 -0.476562 0.035219 16 18 26
-0.183594 -0.476562 0.037147 16 19 27
-0.179688 -0.476562 0.039452 17 19 27
-0.175781 -0.476562 0.041591 17 20 27
-0.171875 -0.476562 0.043007 17 21 28
-0.167969 -0.476562 0.043895 18 22 29
-0.164062 -0.476562 0.044203 18 21 29
-0.160156 -0.476562 0.044336 16 20 27
-0.156250 -0.476562 0.044511 16 20 27
-0.152344 -0.476562 0.044634 16 19 26
-0.148438 -0.476562 0.044698 14 17 24
-0.144531 -0.476562 0.044866 13 17 23
-0.140625 -0.476562 0.045513 15 19 26
-0.136719 -0.476562 0.046163 17 22 30
-0.132812 -0.476562 0.046175 17 21 28
-0.128906 -0.476562 0.045850 14 18 26
-0.125000 -0.476562 0.045614 14 18 25
-0.121094 -0.476562 0.045595 15 19 25
-0.117188 -0.476562 0.045695 15 19 23
-0.113281 -0.476562 0.045653 14 18 21
-0.109375 -0.476562 0.045595 14 17 19
-0.105469 -0.476562 0.045228 14 18 18
-0.101562 -0.476562 0.043496 13 17 17
-0.097656 -0.476562 0.040907 12 15 15
-0.093750 -0.476562 0.037275 11 14 15
-0.089844 -0.476562 0.032172 9 11 14
-0.085938 -0.476562 0.008103 5 5 8
-0.035156 -0.476562 0.041465 20 23 33
-0.031250 -0.476562 0.043050 19 23 32
-0.027344 -0.476562 0.046707 19 22 31
-0.023438 -0.476562 0.051540 19 23 31
-0.019531 -0.476562 0.056998 19 23 32
-0.015625 -0.476562 0.062154 18 23 31
-0.011719 -0.476562 0.066344 17 22 29
-0.007812 -0.476562 0.069674 17 21 28
-0.003906 -0.476562 0.072524 17 21 27
0.000000 -0.476562 0.074890 17 20 26
0.003906 -0.476562 0.076870 17 20 26
0.007812 -0.476562 0.078372 18 21 27
0.011719 -0.476562 0.079782 18 21 29
0.015625 -0.476562 0.081313 18 21 29
0.019531 -0.476562 0.082668 18 20 29
0.023438 -0.476562 0.083911 18 20 29
0.027344 -0.476562 0.085194 18 21 31
0.031250 -0.476562 0.086565 19 22 32
0.035156 -0.476562 0.087973 21 23 34
0.039062 -0.476562 0.089387 23 26 37
0.042969 -0.476562 0.090709 25 28 40
0.046875 -0.476562 0.091661 27 29 43
0.050781 -0.476562 0.092043 27 30 44
0.054688 -0.476562 0.091892 28 31 45
0.058594 -0.476562 0.091485 30 33 47
0.062500 -0.476562 0.090860 31 34 48
0.066406 -0.476562 0.089466 31 34 47
0.070312 -0.476562 0.086989 28 32 45
0.074219 -0.476562 0.084002 25 29 42
0.078125 -0.476562 0.080792 23 27 39
0.082031 -0.476562 0.077962 21 25 37
0.085938 -0.476562 0.075743 20 24 34
0.089844 -0.476562 0.073784 20 24 34
0.093750 -0.476562 0.072176 22 25 35
0.097656 -0.476562 0.070079 24 28 37
0.101562 -0.476562 0.066595 25 29 38
0.105469 -0.476562 0.062219 24 28 38
0.109375 -0.476562 0.056819 25 29 40
0.113281 -0.476562 0.050752 25 29 40
0.117188 -0.476562 0.042414 27 29 40
0.121094 -0.476562 0.016995 23 22 31
-0.261719 -0.480469 -0.009457 15 17 23
-0.257812 -0.480469 0.005573 16 18 26
-0.253906 -0.480469 0.015315 19 23 33
-0.250000 -0.480469 0.021315 16 20 30
-0.246094 -0.480469 0.024247 16 20 30
-0.242188 -0.480469 0.025283 16 19 28
-0.238281 -0.480469 0.025339 15 18 26
-0.234375 -0.480469 0.025209 13 16 23
-0.230469 -0.480469 0.024874 12 14 20
-0.226562 -0.480469 0.024490 11 14 19
-0.222656 -0.480469 0.024351 12 14 19
-0.218750 -0.480469 0.024829 13 15 19
-0.214844 -0.480469 0.025537 14 16 20
-0.210938 -0.480469 0.026580 15 16 20
-0.207031 -0.480469 0.027885 15 16 21
-0.203125 -0.480469 0.029308 16 16 22
-0.199219 -0.480469 0.030738 16 17 23
-0.195312 -0.480469 0.032052 16 17 24
-0.191406 -0.480469 0.033532 16 17 24
-0.187500 -0.480469 0.035325 17 18 26
-0.183594 -0.480469 0.037458 17 19 27
-0.179688 -0.480469 0.039842 17 19 27
-0.175781 -0.480469 0.041979 17 19 27
-0.171875 -0.480469 0.043364 18 20 28
-0.167969 -0.480469 0.044206 18 21 28
-0.164062 -0.480469 0.044520 18 21 28
-0.160156 -0.480469 0.044679 17 20 27
-0.156250 -0.480469 0.044839 16 20 27
-0.152344 -0.480469 0.044871 15 18 25
-0.148438 -0.480469 0.044932 14 17 24
-0.144531 -0.480469 0.045182 15 19 26
-0.140625 -0.480469 0.045707 16 21 29
-0.136719 -0.480469 0.046031 17 22 29
-0.132812 -0.480469 0.045821 16 20 28
-0.128906 -0.480469 0.045495 15 19 26
-0.125000 -0.480469 0.045324 15 19 26
-0.121094 -0.480469 0.045332 15 20 26
-0.117188 -0.480469 0.045471 15 19 24
-0.113281 -0.480469 0.045543 15 18 22
-0.109375 -0.480469 0.045644 14 17 19
-0.105469 -0.480469 0.045425 14 17 19
-0.101562 -0.480469 0.043845 13 17 17
-0.097656 -0.480469 0.041622 12 15 15
-0.093750 -0.480469 0.038533 11 14 14
-0.089844 -0.480469 0.033366 8 9 11
-0.085938 -0.480469 0.015639 5 5 8
-0.035156 -0.480469 0.041223 20 23 33
-0.031250 -0.480469 0.042710 19 22 32
-0.027344 -0.480469 0.046387 19 22 31
-0.023438 -0.480469 0.051245 19 23 32
-0.019531 -0.480469 0.056650 18 23 32
-0.015625 -0.480469 0.061747 18 23 30
-0.011719 -0.480469 0.065934 17 22 29
-0.007812 -0.480469 0.069317 17 21 28
-0.003906 -0.480469 0.072199 17 21 27
0.000000 -0.480469 0.074575 17 20 26
0.003906 -0.480469 0.076577 17 20 26
0.007812 -0.480469 0.078123 17 20 27
0.011719 -0.480469 0.079569 18 21 28
0.015625 -0.480469 0.081114 17 20 28
0.019531 -0.480469 0.082436 17 20 28
0.023438 -0.480469 0.083601 17 20 29
0.027344 -0.480469 0.084805 18 21 30
0.031250 -0.480469 0.086104 19 22 31
0.035156 -0.480469 0.087431 21 23 33
0.039062 -0.480469 0.088749 22 25 36
0.042969 -0.480469 0.089971 24 27 39
0.046875 -0.480469 0.090855 26 29 41
0.050781 -0.480469 0.091247 27 30 43
0.054688 -0.480469 0.091195 27 31 44
0.058594 -0.480469 0.090918 29 32 46
0.062500 -0.480469 0.090407 30 34 47
0.066406 -0.480469 0.089142 30 34 47
0.070312 -0.480469 0.086843 28 32 45
0.074219 -0.480469 0.084019 25 29 42
0.078125 -0.480469 0.080914 23 27 39
0.082031 -0.480469 0.078079 22 26 37
0.085938 -0.480469 0.075708 20 24 35
0.089844 -0.480469 0.073559 20 24 34
0.093750 -0.480469 0.071763 22 26 35
0.097656 -0.480469 0.069528 23 28 37
0.101562 -0.480469 0.066033 24 28 38
0.105469 -0.480469 0.061719 23 27 37
0.109375 -0.480469 0.056416 25 29 40
0.113281 -0.480469 0.050396 25 29 40
0.117188 -0.480469 0.042442 28 31 42
0.121094 -0.480469 0.019457 24 24 33
-0.261719 -0.484375 -0.009242 17 19 26
-0.257812 -0.484375 0.005572 17 19 28
-0.253906 -0.484375 0.014698 18 23 33
-0.250000 -0.484375 0.020512 16 20 31
-0.246094 -0.484375 0.023596 17 21 32
-0.242188 -0.484375 0.024929 16 21 31
-0.238281 -0.484375 0.025215 16 20 29
-0.234375 -0.484375 0.025207 15 18 25
-0.230469 -0.484375 0.024842 13 16 22
-0.226562 -0.484375 0.024207 12 15 20
-0.222656 -0.484375 0.023791 12 14 19
-0.218750 -0.484375 0.024052 13 14 19
-0.214844 -0.484375 0.024668 14 15 19
-0.210938 -0.484375 0.025802 15 16 20
-0.207031 -0.484375 0.027239 15 16 21
-0.203125 -0.484375 0.028772 16 16 21
-0.199219 -0.484375 0.030338 16 16 22
-0.195312 -0.484375 0.031824 16 16 23
-0.191406 -0.484375 0.033451 16 16 24
-0.187500 -0.484375 0.035401 17 17 25
-0.183594 -0.484375 0.037767 17 18 26
-0.179688 -0.484375 0.040191 17 18 27
-0.175781 -0.484375 0.042286 17 19 27
-0.171875 -0.484375 0.043603 18 20 27
-0.167969 -0.484375 0.044402 18 20 28
-0.164062 -0.484375 0.044776 18 21 28
-0.160156 -0.484375 0.045001 18 21 28
-0.156250 -0.484375 0.045201 17 20 27
-0.152344 -0.484375 0.045220 14 17 24
-0.148438 -0.484375 0.045282 14 18 25
-0.144531 -0.484375 0.045490 17 21 29
-0.140625 -0.484375 0.045807 18 23 31
-0.136719 -0.484375 0.045854 16 21 29
-0.132812 -0.484375 0.045503 15 19 27
-0.128906 -0.484375 0.045194 15 20 27
-0.125000 -0.484375 0.045083 16 20 28
-0.121094 -0.484375 0.045135 16 20 27
-0.117188 -0.484375 0.045304 16 20 25
-0.113281 -0.484375 0.045435 15 19 23
-0.109375 -0.484375 0.045615 14 18 20
-0.105469 -0.484375 0.045488 15 18 19
-0.101562 -0.484375 0.044027 14 17 17
-0.097656 -0.484375 0.042075 13 16 16
-0.093750 -0.484375 0.039376 11 13 13
-0.089844 -0.484375 0.034415 8 10 11
-0.085938 -0.484375 0.018130 10 13 16
-0.035156 -0.484375 0.040398 20 22 32
-0.031250 -0.484375 0.042004 19 21 31
-0.027344 -0.484375 0.045742 18 21 30
-0.023438 -0.484375 0.050735 18 22 31
-0.019531 -0.484375 0.056175 18 22 31
-0.015625 -0.484375 0.061285 17 22 30
-0.011719 -0.484375 0.065497 17 21 29
-0.007812 -0.484375 0.068939 17 21 28
-0.003906 -0.484375 0.071862 17 20 26
0.000000 -0.484375 0.074254 17 20 26
0.003906 -0.484375 0.076276 17 20 26
0.007812 -0.484375 0.077861 18 21 27
0.011719 -0.484375 0.079329 18 21 27
0.015625 -0.484375 0.080884 17 20 27
0.019531 -0.484375 0.082178 17 20 27
0.023438 -0.484375 0.083270 17 20 28
0.027344 -0.484375 0.084394 18 21 29
0.031250 -0.484375 0.085615 19 22 31
0.035156 -0.484375 0.086860 20 23 32
0.039062 -0.484375 0.088086 21 24 35
0.042969 -0.484375 0.089219 22 25 37
0.046875 -0.484375 0.090049 24 27 39
0.050781 -0.484375 0.090448 25 28 41
0.054688 -0.484375 0.090470 26 29 42
0.058594 -0.484375 0.090296 27 30 44
0.062500 -0.484375 0.089883 28 32 45
0.066406 -0.484375 0.088763 29 32 46
0.070312 -0.484375 0.086691 28 32 45
0.074219 -0.484375 0.084080 26 30 43
0.078125 -0.484375 0.081123 24 28 41
0.082031 -0.484375 0.078285 23 27 39
0.085938 -0.484375 0.075713 21 25 36
0.089844 -0.484375 0.073332 21 24 34
0.093750 -0.484375 0.071305 22 26 35
0.097656 -0.484375 0.068920 23 27 36
0.101562 -0.484375 0.065425 23 27 36
0.105469 -0.484375 0.061161 22 26 36
0.109375 -0.484375 0.056023 23 27 38
0.113281 -0.484375 0.050097 25 29 40
0.117188 -0.484375 0.042463 29 32 43
0.121094 -0.484375 0.024752 25 25 34
-0.261719 -0.488281 -0.009178 19 21 28
-0.257812 -0.488281 0.005675 17 20 29
-0.253906 -0.488281 0.014205 17 21 32
-0.250000 -0.488281 0.019692 15 20 31
-0.246094 -0.488281 0.022807 17 21 33
-0.242188 -0.488281 0.024463 17 21 32
-0.238281 -0.488281 0.025010 17 21 30
-0.234375 -0.488281 0.025154 16 19 27
-0.230469 -0.488281 0.024770 14 17 24
-0.226562 -0.488281 0.023891 13 15 21
-0.222656 -0.488281 0.023215 13 14 19
-0.218750 -0.488281 0.023256 13 14 18
-0.214844 -0.488281 0.023729 13 14 18
-0.210938 -0.488281 0.024889 15 15 19
-0.207031 -0.488281 0.026405 15 15 20
-0.203125 -0.488281 0.028039 15 15 20
-0.199219 -0.488281 0.029759 16 15 21
-0.195312 -0.488281 0.031451 16 16 22
-0.191406 -0.488281 0.033294 16 16 23
-0.187500 -0.488281 0.035473 17 17 24
-0.183594 -0.488281 0.038115 17 17 25
-0.179688 -0.488281 0.040533 17 18 26
-0.175781 -0.488281 0.042534 17 18 26
-0.171875 -0.488281 0.043773 18 19 27
-0.167969 -0.488281 0.044554 18 20 27
-0.164062 -0.488281 0.045014 18 20 27
-0.160156 -0.488281 0.045353 18 21 28
-0.156250 -0.488281 0.045664 17 19 26
-0.152344 -0.488281 0.045735 14 17 24
-0.148438 -0.488281 0.045763 15 18 26
-0.144531 -0.488281 0.045833 19 23 31
-0.140625 -0.488281 0.045868 19 24 32
-0.136719 -0.488281 0.045637 16 21 29
-0.132812 -0.488281 0.045261 15 19 27
-0.128906 -0.488281 0.045028 16 21 29
-0.125000 -0.488281 0.044942 17 21 29
-0.121094 -0.488281 0.045005 17 21 28
-0.117188 -0.488281 0.045174 17 21 26
-0.113281 -0.488281 0.045329 16 20 24
-0.109375 -0.488281 0.045553 15 19 21
-0.105469 -0.488281 0.045488 15 18 19
-0.101562 -0.488281 0.044057 15 17 18
-0.097656 -0.488281 0.042222 14 17 16
-0.093750 -0.488281 0.039907 11 13 14
-0.089844 -0.488281 0.035644 8 10 11
-0.085938 -0.488281 0.022218 17 21 24
-0.035156 -0.488281 0.039097 20 22 31
-0.031250 -0.488281 0.041020 18 21 31
-0.027344 -0.488281 0.044856 18 21 30
-0.023438 -0.488281 0.050096 17 21 30
-0.019531 -0.488281 0.055632 17 22 30
-0.015625 -0.488281 0.060796 17 22 30
-0.011719 -0.488281 0.065060 17 21 28
-0.007812 -0.488281 0.068561 17 21 27
-0.003906 -0.488281 0.071521 17 20 26
0.000000 -0.488281 0.073924 16 19 25
0.003906 -0.488281 0.075959 17 20 25
0.007812 -0.488281 0.077580 17 20 26
0.011719 -0.488281 0.079067 17 20 27
0.015625 -0.488281 0.080633 17 20 27
0.019531 -0.488281 0.081904 17 20 27
0.023438 -0.488281 0.082928 17 20 27
0.027344 -0.488281 0.083975 18 21 29
0.031250 -0.488281 0.085123 19 22 30
0.035156 -0.488281 0.086296 20 23 32
0.039062 -0.488281 0.087446 21 24 34
0.042969 -0.488281 0.088505 22 25 36
0.046875 -0.488281 0.089285 24 27 39
0.050781 -0.488281 0.089676 24 27 40
0.054688 -0.488281 0.089747 25 28 41
0.058594 -0.488281 0.089648 26 29 43
0.062500 -0.488281 0.089317 27 30 44
0.066406 -0.488281 0.088345 28 31 45
0.070312 -0.488281 0.086522 28 32 45
0.074219 -0.488281 0.084170 27 31 44
0.078125 -0.488281 0.081429 26 30 42
0.082031 -0.488281 0.078618 24 28 40
0.085938 -0.488281 0.075823 21 26 37
0.089844 -0.488281 0.073177 21 25 35
0.093750 -0.488281 0.070888 22 26 36
0.097656 -0.488281 0.068333 23 27 36
0.101562 -0.488281 0.064836 23 27 36
0.105469 -0.488281 0.060639 21 25 35
0.109375 -0.488281 0.055716 22 26 37
0.113281 -0.488281 0.049860 24 28 39
0.117188 -0.488281 0.042607 30 33 44
0.121094 -0.488281 0.029344 25 26 35
-0.261719 -0.492188 -0.008913 20 22 29
-0.257812 -0.492188 0.005953 17 20 28
-0.253906 -0.492188 0.013857 17 21 31
-0.250000 -0.492188 0.018957 15 19 30
-0.246094 -0.492188 0.022020 16 21 33
-0.242188 -0.492188 0.023943 17 22 33
-0.238281 -0.492188 0.024729 17 21 32
-0.234375 -0.492188 0.025017 16 20 28
-0.230469 -0.492188 0.024617 14 17 24
-0.226562 -0.492188 0.023521 13 16 21
-0.222656 -0.492188 0.022618 13 15 20
-0.218750 -0.492188 0.022442 13 14 18
-0.214844 -0.492188 0.022775 13 14 18
-0.210938 -0.492188 0.023923 14 14 18
-0.207031 -0.492188 0.025452 15 15 19
-0.203125 -0.492188 0.027159 15 15 19
-0.199219 -0.492188 0.029016 16 15 20
-0.195312 -0.492188 0.030921 16 15 21
-0.191406 -0.492188 0.032995 16 16 22
-0.187500 -0.492188 0.035426 17 16 23
-0.183594 -0.492188 0.038277 17 17 25
-0.179688 -0.492188 0.040649 17 17 25
-0.175781 -0.492188 0.042573 17 18 25
-0.171875 -0.492188 0.043774 18 19 26
-0.167969 -0.492188 0.044595 18 20 27
-0.164062 -0.492188 0.045193 18 20 27
-0.160156 -0.492188 0.045689 18 20 27
-0.156250 -0.492188 0.046182 16 19 26
-0.152344 -0.492188 0.046374 15 18 25
-0.148438 -0.492188 0.046333 17 20 27
-0.144531 -0.492188 0.046153 19 23 31
-0.140625 -0.492188 0.045872 18 23 31
-0.136719 -0.492188 0.045501 16 20 28
-0.132812 -0.492188 0.045158 16 20 28
-0.128906 -0.492188 0.044959 17 22 30
-0.125000 -0.492188 0.044895 17 22 30
-0.121094 -0.492188 0.044959 17 21 28
-0.117188 -0.492188 0.045102 17 21 26
-0.113281 -0.492188 0.045237 16 20 24
-0.109375 -0.492188 0.045452 15 19 21
-0.105469 -0.492188 0.045418 15 18 19
-0.101562 -0.492188 0.044068 15 18 18
-0.097656 -0.492188 0.042329 14 17 17
-0.093750 -0.492188 0.040306 11 13 14
-0.089844 -0.492188 0.036533 7 8 10
-0.085938 -0.492188 0.025499 10 11 16
-0.035156 -0.492188 0.037400 20 22 31
-0.031250 -0.492188 0.039895 18 21 30
-0.027344 -0.492188 0.043831 17 21 30
-0.023438 -0.492188 0.049406 17 21 30
-0.019531 -0.492188 0.055051 17 22 30
-0.015625 -0.492188 0.060286 17 21 29
-0.011719 -0.492188 0.064613 17 21 28
-0.007812 -0.492188 0.068168 17 20 27
-0.003906 -0.492188 0.071160 17 20 25
0.000000 -0.492188 0.073567 17 19 25
0.003906 -0.492188 0.075603 17 20 25
0.007812 -0.492188 0.077254 17 20 26
0.011719 -0.492188 0.078761 17 20 26
0.015625 -0.492188 0.080332 17 20 26
0.019531 -0.492188 0.081573 16 19 26
0.023438 -0.492188 0.082539 17 20 27
0.027344 -0.492188 0.083515 18 21 28
0.031250 -0.492188 0.084602 18 21 29
0.035156 -0.492188 0.085717 19 22 30
0.039062 -0.492188 0.086810 20 23 33
0.042969 -0.492188 0.087803 21 25 35
0.046875 -0.492188 0.088527 23 27 38
0.050781 -0.492188 0.088913 24 27 40
0.054688 -0.492188 0.089039 24 28 41
0.058594 -0.492188 0.089011 25 29 42
0.062500 -0.492188 0.088745 26 29 43
0.066406 -0.492188 0.087904 27 30 44
0.070312 -0.492188 0.086327 28 31 44
0.074219 -0.492188 0.084259 28 31 44
0.078125 -0.492188 0.081778 27 31 43
0.082031 -0.492188 0.079011 24 29 40
