ply
    format ascii 1.0
    element vertex 104012
    property float x
    property float y
    property float z
    property uchar red
    property uchar green
    property uchar blue
    end_header
0.171875 0.656250 -0.052557 125 135 130
0.175781 0.656250 -0.049959 136 147 138
0.179688 0.656250 -0.047078 123 134 123
0.183594 0.656250 -0.044253 128 136 154
0.187500 0.656250 -0.040791 131 139 158
0.191406 0.656250 -0.037130 128 133 155
0.195312 0.656250 -0.032779 117 122 145
0.199219 0.656250 -0.028022 117 120 144
0.203125 0.656250 -0.022946 126 130 149
0.207031 0.656250 -0.018138 132 135 149
0.210938 0.656250 -0.011831 126 129 135
0.214844 0.656250 -0.000114 104 104 104
-0.179688 0.652344 -0.052919 47 48 48
-0.175781 0.652344 -0.055021 57 59 58
-0.171875 0.652344 -0.057134 127 117 117
-0.167969 0.652344 -0.058802 121 110 104
-0.164062 0.652344 -0.060548 134 118 106
-0.160156 0.652344 -0.062411 141 117 99
-0.156250 0.652344 -0.063810 159 125 101
-0.152344 0.652344 -0.065296 186 150 118
-0.148438 0.652344 -0.067205 195 156 122
-0.144531 0.652344 -0.068632 200 157 123
-0.140625 0.652344 -0.069848 202 155 120
-0.136719 0.652344 -0.070262 202 151 116
-0.132812 0.652344 -0.070931 201 150 114
-0.128906 0.652344 -0.072200 201 151 113
-0.125000 0.652344 -0.073226 198 147 111
-0.121094 0.652344 -0.073764 194 142 108
-0.117188 0.652344 -0.071557 194 142 107
-0.113281 0.652344 -0.068691 194 142 108
-0.109375 0.652344 -0.066609 194 141 108
-0.105469 0.652344 -0.065068 193 141 108
-0.101562 0.652344 -0.063307 192 138 107
-0.097656 0.652344 -0.061868 191 136 107
-0.093750 0.652344 -0.060867 190 135 106
-0.089844 0.652344 -0.059913 192 139 106
-0.085938 0.652344 -0.059218 191 138 107
-0.082031 0.652344 -0.058989 191 136 106
-0.078125 0.652344 -0.059149 187 131 104
-0.074219 0.652344 -0.059917 185 127 103
-0.070312 0.652344 -0.061360 184 124 100
-0.066406 0.652344 -0.063269 183 124 101
-0.062500 0.652344 -0.065496 184 123 101
-0.058594 0.652344 -0.067936 184 123 101
-0.054688 0.652344 -0.070332 187 127 104
-0.050781 0.652344 -0.073071 187 129 104
-0.046875 0.652344 -0.075829 189 130 104
-0.042969 0.652344 -0.078649 192 134 106
-0.039062 0.652344 -0.081499 195 138 108
-0.035156 0.652344 -0.084014 198 140 110
-0.031250 0.652344 -0.086446 200 143 111
-0.027344 0.652344 -0.088346 201 146 113
-0.023438 0.652344 -0.089916 202 146 112
-0.019531 0.652344 -0.091315 203 148 112
-0.015625 0.652344 -0.092600 205 149 113
-0.011719 0.652344 -0.093572 207 149 114
-0.007812 0.652344 -0.094391 210 152 117
-0.003906 0.652344 -0.095536 214 157 122
0.000000 0.652344 -0.096820 216 160 126
0.003906 0.652344 -0.098617 217 164 130
0.007812 0.652344 -0.100766 217 167 132
0.011719 0.652344 -0.102758 216 168 133
0.015625 0.652344 -0.104746 213 167 131
0.019531 0.652344 -0.106890 212 169 133
0.023438 0.652344 -0.108942 211 167 135
0.027344 0.652344 -0.110844 207 163 134
0.031250 0.652344 -0.112800 206 164 139
0.035156 0.652344 -0.114701 205 164 146
0.039062 0.652344 -0.115894 204 163 153
0.042969 0.652344 -0.117014 202 160 158
0.046875 0.652344 -0.117802 191 147 154
0.050781 0.652344 -0.117823 165 125 141
0.054688 0.652344 -0.117493 125 98 117
0.058594 0.652344 -0.117191 76 67 94
0.062500 0.652344 -0.116739 74 72 100
0.066406 0.652344 -0.115893 84 86 109
0.070312 0.652344 -0.115044 80 83 100
0.074219 0.652344 -0.114124 73 77 88
0.078125 0.652344 -0.113223 74 76 82
0.082031 0.652344 -0.112244 65 67 70
0.085938 0.652344 -0.110857 54 55 56
0.089844 0.652344 -0.109052 46 47 49
0.093750 0.652344 -0.106698 48 49 50
0.097656 0.652344 -0.104096 52 53 55
0.101562 0.652344 -0.101893 60 60 63
0.105469 0.652344 -0.099375 73 73 79
0.109375 0.652344 -0.097040 91 90 98
0.113281 0.652344 -0.095023 111 110 122
0.117188 0.652344 -0.092929 129 128 143
0.121094 0.652344 -0.091088 136 139 145
0.125000 0.652344 -0.089028 141 145 148
0.128906 0.652344 -0.086656 144 148 147
0.132812 0.652344 -0.084024 148 153 146
0.136719 0.652344 -0.081120 149 155 143
0.140625 0.652344 -0.078149 146 152 140
0.144531 0.652344 -0.075037 143 148 137
0.148438 0.652344 -0.071892 139 144 137
0.152344 0.652344 -0.068777 142 148 146
0.156250 0.652344 -0.065864 137 141 144
0.160156 0.652344 -0.062986 125 130 134
0.164062 0.652344 -0.060241 125 132 134
0.167969 0.652344 -0.057881 139 147 145
0.171875 0.652344 -0.055808 139 148 141
0.175781 0.652344 -0.053768 125 134 124
0.179688 0.652344 -0.051330 118 130 114
0.183594 0.652344 -0.048601 119 126 143
0.187500 0.652344 -0.045407 127 134 152
0.191406 0.652344 -0.041760 130 135 156
0.195312 0.652344 -0.037464 125 130 153
0.199219 0.652344 -0.033435 126 130 154
0.203125 0.652344 -0.028998 134 139 158
0.207031 0.652344 -0.024072 137 140 156
0.210938 0.652344 -0.018870 131 135 144
0.214844 0.652344 -0.012221 128 131 132
0.218750 0.652344 -0.000893 96 98 94
-0.187500 0.648438 -0.054733 49 49 50
-0.183594 0.648438 -0.055405 49 49 50
-0.179688 0.648438 -0.056838 89 79 87
-0.175781 0.648438 -0.058602 85 79 82
-0.171875 0.648438 -0.060441 89 85 82
-0.167969 0.648438 -0.062403 99 93 85
-0.164062 0.648438 -0.064224 120 105 88
-0.160156 0.648438 -0.066242 141 115 90
-0.156250 0.648438 -0.067885 169 134 104
-0.152344 0.648438 -0.069244 194 158 124
-0.148438 0.648438 -0.071202 202 162 124
-0.144531 0.648438 -0.072662 203 159 119
-0.140625 0.648438 -0.074141 203 155 116
-0.136719 0.648438 -0.075422 203 152 114
-0.132812 0.648438 -0.075793 203 152 114
-0.128906 0.648438 -0.076064 202 153 113
-0.125000 0.648438 -0.076185 200 150 111
-0.121094 0.648438 -0.075960 197 146 108
-0.117188 0.648438 -0.074955 197 145 108
-0.113281 0.648438 -0.073884 197 145 108
-0.109375 0.648438 -0.072395 196 145 108
-0.105469 0.648438 -0.070406 196 144 108
-0.101562 0.648438 -0.068525 195 142 108
-0.097656 0.648438 -0.066840 193 140 107
-0.093750 0.648438 -0.065540 194 140 108
-0.089844 0.648438 -0.064337 194 141 108
-0.085938 0.648438 -0.063406 193 139 107
-0.082031 0.648438 -0.062900 191 137 106
-0.078125 0.648438 -0.062812 186 130 103
-0.074219 0.648438 -0.063369 186 128 102
-0.070312 0.648438 -0.064593 183 125 101
-0.066406 0.648438 -0.066259 184 124 101
-0.062500 0.648438 -0.068277 184 122 101
-0.058594 0.648438 -0.070551 182 119 101
-0.054688 0.648438 -0.072822 182 120 101
-0.050781 0.648438 -0.075457 187 125 105
-0.046875 0.648438 -0.078117 190 128 106
-0.042969 0.648438 -0.080762 194 134 110
-0.039062 0.648438 -0.083412 198 138 113
-0.035156 0.648438 -0.085724 199 140 112
-0.031250 0.648438 -0.087998 199 141 112
-0.027344 0.648438 -0.089819 199 142 112
-0.023438 0.648438 -0.091383 199 142 110
-0.019531 0.648438 -0.092815 200 145 110
-0.015625 0.648438 -0.094073 202 146 110
-0.011719 0.648438 -0.095033 205 147 112
-0.007812 0.648438 -0.095826 208 152 117
-0.003906 0.648438 -0.097001 212 156 122
0.000000 0.648438 -0.098212 215 161 128
0.003906 0.648438 -0.099943 218 168 133
0.007812 0.648438 -0.102140 219 172 136
0.011719 0.648438 -0.104036 218 173 138
0.015625 0.648438 -0.105931 217 172 139
0.019531 0.648438 -0.107941 215 171 140
0.023438 0.648438 -0.109849 212 167 140
0.027344 0.648438 -0.111820 210 165 141
0.031250 0.648438 -0.113750 210 166 145
0.035156 0.648438 -0.115659 205 160 147
0.039062 0.648438 -0.116939 196 151 148
0.042969 0.648438 -0.118028 176 131 139
0.046875 0.648438 -0.118751 142 101 119
0.050781 0.648438 -0.118741 108 84 108
0.054688 0.648438 -0.118555 86 73 101
0.058594 0.648438 -0.118380 65 65 99
0.062500 0.648438 -0.118031 71 73 105
0.066406 0.648438 -0.117193 79 83 110
0.070312 0.648438 -0.116231 72 77 97
0.074219 0.648438 -0.115300 67 70 85
0.078125 0.648438 -0.114301 72 73 81
0.082031 0.648438 -0.113288 65 67 71
0.085938 0.648438 -0.112009 55 55 58
0.089844 0.648438 -0.110186 51 52 54
0.093750 0.648438 -0.107904 53 54 56
0.097656 0.648438 -0.105372 55 56 58
0.101562 0.648438 -0.103209 57 58 62
0.105469 0.648438 -0.100830 68 69 75
0.109375 0.648438 -0.098555 89 90 98
0.113281 0.648438 -0.096585 113 114 128
0.117188 0.648438 -0.094542 130 133 149
0.121094 0.648438 -0.092690 141 144 152
0.125000 0.648438 -0.090639 144 147 152
0.128906 0.648438 -0.088323 146 150 149
0.132812 0.648438 -0.085794 148 153 146
0.136719 0.648438 -0.083072 150 153 143
0.140625 0.648438 -0.080282 150 154 140
0.144531 0.648438 -0.077358 149 152 141
0.148438 0.648438 -0.074406 148 150 142
0.152344 0.648438 -0.071481 149 151 148
0.156250 0.648438 -0.068684 145 145 147
0.160156 0.648438 -0.065922 132 135 138
0.164062 0.648438 -0.063251 130 133 134
0.167969 0.648438 -0.060914 139 144 142
0.171875 0.648438 -0.058718 138 144 138
0.175781 0.648438 -0.056640 125 135 122
0.179688 0.648438 -0.054628 121 132 117
0.183594 0.648438 -0.052215 123 130 145
0.187500 0.648438 -0.049428 126 133 150
0.191406 0.648438 -0.046053 128 133 154
0.195312 0.648438 -0.042103 128 132 156
0.199219 0.648438 -0.038308 131 135 159
0.203125 0.648438 -0.034036 137 139 161
0.207031 0.648438 -0.029326 137 140 156
0.210938 0.648438 -0.023997 133 135 147
0.214844 0.648438 -0.018743 134 137 140
0.218750 0.648438 -0.011566 123 127 123
0.222656 0.648438 0.000488 95 96 92
-0.195312 0.644531 -0.046405 60 58 59
-0.191406 0.644531 -0.055504 53 54 59
-0.187500 0.644531 -0.056969 48 50 54
-0.183594 0.644531 -0.058826 73 68 71
-0.179688 0.644531 -0.060960 62 60 61
-0.175781 0.644531 -0.063152 66 66 64
-0.171875 0.644531 -0.065111 73 74 70
-0.167969 0.644531 -0.067073 81 78 70
-0.164062 0.644531 -0.068885 111 96 77
-0.160156 0.644531 -0.070715 154 125 98
-0.156250 0.644531 -0.072548 188 152 121
-0.152344 0.644531 -0.074017 207 170 136
-0.148438 0.644531 -0.075736 211 170 132
-0.144531 0.644531 -0.077201 210 165 124
-0.140625 0.644531 -0.078709 208 160 119
-0.136719 0.644531 -0.080175 207 157 117
-0.132812 0.644531 -0.081059 206 155 115
-0.128906 0.644531 -0.081678 204 153 113
-0.125000 0.644531 -0.081782 203 152 112
-0.121094 0.644531 -0.081295 200 149 110
-0.117188 0.644531 -0.080330 200 149 110
-0.113281 0.644531 -0.079216 200 148 110
-0.109375 0.644531 -0.077509 199 148 110
-0.105469 0.644531 -0.075386 199 148 110
-0.101562 0.644531 -0.073458 198 147 110
-0.097656 0.644531 -0.071616 196 146 110
-0.093750 0.644531 -0.070083 195 143 109
-0.089844 0.644531 -0.068712 194 140 108
-0.085938 0.644531 -0.067573 192 138 107
-0.082031 0.644531 -0.066871 191 135 106
-0.078125 0.644531 -0.066594 185 129 103
-0.074219 0.644531 -0.066927 185 127 102
-0.070312 0.644531 -0.067930 182 125 101
-0.066406 0.644531 -0.069368 182 125 101
-0.062500 0.644531 -0.071147 180 119 97
-0.058594 0.644531 -0.073220 179 116 95
-0.054688 0.644531 -0.075315 180 117 96
-0.050781 0.644531 -0.077796 185 123 101
-0.046875 0.644531 -0.080305 188 126 104
-0.042969 0.644531 -0.082741 194 133 108
-0.039062 0.644531 -0.085149 197 138 111
-0.035156 0.644531 -0.087256 197 137 110
-0.031250 0.644531 -0.089390 197 138 110
-0.027344 0.644531 -0.091137 197 138 109
-0.023438 0.644531 -0.092758 198 140 109
-0.019531 0.644531 -0.094253 200 145 111
-0.015625 0.644531 -0.095450 203 148 113
-0.011719 0.644531 -0.096409 206 152 117
-0.007812 0.644531 -0.097145 210 157 122
-0.003906 0.644531 -0.098272 213 160 126
0.000000 0.644531 -0.099413 215 164 130
0.003906 0.644531 -0.101153 218 170 135
0.007812 0.644531 -0.103594 220 174 139
0.011719 0.644531 -0.105494 220 175 141
0.015625 0.644531 -0.107087 218 173 142
0.019531 0.644531 -0.108916 216 171 143
0.023438 0.644531 -0.110794 214 169 144
0.027344 0.644531 -0.112828 213 167 148
0.031250 0.644531 -0.114776 209 163 152
0.035156 0.644531 -0.116538 197 153 150
0.039062 0.644531 -0.117628 172 136 141
0.042969 0.644531 -0.118656 124 103 119
0.046875 0.644531 -0.119342 92 81 104
0.050781 0.644531 -0.119350 87 81 110
0.054688 0.644531 -0.119315 91 87 119
0.058594 0.644531 -0.118998 76 81 117
0.062500 0.644531 -0.118574 78 84 118
0.066406 0.644531 -0.118082 80 85 115
0.070312 0.644531 -0.117589 71 75 98
0.074219 0.644531 -0.116865 62 65 80
0.078125 0.644531 -0.115788 64 67 76
0.082031 0.644531 -0.114850 65 66 71
0.085938 0.644531 -0.113456 60 61 65
0.089844 0.644531 -0.111591 63 64 67
0.093750 0.644531 -0.109532 70 71 74
0.097656 0.644531 -0.106895 73 74 78
0.101562 0.644531 -0.104592 72 73 79
0.105469 0.644531 -0.102334 80 81 89
0.109375 0.644531 -0.100100 99 101 113
0.113281 0.644531 -0.098057 118 122 137
0.117188 0.644531 -0.095997 129 134 153
0.121094 0.644531 -0.094125 147 150 158
0.125000 0.644531 -0.092067 150 153 160
0.128906 0.644531 -0.089810 150 154 155
0.132812 0.644531 -0.087383 151 153 148
0.136719 0.644531 -0.084829 150 153 142
0.140625 0.644531 -0.082181 153 155 142
0.144531 0.644531 -0.079372 154 156 143
0.148438 0.644531 -0.076539 153 154 147
0.152344 0.644531 -0.073815 149 150 145
0.156250 0.644531 -0.071205 147 147 147
0.160156 0.644531 -0.068511 138 138 139
0.164062 0.644531 -0.065919 133 134 136
0.167969 0.644531 -0.063632 137 140 139
0.171875 0.644531 -0.061502 135 139 134
0.175781 0.644531 -0.059522 127 134 124
0.179688 0.644531 -0.057441 127 135 123
0.183594 0.644531 -0.055372 129 135 148
0.187500 0.644531 -0.052925 126 132 147
0.191406 0.644531 -0.049826 125 130 149
0.195312 0.644531 -0.046050 131 135 158
0.199219 0.644531 -0.042369 138 140 164
0.203125 0.644531 -0.038305 138 140 162
0.207031 0.644531 -0.033970 136 139 157
0.210938 0.644531 -0.028840 136 138 150
0.214844 0.644531 -0.023447 140 143 148
0.218750 0.644531 -0.017688 132 136 135
0.222656 0.644531 -0.010421 133 135 130
-0.199219 0.640625 -0.053363 111 110 110
-0.195312 0.640625 -0.055408 99 99 99
-0.191406 0.640625 -0.059364 57 51 59
-0.187500 0.640625 -0.061032 46 44 47
-0.183594 0.640625 -0.063408 44 43 44
-0.179688 0.640625 -0.065825 47 48 48
-0.175781 0.640625 -0.067971 57 59 58
-0.171875 0.640625 -0.069870 63 66 64
-0.167969 0.640625 -0.071528 66 67 60
-0.164062 0.640625 -0.073273 101 86 69
-0.160156 0.640625 -0.075029 159 125 103
-0.156250 0.640625 -0.076912 196 156 129
-0.152344 0.640625 -0.078714 210 170 138
-0.148438 0.640625 -0.080554 212 168 132
-0.144531 0.640625 -0.082325 211 163 126
-0.140625 0.640625 -0.083680 209 160 123
-0.136719 0.640625 -0.084867 208 157 120
-0.132812 0.640625 -0.085603 206 153 117
-0.128906 0.640625 -0.086105 204 150 114
-0.125000 0.640625 -0.086292 203 148 113
-0.121094 0.640625 -0.086011 202 147 112
-0.117188 0.640625 -0.085187 201 145 111
-0.113281 0.640625 -0.083852 200 144 111
-0.109375 0.640625 -0.082140 199 143 110
-0.105469 0.640625 -0.080238 198 142 110
-0.101562 0.640625 -0.078299 197 142 110
-0.097656 0.640625 -0.076363 195 142 109
-0.093750 0.640625 -0.074698 194 140 107
-0.089844 0.640625 -0.073180 194 140 108
-0.085938 0.640625 -0.071886 191 135 105
-0.082031 0.640625 -0.071015 189 133 105
-0.078125 0.640625 -0.070557 184 127 102
-0.074219 0.640625 -0.070691 184 128 102
-0.070312 0.640625 -0.071461 183 126 100
-0.066406 0.640625 -0.072657 185 127 100
-0.062500 0.640625 -0.074191 185 127 100
-0.058594 0.640625 -0.076025 183 124 99
-0.054688 0.640625 -0.077908 185 127 100
-0.050781 0.640625 -0.080209 189 133 104
-0.046875 0.640625 -0.082527 191 135 106
-0.042969 0.640625 -0.084711 194 138 108
-0.039062 0.640625 -0.086869 196 140 110
-0.035156 0.640625 -0.088778 195 139 110
-0.031250 0.640625 -0.090749 195 139 109
-0.027344 0.640625 -0.092382 195 139 109
-0.023438 0.640625 -0.094030 196 141 109
-0.019531 0.640625 -0.095567 198 144 111
-0.015625 0.640625 -0.096744 200 146 113
-0.011719 0.640625 -0.097722 203 150 116
-0.007812 0.640625 -0.098483 206 154 120
-0.003906 0.640625 -0.099627 209 157 123
0.000000 0.640625 -0.100726 211 160 126
0.003906 0.640625 -0.102396 214 163 131
0.007812 0.640625 -0.104890 216 165 135
0.011719 0.640625 -0.106740 217 165 137
0.015625 0.640625 -0.108211 217 165 140
0.019531 0.640625 -0.110034 217 170 145
0.023438 0.640625 -0.111841 216 172 151
0.027344 0.640625 -0.113800 209 160 149
0.031250 0.640625 -0.115578 193 145 141
0.035156 0.640625 -0.117029 162 126 129
0.039062 0.640625 -0.118019 121 105 119
0.042969 0.640625 -0.118936 100 96 120
0.046875 0.640625 -0.119505 95 95 125
0.050781 0.640625 -0.119544 99 100 136
0.054688 0.640625 -0.119618 103 103 141
0.058594 0.640625 -0.119458 88 94 134
0.062500 0.640625 -0.119305 84 90 127
0.066406 0.640625 -0.119186 85 91 122
0.070312 0.640625 -0.119065 79 83 106
0.074219 0.640625 -0.118444 72 75 92
0.078125 0.640625 -0.117140 75 78 90
0.082031 0.640625 -0.116110 78 80 89
0.085938 0.640625 -0.114759 74 75 83
0.089844 0.640625 -0.112815 79 81 87
0.093750 0.640625 -0.110768 92 94 99
0.097656 0.640625 -0.108081 99 101 108
0.101562 0.640625 -0.105852 99 101 109
0.105469 0.640625 -0.103756 105 107 118
0.109375 0.640625 -0.101577 119 123 137
0.113281 0.640625 -0.099529 132 136 154
0.117188 0.640625 -0.097509 134 140 161
0.121094 0.640625 -0.095619 146 150 160
0.125000 0.640625 -0.093535 152 155 162
0.128906 0.640625 -0.091328 152 156 157
0.132812 0.640625 -0.088965 151 153 148
0.136719 0.640625 -0.086493 150 152 141
0.140625 0.640625 -0.083947 152 152 140
0.144531 0.640625 -0.081231 153 153 141
0.148438 0.640625 -0.078489 152 150 143
0.152344 0.640625 -0.075888 145 141 139
0.156250 0.640625 -0.073445 145 143 144
0.160156 0.640625 -0.070898 139 137 139
0.164062 0.640625 -0.068341 134 134 136
0.167969 0.640625 -0.066113 137 139 138
0.171875 0.640625 -0.064021 136 138 135
0.175781 0.640625 -0.062145 131 136 129
0.179688 0.640625 -0.060162 136 142 133
0.183594 0.640625 -0.057941 135 141 154
0.187500 0.640625 -0.055763 126 131 146
0.191406 0.640625 -0.052889 124 129 147
0.195312 0.640625 -0.049289 136 137 159
0.199219 0.640625 -0.045851 141 143 166
0.203125 0.640625 -0.042046 137 139 162
0.207031 0.640625 -0.037817 133 135 155
0.210938 0.640625 -0.033007 137 139 151
0.214844 0.640625 -0.027956 137 140 147
0.218750 0.640625 -0.022144 131 135 134
0.222656 0.640625 -0.016511 131 135 130
0.226562 0.640625 -0.006939 117 119 115
-0.203125 0.636719 -0.055132 127 126 127
-0.199219 0.636719 -0.057815 121 121 121
-0.195312 0.636719 -0.060698 67 60 67
-0.191406 0.636719 -0.062680 54 53 55
-0.187500 0.636719 -0.065008 49 49 50
-0.183594 0.636719 -0.067756 49 49 50
-0.179688 0.636719 -0.070285 54 55 55
-0.175781 0.636719 -0.072420 64 66 65
-0.171875 0.636719 -0.074480 67 72 68
-0.167969 0.636719 -0.076172 65 71 60
-0.164062 0.636719 -0.078034 99 90 68
-0.160156 0.636719 -0.079769 159 126 103
-0.156250 0.636719 -0.081612 192 150 125
-0.152344 0.636719 -0.083673 201 155 125
-0.148438 0.636719 -0.085493 204 153 118
-0.144531 0.636719 -0.087312 207 153 116
-0.140625 0.636719 -0.088922 207 153 116
-0.136719 0.636719 -0.090011 207 152 115
-0.132812 0.636719 -0.090751 205 150 114
-0.128906 0.636719 -0.091235 203 148 112
-0.125000 0.636719 -0.091328 202 145 110
-0.121094 0.636719 -0.090892 201 144 110
-0.117188 0.636719 -0.089935 200 143 110
-0.113281 0.636719 -0.088535 199 141 109
-0.109375 0.636719 -0.086813 197 139 108
-0.105469 0.636719 -0.084861 194 136 107
-0.101562 0.636719 -0.082870 193 135 106
-0.097656 0.636719 -0.080876 191 134 105
-0.093750 0.636719 -0.079120 190 133 104
-0.089844 0.636719 -0.077497 191 134 105
-0.085938 0.636719 -0.076132 189 133 105
-0.082031 0.636719 -0.075167 187 130 103
-0.078125 0.636719 -0.074599 183 126 102
-0.074219 0.636719 -0.074584 182 127 101
-0.070312 0.636719 -0.075127 184 127 102
-0.066406 0.636719 -0.076080 184 127 103
-0.062500 0.636719 -0.077335 184 127 103
-0.058594 0.636719 -0.078933 183 126 102
-0.054688 0.636719 -0.080617 184 129 102
-0.050781 0.636719 -0.082627 189 136 106
-0.046875 0.636719 -0.084700 190 137 107
-0.042969 0.636719 -0.086605 192 138 108
-0.039062 0.636719 -0.088548 194 141 110
-0.035156 0.636719 -0.090289 194 140 110
-0.031250 0.636719 -0.092169 194 140 110
-0.027344 0.636719 -0.093701 195 140 110
-0.023438 0.636719 -0.095273 196 141 111
-0.019531 0.636719 -0.096856 198 144 112
-0.015625 0.636719 -0.098004 200 147 114
-0.011719 0.636719 -0.098984 202 150 116
-0.007812 0.636719 -0.099761 204 152 118
-0.003906 0.636719 -0.100795 206 154 121
0.000000 0.636719 -0.101790 208 154 124
0.003906 0.636719 -0.103439 211 157 128
0.007812 0.636719 -0.105894 216 161 135
0.011719 0.636719 -0.107691 217 162 139
0.015625 0.636719 -0.109403 217 163 144
0.019531 0.636719 -0.111434 218 172 157
0.023438 0.636719 -0.113131 214 172 166
0.027344 0.636719 -0.115070 193 151 154
0.031250 0.636719 -0.116782 152 123 129
0.035156 0.636719 -0.118161 110 99 110
0.039062 0.636719 -0.119270 94 93 112
0.042969 0.636719 -0.120058 99 102 130
0.046875 0.636719 -0.120406 109 112 148
0.050781 0.636719 -0.120283 112 114 154
0.054688 0.636719 -0.120040 106 108 150
0.058594 0.636719 -0.119799 82 90 131
0.062500 0.636719 -0.119830 76 82 121
0.066406 0.636719 -0.119769 78 84 115
0.070312 0.636719 -0.119656 79 83 107
0.074219 0.636719 -0.119079 76 79 98
0.078125 0.636719 -0.117905 80 83 98
0.082031 0.636719 -0.117332 79 81 94
0.085938 0.636719 -0.116234 68 70 80
0.089844 0.636719 -0.114352 77 79 89
0.093750 0.636719 -0.112360 98 99 110
0.097656 0.636719 -0.109692 114 118 128
0.101562 0.636719 -0.107446 123 126 139
0.105469 0.636719 -0.105231 130 135 151
0.109375 0.636719 -0.102992 141 146 166
0.113281 0.636719 -0.100889 147 152 175
0.117188 0.636719 -0.098873 147 153 178
0.121094 0.636719 -0.097002 147 151 162
0.125000 0.636719 -0.094886 156 159 166
0.128906 0.636719 -0.092750 158 162 163
0.132812 0.636719 -0.090484 155 157 152
0.136719 0.636719 -0.088068 153 155 144
0.140625 0.636719 -0.085599 155 155 143
0.144531 0.636719 -0.082986 155 153 141
0.148438 0.636719 -0.080316 151 148 139
0.152344 0.636719 -0.077811 145 140 138
0.156250 0.636719 -0.075478 149 144 146
0.160156 0.636719 -0.073033 142 138 143
0.164062 0.636719 -0.070605 136 134 139
0.167969 0.636719 -0.068396 137 137 139
0.171875 0.636719 -0.066337 135 137 136
0.175781 0.636719 -0.064525 134 136 131
0.179688 0.636719 -0.062632 140 145 138
0.183594 0.636719 -0.060459 140 144 155
0.187500 0.636719 -0.058122 131 134 148
0.191406 0.636719 -0.055598 128 131 148
0.195312 0.636719 -0.052373 136 138 160
0.199219 0.636719 -0.049036 142 144 167
0.203125 0.636719 -0.045381 137 139 163
0.207031 0.636719 -0.041193 135 137 157
0.210938 0.636719 -0.036440 139 140 155
0.214844 0.636719 -0.031812 131 134 141
0.218750 0.636719 -0.026278 130 134 135
0.222656 0.636719 -0.020810 133 138 134
0.226562 0.636719 -0.014492 127 131 126
0.230469 0.636719 -0.000678 68 68 67
-0.207031 0.632812 -0.056734 131 131 135
-0.203125 0.632812 -0.058659 73 67 72
-0.199219 0.632812 -0.062780 66 62 65
-0.195312 0.632812 -0.065011 60 58 59
-0.191406 0.632812 -0.067164 53 54 59
-0.187500 0.632812 -0.069799 48 50 54
-0.183594 0.632812 -0.072087 48 49 52
-0.179688 0.632812 -0.074299 51 53 56
-0.175781 0.632812 -0.076290 56 60 60
-0.171875 0.632812 -0.078211 56 64 58
-0.167969 0.632812 -0.079930 62 76 56
-0.164062 0.632812 -0.081786 107 104 72
-0.160156 0.632812 -0.083602 168 139 111
-0.156250 0.632812 -0.085625 199 161 133
-0.152344 0.632812 -0.087942 205 160 128
-0.148438 0.632812 -0.089923 209 158 121
-0.144531 0.632812 -0.091880 214 162 122
-0.140625 0.632812 -0.093470 214 164 122
-0.136719 0.632812 -0.094614 213 164 121
-0.132812 0.632812 -0.095303 211 162 120
-0.128906 0.632812 -0.095618 209 158 117
-0.125000 0.632812 -0.095678 207 154 115
-0.121094 0.632812 -0.095106 205 151 113
-0.117188 0.632812 -0.094077 203 147 111
-0.113281 0.632812 -0.092723 201 145 110
-0.109375 0.632812 -0.091067 199 141 108
-0.105469 0.632812 -0.089204 195 138 107
-0.101562 0.632812 -0.087274 194 136 106
-0.097656 0.632812 -0.085307 192 134 104
-0.093750 0.632812 -0.083537 191 132 105
-0.089844 0.632812 -0.081875 191 133 106
-0.085938 0.632812 -0.080465 188 130 105
-0.082031 0.632812 -0.079409 185 127 103
-0.078125 0.632812 -0.078728 184 126 103
-0.074219 0.632812 -0.078574 182 125 102
-0.070312 0.632812 -0.078865 180 124 101
-0.066406 0.632812 -0.079568 180 125 101
-0.062500 0.632812 -0.080579 180 126 101
-0.058594 0.632812 -0.081895 178 125 101
-0.054688 0.632812 -0.083328 178 126 101
-0.050781 0.632812 -0.085003 182 130 103
-0.046875 0.632812 -0.086772 182 130 104
-0.042969 0.632812 -0.088365 183 130 104
-0.039062 0.632812 -0.090044 187 133 107
-0.035156 0.632812 -0.091575 189 134 108
-0.031250 0.632812 -0.093339 191 136 110
-0.027344 0.632812 -0.094782 194 139 112
-0.023438 0.632812 -0.096280 196 141 113
-0.019531 0.632812 -0.097830 198 145 114
-0.015625 0.632812 -0.098926 200 148 116
-0.011719 0.632812 -0.099882 201 149 117
-0.007812 0.632812 -0.100652 202 150 117
-0.003906 0.632812 -0.101667 205 151 119
0.000000 0.632812 -0.102642 207 151 121
0.003906 0.632812 -0.104277 212 158 129
0.007812 0.632812 -0.106599 219 170 142
0.011719 0.632812 -0.108294 221 172 148
0.015625 0.632812 -0.110043 214 165 147
0.019531 0.632812 -0.112083 195 150 139
0.023438 0.632812 -0.113808 173 131 131
0.027344 0.632812 -0.115962 143 109 115
0.031250 0.632812 -0.117871 132 117 127
0.035156 0.632812 -0.119231 139 137 152
0.039062 0.632812 -0.120384 128 131 155
0.042969 0.632812 -0.121113 108 113 144
0.046875 0.632812 -0.121328 102 107 146
0.050781 0.632812 -0.121281 105 108 153
0.054688 0.632812 -0.121084 101 105 149
0.058594 0.632812 -0.120812 76 84 126
0.062500 0.632812 -0.120819 66 74 112
0.066406 0.632812 -0.120540 71 77 111
0.070312 0.632812 -0.120245 75 80 106
0.074219 0.632812 -0.119793 75 80 100
0.078125 0.632812 -0.118913 82 85 102
0.082031 0.632812 -0.118655 83 86 100
0.085938 0.632812 -0.117698 74 76 88
0.089844 0.632812 -0.115793 75 77 88
0.093750 0.632812 -0.113942 88 89 101
0.097656 0.632812 -0.111331 102 106 117
0.101562 0.632812 -0.108956 113 116 132
0.105469 0.632812 -0.106682 118 123 142
0.109375 0.632812 -0.104429 124 130 153
0.113281 0.632812 -0.102316 132 139 164
0.117188 0.632812 -0.100314 139 146 174
0.121094 0.632812 -0.098454 143 147 158
0.125000 0.632812 -0.096325 155 158 164
0.128906 0.632812 -0.094226 162 163 165
0.132812 0.632812 -0.092015 159 160 155
0.136719 0.632812 -0.089645 158 158 148
0.140625 0.632812 -0.087210 164 162 151
0.144531 0.632812 -0.084665 165 161 151
0.148438 0.632812 -0.082027 162 155 147
0.152344 0.632812 -0.079585 155 147 145
0.156250 0.632812 -0.077319 156 150 152
0.160156 0.632812 -0.074907 150 143 150
0.164062 0.632812 -0.072551 142 138 144
0.167969 0.632812 -0.070414 141 140 144
0.171875 0.632812 -0.068310 138 138 140
0.175781 0.632812 -0.066536 136 138 135
0.179688 0.632812 -0.064736 144 146 141
0.183594 0.632812 -0.062653 142 146 157
0.187500 0.632812 -0.060254 137 140 154
0.191406 0.632812 -0.057791 134 137 155
0.195312 0.632812 -0.054778 137 139 160
0.199219 0.632812 -0.051488 139 141 165
0.203125 0.632812 -0.047922 138 140 164
0.207031 0.632812 -0.043887 138 139 159
0.210938 0.632812 -0.039303 139 141 155
0.214844 0.632812 -0.034702 126 129 138
0.218750 0.632812 -0.029806 128 132 135
0.222656 0.632812 -0.024661 134 138 135
0.226562 0.632812 -0.018467 136 141 137
0.230469 0.632812 -0.009405 131 135 132
-0.214844 0.628906 -0.031254 130 130 128
-0.210938 0.628906 -0.058466 126 128 127
-0.207031 0.628906 -0.060782 124 122 124
-0.203125 0.628906 -0.063827 121 120 120
-0.199219 0.628906 -0.066467 111 110 110
-0.195312 0.628906 -0.068816 99 99 99
-0.191406 0.628906 -0.071667 85 88 96
-0.187500 0.628906 -0.074163 76 79 86
-0.183594 0.628906 -0.076183 71 73 79
-0.179688 0.628906 -0.078279 72 74 79
-0.175781 0.628906 -0.080097 74 79 80
-0.171875 0.628906 -0.081978 73 82 77
-0.167969 0.628906 -0.083765 76 91 72
-0.164062 0.628906 -0.085628 103 107 74
-0.160156 0.628906 -0.087549 156 133 102
-0.156250 0.628906 -0.089613 192 153 125
-0.152344 0.628906 -0.092033 204 159 129
-0.148438 0.628906 -0.094118 211 163 128
-0.144531 0.628906 -0.096186 214 165 126
-0.140625 0.628906 -0.097720 213 164 121
-0.136719 0.628906 -0.098858 212 163 119
-0.132812 0.628906 -0.099553 211 161 118
-0.128906 0.628906 -0.099750 209 160 117
-0.125000 0.628906 -0.099801 208 158 117
-0.121094 0.628906 -0.099256 207 154 115
-0.117188 0.628906 -0.098250 204 149 112
-0.113281 0.628906 -0.096943 201 145 109
-0.109375 0.628906 -0.095344 198 141 107
-0.105469 0.628906 -0.093530 194 137 104
-0.101562 0.628906 -0.091621 192 134 103
-0.097656 0.628906 -0.089688 189 131 102
-0.093750 0.628906 -0.087918 187 130 101
-0.089844 0.628906 -0.086235 186 129 102
-0.085938 0.628906 -0.084823 184 128 101
-0.082031 0.628906 -0.083706 181 125 99
-0.078125 0.628906 -0.082944 179 124 99
-0.074219 0.628906 -0.082628 177 124 99
-0.070312 0.628906 -0.082641 175 124 99
-0.066406 0.628906 -0.083117 176 126 100
-0.062500 0.628906 -0.083841 175 127 101
-0.058594 0.628906 -0.084841 173 125 99
-0.054688 0.628906 -0.085970 173 125 100
-0.050781 0.628906 -0.087269 174 126 101
-0.046875 0.628906 -0.088720 174 125 101
-0.042969 0.628906 -0.090024 174 124 101
-0.039062 0.628906 -0.091429 177 126 103
-0.035156 0.628906 -0.092724 179 126 105
-0.031250 0.628906 -0.094311 183 129 107
-0.027344 0.628906 -0.095640 186 132 110
-0.023438 0.628906 -0.097064 188 134 111
-0.019531 0.628906 -0.098589 191 138 111
-0.015625 0.628906 -0.099693 195 141 114
-0.011719 0.628906 -0.100651 195 140 115
-0.007812 0.628906 -0.101517 196 140 116
-0.003906 0.628906 -0.102679 200 143 120
0.000000 0.628906 -0.103641 203 146 124
0.003906 0.628906 -0.105321 208 157 135
0.007812 0.628906 -0.107596 214 169 151
0.011719 0.628906 -0.109334 205 168 152
0.015625 0.628906 -0.111232 164 138 126
0.019531 0.628906 -0.113304 117 102 94
0.023438 0.628906 -0.115021 121 107 104
0.027344 0.628906 -0.117168 140 131 132
0.031250 0.628906 -0.119136 165 164 171
0.035156 0.628906 -0.120357 187 189 203
0.039062 0.628906 -0.121416 159 163 188
0.042969 0.628906 -0.122121 112 120 152
0.046875 0.628906 -0.122245 93 99 139
0.050781 0.628906 -0.122302 91 96 141
0.054688 0.628906 -0.122243 87 93 139
0.058594 0.628906 -0.122048 76 85 129
0.062500 0.628906 -0.122149 69 77 119
0.066406 0.628906 -0.121972 76 82 120
0.070312 0.628906 -0.121613 83 89 118
0.074219 0.628906 -0.121009 83 87 112
0.078125 0.628906 -0.119915 89 92 113
0.082031 0.628906 -0.119575 96 98 115
0.085938 0.628906 -0.118737 96 98 112
0.089844 0.628906 -0.116630 91 93 106
0.093750 0.628906 -0.114856 93 95 108
0.097656 0.628906 -0.112553 99 102 116
0.101562 0.628906 -0.110231 103 109 125
0.105469 0.628906 -0.108075 99 106 125
0.109375 0.628906 -0.105849 91 99 122
0.113281 0.628906 -0.103776 95 102 130
0.117188 0.628906 -0.101813 105 114 143
0.121094 0.628906 -0.099915 114 118 129
0.125000 0.628906 -0.097772 128 131 140
0.128906 0.628906 -0.095668 139 140 142
0.132812 0.628906 -0.093493 138 139 134
0.136719 0.628906 -0.091177 141 141 131
0.140625 0.628906 -0.088777 154 152 140
0.144531 0.628906 -0.086317 161 158 147
0.148438 0.628906 -0.083708 161 154 148
0.152344 0.628906 -0.081299 156 149 147
0.156250 0.628906 -0.079069 159 151 155
0.160156 0.628906 -0.076663 150 143 151
0.164062 0.628906 -0.074330 143 139 145
0.167969 0.628906 -0.072215 145 142 148
0.171875 0.628906 -0.070155 141 140 145
0.175781 0.628906 -0.068340 139 139 139
0.179688 0.628906 -0.066617 144 146 143
0.183594 0.628906 -0.064664 141 145 156
0.187500 0.628906 -0.062321 143 145 160
0.191406 0.628906 -0.059700 139 142 160
0.195312 0.628906 -0.056969 134 136 158
0.199219 0.628906 -0.053786 133 135 160
0.203125 0.628906 -0.050346 138 138 163
0.207031 0.628906 -0.046423 139 139 163
0.210938 0.628906 -0.041972 138 139 157
0.214844 0.628906 -0.037629 128 131 140
0.218750 0.628906 -0.033081 131 135 138
0.222656 0.628906 -0.028171 136 140 139
0.226562 0.628906 -0.022188 138 143 139
0.230469 0.628906 -0.015040 129 133 132
0.234375 0.628906 -0.004930 117 118 119
-0.218750 0.625000 -0.042534 129 129 127
-0.214844 0.625000 -0.056852 125 125 125
-0.210938 0.625000 -0.061592 126 126 126
-0.207031 0.625000 -0.065799 128 128 128
-0.203125 0.625000 -0.068681 127 126 127
-0.199219 0.625000 -0.071143 121 121 121
-0.195312 0.625000 -0.073568 112 112 112
-0.191406 0.625000 -0.075705 111 114 124
-0.187500 0.625000 -0.077816 102 105 114
-0.183594 0.625000 -0.079717 93 96 105
-0.179688 0.625000 -0.081632 91 94 101
-0.175781 0.625000 -0.083474 94 98 103
-0.171875 0.625000 -0.085467 98 105 105
-0.167969 0.625000 -0.087367 104 114 105
-0.164062 0.625000 -0.089378 112 119 98
-0.160156 0.625000 -0.091473 129 120 90
-0.156250 0.625000 -0.093599 165 132 105
-0.152344 0.625000 -0.096116 191 145 122
-0.148438 0.625000 -0.098237 207 159 131
-0.144531 0.625000 -0.100279 211 162 126
-0.140625 0.625000 -0.101772 208 156 116
-0.136719 0.625000 -0.102818 206 153 111
-0.132812 0.625000 -0.103503 205 153 111
-0.128906 0.625000 -0.103662 205 154 113
-0.125000 0.625000 -0.103688 205 155 113
-0.121094 0.625000 -0.103173 204 152 111
-0.117188 0.625000 -0.102177 200 148 108
-0.113281 0.625000 -0.100884 197 144 106
-0.109375 0.625000 -0.099351 194 140 104
-0.105469 0.625000 -0.097586 190 136 101
-0.101562 0.625000 -0.095735 187 133 100
-0.097656 0.625000 -0.093854 184 131 98
-0.093750 0.625000 -0.092113 181 129 97
-0.089844 0.625000 -0.090456 180 129 98
-0.085938 0.625000 -0.089052 178 128 97
-0.082031 0.625000 -0.087915 175 126 96
-0.078125 0.625000 -0.087090 174 125 95
-0.074219 0.625000 -0.086644 172 125 96
-0.070312 0.625000 -0.086412 170 124 96
-0.066406 0.625000 -0.086650 170 125 97
-0.062500 0.625000 -0.087113 168 124 97
-0.058594 0.625000 -0.087813 165 122 95
-0.054688 0.625000 -0.088588 165 121 96
-0.050781 0.625000 -0.089499 165 120 97
-0.046875 0.625000 -0.090543 163 118 95
-0.042969 0.625000 -0.091525 164 117 95
-0.039062 0.625000 -0.092668 167 118 97
-0.035156 0.625000 -0.093712 170 118 99
-0.031250 0.625000 -0.095097 174 121 103
-0.027344 0.625000 -0.096319 179 126 106
-0.023438 0.625000 -0.097628 182 127 108
-0.019531 0.625000 -0.099086 185 130 110
-0.015625 0.625000 -0.100184 190 134 115
-0.011719 0.625000 -0.101125 189 132 114
-0.007812 0.625000 -0.101972 189 132 116
-0.003906 0.625000 -0.103127 196 141 125
0.000000 0.625000 -0.104060 201 150 134
0.003906 0.625000 -0.105842 204 164 148
0.007812 0.625000 -0.108063 190 159 146
0.011719 0.625000 -0.109808 155 139 129
0.015625 0.625000 -0.111890 122 120 111
0.019531 0.625000 -0.114139 99 100 93
0.023438 0.625000 -0.115974 122 125 120
0.027344 0.625000 -0.118078 161 166 165
0.031250 0.625000 -0.120057 170 176 182
0.035156 0.625000 -0.121216 154 161 175
0.039062 0.625000 -0.122233 112 117 142
0.042969 0.625000 -0.122987 87 94 129
0.046875 0.625000 -0.123107 97 103 145
0.050781 0.625000 -0.123264 98 104 150
0.054688 0.625000 -0.123356 84 90 139
0.058594 0.625000 -0.123159 76 86 132
0.062500 0.625000 -0.123293 72 81 125
0.066406 0.625000 -0.123258 83 91 130
0.070312 0.625000 -0.122779 92 99 131
0.074219 0.625000 -0.122149 88 93 120
0.078125 0.625000 -0.121110 90 94 116
0.082031 0.625000 -0.120633 102 105 122
0.085938 0.625000 -0.119795 109 111 125
0.089844 0.625000 -0.117579 113 115 128
0.093750 0.625000 -0.115955 110 112 125
0.097656 0.625000 -0.113932 112 115 130
0.101562 0.625000 -0.111628 115 121 137
0.105469 0.625000 -0.109515 100 106 128
0.109375 0.625000 -0.107309 75 82 108
0.113281 0.625000 -0.105299 67 77 104
0.117188 0.625000 -0.103386 77 86 115
0.121094 0.625000 -0.101469 75 79 90
0.125000 0.625000 -0.099297 90 93 102
0.128906 0.625000 -0.097157 102 103 105
0.132812 0.625000 -0.095013 103 104 99
0.136719 0.625000 -0.092721 111 111 101
0.140625 0.625000 -0.090332 131 127 116
0.144531 0.625000 -0.087921 145 138 128
0.148438 0.625000 -0.085305 146 139 133
0.152344 0.625000 -0.082910 154 144 143
0.156250 0.625000 -0.080696 155 146 151
0.160156 0.625000 -0.078284 148 139 148
0.164062 0.625000 -0.075955 142 135 145
0.167969 0.625000 -0.073804 147 143 149
0.171875 0.625000 -0.071750 143 142 146
0.175781 0.625000 -0.069942 140 140 141
0.179688 0.625000 -0.068260 144 146 145
0.183594 0.625000 -0.066431 139 143 153
0.187500 0.625000 -0.064199 145 149 160
0.191406 0.625000 -0.061590 142 145 163
0.195312 0.625000 -0.058970 132 134 157
0.199219 0.625000 -0.055917 130 131 156
0.203125 0.625000 -0.052521 137 137 163
0.207031 0.625000 -0.048691 140 140 164
0.210938 0.625000 -0.044330 138 139 157
0.214844 0.625000 -0.040229 132 135 144
0.218750 0.625000 -0.035963 136 140 143
0.222656 0.625000 -0.031117 139 143 142
0.226562 0.625000 -0.025569 141 146 142
0.230469 0.625000 -0.019626 131 134 134
0.234375 0.625000 -0.011643 150 153 154
0.238281 0.625000 0.002334 93 94 94
-0.222656 0.621094 -0.050730 116 115 114
-0.218750 0.621094 -0.057133 132 133 128
-0.214844 0.621094 -0.062124 135 135 133
-0.210938 0.621094 -0.066286 135 137 136
-0.207031 0.621094 -0.069494 131 131 135
-0.203125 0.621094 -0.072469 124 125 130
-0.199219 0.621094 -0.075329 123 123 131
-0.195312 0.621094 -0.077591 125 125 133
-0.191406 0.621094 -0.079512 124 132 140
-0.187500 0.621094 -0.081446 117 123 133
-0.183594 0.621094 -0.083182 107 113 122
-0.179688 0.621094 -0.084974 102 107 118
-0.175781 0.621094 -0.086824 101 107 117
-0.171875 0.621094 -0.088827 108 112 122
-0.167969 0.621094 -0.090761 116 121 128
-0.164062 0.621094 -0.092809 122 128 126
-0.160156 0.621094 -0.094998 121 124 109
-0.156250 0.621094 -0.097291 142 131 104
-0.152344 0.621094 -0.099809 174 143 113
-0.148438 0.621094 -0.101846 197 157 123
-0.144531 0.621094 -0.103831 206 161 123
-0.140625 0.621094 -0.105307 203 154 116
-0.136719 0.621094 -0.106320 201 150 113
-0.132812 0.621094 -0.107031 203 154 116
-0.128906 0.621094 -0.107180 203 155 116
-0.125000 0.621094 -0.107256 200 152 112
-0.121094 0.621094 -0.106766 199 149 109
-0.117188 0.621094 -0.105803 195 145 106
-0.113281 0.621094 -0.104548 192 140 103
-0.109375 0.621094 -0.103124 188 138 101
-0.105469 0.621094 -0.101431 185 136 100
-0.101562 0.621094 -0.099658 183 135 100
-0.097656 0.621094 -0.097878 181 134 100
-0.093750 0.621094 -0.096200 179 133 99
-0.089844 0.621094 -0.094607 177 131 98
-0.085938 0.621094 -0.093272 174 129 97
-0.082031 0.621094 -0.092137 171 126 95
-0.078125 0.621094 -0.091255 168 124 94
-0.074219 0.621094 -0.090654 167 123 94
-0.070312 0.621094 -0.090113 165 122 94
-0.066406 0.621094 -0.090070 164 121 94
-0.062500 0.621094 -0.090340 161 119 92
-0.058594 0.621094 -0.090696 156 115 90
-0.054688 0.621094 -0.091099 155 113 90
-0.050781 0.621094 -0.091569 154 111 91
-0.046875 0.621094 -0.092128 153 109 90
-0.042969 0.621094 -0.092744 155 110 90
-0.039062 0.621094 -0.093603 159 111 92
-0.035156 0.621094 -0.094417 162 110 93
-0.031250 0.621094 -0.095696 165 111 94
-0.027344 0.621094 -0.096817 170 117 99
-0.023438 0.621094 -0.098078 175 120 104
-0.019531 0.621094 -0.099588 179 124 110
-0.015625 0.621094 -0.100771 182 128 117
-0.011719 0.621094 -0.101750 180 129 120
-0.007812 0.621094 -0.102662 182 138 131
-0.003906 0.621094 -0.103958 195 160 149
0.000000 0.621094 -0.104942 206 184 175
0.003906 0.621094 -0.106772 202 196 193
0.007812 0.621094 -0.108824 153 155 162
0.011719 0.621094 -0.110422 110 114 130
0.015625 0.621094 -0.112396 98 103 125
0.019531 0.621094 -0.114548 101 106 129
0.023438 0.621094 -0.116624 107 113 133
0.027344 0.621094 -0.118841 112 118 136
0.031250 0.621094 -0.120785 103 110 125
0.035156 0.621094 -0.121983 104 110 126
0.039062 0.621094 -0.123062 97 104 121
0.042969 0.621094 -0.123923 100 105 127
0.046875 0.621094 -0.124065 95 100 125
0.050781 0.621094 -0.124242 76 80 111
0.054688 0.621094 -0.124425 84 87 119
0.058594 0.621094 -0.124152 73 67 98
0.062500 0.621094 -0.124374 87 82 110
0.066406 0.621094 -0.124587 96 93 119
0.070312 0.621094 -0.123896 95 92 115
0.074219 0.621094 -0.123367 94 94 116
0.078125 0.621094 -0.122611 104 104 123
0.082031 0.621094 -0.121790 110 111 128
0.085938 0.621094 -0.120740 110 112 124
0.089844 0.621094 -0.118548 117 117 127
0.093750 0.621094 -0.117004 121 120 128
0.097656 0.621094 -0.115021 120 117 124
0.101562 0.621094 -0.112666 116 111 117
0.105469 0.621094 -0.110656 109 102 109
0.109375 0.621094 -0.108539 106 97 102
0.113281 0.621094 -0.106563 103 92 98
0.117188 0.621094 -0.104703 100 89 95
0.121094 0.621094 -0.102826 90 85 82
0.125000 0.621094 -0.100668 94 89 86
0.128906 0.621094 -0.098527 94 89 86
0.132812 0.621094 -0.096442 87 82 78
0.136719 0.621094 -0.094210 84 79 73
0.140625 0.621094 -0.091860 90 87 80
0.144531 0.621094 -0.089506 102 99 92
0.148438 0.621094 -0.086894 108 105 98
0.152344 0.621094 -0.084513 114 111 104
0.156250 0.621094 -0.082314 121 121 113
0.160156 0.621094 -0.079883 128 127 122
0.164062 0.621094 -0.077551 139 139 135
0.167969 0.621094 -0.075329 153 152 150
0.171875 0.621094 -0.073204 150 148 149
0.175781 0.621094 -0.071411 143 141 144
0.179688 0.621094 -0.069757 147 145 148
0.183594 0.621094 -0.068040 139 140 144
0.187500 0.621094 -0.065930 147 146 156
0.191406 0.621094 -0.063372 142 144 158
0.195312 0.621094 -0.060631 131 132 152
0.199219 0.621094 -0.057751 130 131 158
0.203125 0.621094 -0.054376 137 141 170
0.207031 0.621094 -0.050695 138 143 171
0.210938 0.621094 -0.046605 128 134 158
0.214844 0.621094 -0.042660 140 147 164
0.218750 0.621094 -0.038534 136 145 154
0.222656 0.621094 -0.033904 130 140 142
0.226562 0.621094 -0.028745 136 144 146
0.230469 0.621094 -0.022868 134 140 140
0.234375 0.621094 -0.015531 170 173 175
0.238281 0.621094 -0.004400 119 120 121
-0.226562 0.617188 -0.052575 99 97 96
-0.222656 0.617188 -0.056957 136 136 131
-0.218750 0.617188 -0.062958 133 134 129
-0.214844 0.617188 -0.067156 130 130 128
-0.210938 0.617188 -0.070618 126 128 127
-0.207031 0.617188 -0.073997 123 124 128
-0.203125 0.617188 -0.076798 121 122 127
-0.199219 0.617188 -0.078925 126 126 133
-0.195312 0.617188 -0.080838 132 132 139
-0.191406 0.617188 -0.082650 121 128 137
-0.187500 0.617188 -0.084473 119 125 134
-0.183594 0.617188 -0.086243 115 120 130
-0.179688 0.617188 -0.088122 110 115 125
-0.175781 0.617188 -0.090050 109 113 123
-0.171875 0.617188 -0.092159 112 116 126
-0.167969 0.617188 -0.094182 119 123 132
-0.164062 0.617188 -0.096297 124 128 134
-0.160156 0.617188 -0.098522 129 133 130
-0.156250 0.617188 -0.100783 126 130 114
-0.152344 0.617188 -0.103267 132 130 102
-0.148438 0.617188 -0.105181 150 137 94
-0.144531 0.617188 -0.107173 169 144 93
-0.140625 0.617188 -0.108532 178 138 94
-0.136719 0.617188 -0.109489 182 135 99
-0.132812 0.617188 -0.110274 190 142 106
-0.128906 0.617188 -0.110414 191 140 104
-0.125000 0.617188 -0.110462 188 136 100
-0.121094 0.617188 -0.109964 189 138 101
-0.117188 0.617188 -0.108927 189 138 102
-0.113281 0.617188 -0.107721 187 138 102
-0.109375 0.617188 -0.106379 185 137 102
-0.105469 0.617188 -0.104862 182 137 101
-0.101562 0.617188 -0.103258 180 136 101
-0.097656 0.617188 -0.101643 178 136 102
-0.093750 0.617188 -0.100076 175 134 100
-0.089844 0.617188 -0.098569 172 131 98
-0.085938 0.617188 -0.097295 169 127 96
-0.082031 0.617188 -0.096145 165 124 93
-0.078125 0.617188 -0.095219 162 120 91
-0.074219 0.617188 -0.094463 160 118 91
-0.070312 0.617188 -0.093589 157 116 90
-0.066406 0.617188 -0.093310 153 112 88
-0.062500 0.617188 -0.093333 148 107 84
-0.058594 0.617188 -0.093311 142 101 81
-0.054688 0.617188 -0.093290 138 96 79
-0.050781 0.617188 -0.093332 136 93 78
-0.046875 0.617188 -0.093492 137 93 79
-0.042969 0.617188 -0.093697 141 98 82
-0.039062 0.617188 -0.094253 147 101 85
-0.035156 0.617188 -0.094905 148 99 85
-0.031250 0.617188 -0.096061 148 98 85
-0.027344 0.617188 -0.096993 153 104 91
-0.023438 0.617188 -0.098192 161 111 100
-0.019531 0.617188 -0.099749 165 119 111
-0.015625 0.617188 -0.101025 162 123 120
-0.011719 0.617188 -0.102135 150 125 128
-0.007812 0.617188 -0.103252 146 133 142
-0.003906 0.617188 -0.104735 178 169 166
0.000000 0.617188 -0.105779 176 178 178
0.003906 0.617188 -0.107714 148 155 162
0.007812 0.617188 -0.109822 105 113 127
0.011719 0.617188 -0.111413 90 98 117
0.015625 0.617188 -0.113287 95 103 125
0.019531 0.617188 -0.115378 100 106 130
0.023438 0.617188 -0.117577 101 107 128
0.027344 0.617188 -0.119771 98 105 122
0.031250 0.617188 -0.121589 96 102 118
0.035156 0.617188 -0.122771 102 109 122
0.039062 0.617188 -0.123830 96 102 118
0.042969 0.617188 -0.124703 99 106 124
0.046875 0.617188 -0.124854 99 105 128
0.050781 0.617188 -0.125045 81 85 114
0.054688 0.617188 -0.125379 83 87 117
0.058594 0.617188 -0.125147 86 81 110
0.062500 0.617188 -0.125382 95 90 117
0.066406 0.617188 -0.125828 102 98 124
0.070312 0.617188 -0.125004 102 98 123
0.074219 0.617188 -0.124345 102 103 123
0.078125 0.617188 -0.123709 111 112 131
0.082031 0.617188 -0.122596 114 116 131
0.085938 0.617188 -0.121341 112 114 126
0.089844 0.617188 -0.119287 113 113 123
0.093750 0.617188 -0.117787 112 112 120
0.097656 0.617188 -0.115942 110 109 115
0.101562 0.617188 -0.113724 109 104 110
0.105469 0.617188 -0.111795 108 101 108
0.109375 0.617188 -0.109740 109 100 105
0.113281 0.617188 -0.107843 107 96 102
0.117188 0.617188 -0.106068 104 93 99
0.121094 0.617188 -0.104252 107 101 101
0.125000 0.617188 -0.102114 108 103 100
0.128906 0.617188 -0.099975 104 99 96
0.132812 0.617188 -0.097937 96 91 87
0.136719 0.617188 -0.095763 92 87 83
0.140625 0.617188 -0.093455 93 90 83
0.144531 0.617188 -0.091132 94 91 84
0.148438 0.617188 -0.088512 93 90 83
0.152344 0.617188 -0.086114 92 89 82
0.156250 0.617188 -0.083889 88 85 78
0.160156 0.617188 -0.081417 84 83 78
0.164062 0.617188 -0.079058 105 104 100
0.167969 0.617188 -0.076751 141 140 138
0.171875 0.617188 -0.074555 154 152 153
0.175781 0.617188 -0.072720 149 148 150
0.179688 0.617188 -0.071094 148 146 149
0.183594 0.617188 -0.069433 138 139 143
0.187500 0.617188 -0.067409 141 141 149
0.191406 0.617188 -0.064924 139 141 155
0.195312 0.617188 -0.062095 133 134 154
0.199219 0.617188 -0.059315 132 133 160
0.203125 0.617188 -0.055984 137 141 170
0.207031 0.617188 -0.052412 138 143 171
0.210938 0.617188 -0.048512 133 139 161
0.214844 0.617188 -0.044726 136 143 158
0.218750 0.617188 -0.040664 134 143 152
0.222656 0.617188 -0.036082 130 138 141
0.226562 0.617188 -0.031176 138 144 144
0.230469 0.617188 -0.025508 133 139 139
0.234375 0.617188 -0.018557 160 163 163
0.238281 0.617188 -0.011178 99 99 99
0.242188 0.617188 0.003203 78 78 79
-0.230469 0.613281 -0.054018 113 106 104
-0.226562 0.613281 -0.058320 141 137 134
-0.222656 0.613281 -0.063272 132 133 128
-0.218750 0.613281 -0.067492 129 129 127
-0.214844 0.613281 -0.071176 125 125 125
-0.210938 0.613281 -0.074863 123 124 125
-0.207031 0.613281 -0.078038 122 123 127
-0.203125 0.613281 -0.080595 122 123 127
-0.199219 0.613281 -0.082440 127 127 135
-0.195312 0.613281 -0.084126 133 133 141
-0.191406 0.613281 -0.085787 117 124 131
-0.187500 0.613281 -0.087512 119 125 134
-0.183594 0.613281 -0.089339 121 124 134
-0.179688 0.613281 -0.091296 117 120 130
-0.175781 0.613281 -0.093281 114 117 127
-0.171875 0.613281 -0.095384 114 116 127
-0.167969 0.613281 -0.097426 118 119 130
-0.164062 0.613281 -0.099540 123 124 131
-0.160156 0.613281 -0.101736 133 136 137
-0.156250 0.613281 -0.103921 128 131 128
-0.152344 0.613281 -0.106282 122 128 113
-0.148438 0.613281 -0.108159 120 127 101
-0.144531 0.613281 -0.110092 125 130 89
-0.140625 0.613281 -0.111280 142 133 83
-0.136719 0.613281 -0.112146 161 132 88
-0.132812 0.613281 -0.112986 172 130 94
-0.128906 0.613281 -0.113208 174 126 95
-0.125000 0.613281 -0.113225 177 127 97
-0.121094 0.613281 -0.112753 182 133 101
-0.117188 0.613281 -0.111815 184 137 104
-0.113281 0.613281 -0.110636 184 138 105
-0.109375 0.613281 -0.109353 182 137 105
-0.105469 0.613281 -0.108016 178 136 105
-0.101562 0.613281 -0.106634 176 135 104
-0.097656 0.613281 -0.105195 174 134 104
-0.093750 0.613281 -0.103785 172 131 103
-0.089844 0.613281 -0.102425 168 126 98
-0.085938 0.613281 -0.101250 165 122 96
-0.082031 0.613281 -0.100105 164 119 93
-0.078125 0.613281 -0.099131 162 116 90
-0.074219 0.613281 -0.098207 160 114 89
-0.070312 0.613281 -0.097010 155 110 88
-0.066406 0.613281 -0.096453 150 106 86
-0.062500 0.613281 -0.096246 145 103 85
-0.058594 0.613281 -0.095785 141 100 85
-0.054688 0.613281 -0.095264 137 96 85
-0.050781 0.613281 -0.094958 133 94 84
-0.046875 0.613281 -0.094726 133 96 87
-0.042969 0.613281 -0.094643 137 102 94
-0.039062 0.613281 -0.095010 138 104 98
-0.035156 0.613281 -0.095304 133 100 98
-0.031250 0.613281 -0.096140 134 104 106
-0.027344 0.613281 -0.096792 136 110 116
-0.023438 0.613281 -0.097929 136 115 125
-0.019531 0.613281 -0.099516 134 124 139
-0.015625 0.613281 -0.100843 126 128 149
-0.011719 0.613281 -0.102078 116 126 147
-0.007812 0.613281 -0.103319 113 128 148
