ply
    format ascii 1.0
    element vertex 72140
    property float x
    property float y
    property float z
    property uchar red
    property uchar green
    property uchar blue
    end_header
0.000000 -0.097656 0.086830 44 41 40
0.003906 -0.097656 0.086540 47 43 41
0.007812 -0.097656 0.086188 40 36 34
0.011719 -0.097656 0.085900 33 31 30
0.015625 -0.097656 0.086016 33 31 31
0.019531 -0.097656 0.086704 33 32 33
0.023438 -0.097656 0.087832 32 33 34
0.027344 -0.097656 0.089283 35 37 38
0.031250 -0.097656 0.090890 51 53 53
0.035156 -0.097656 0.092177 63 66 62
0.039062 -0.097656 0.093001 43 45 43
0.042969 -0.097656 0.093552 21 23 24
0.046875 -0.097656 0.094082 17 19 21
0.050781 -0.097656 0.094937 21 24 25
0.054688 -0.097656 0.096008 26 30 32
0.058594 -0.097656 0.097133 32 37 37
0.062500 -0.097656 0.098224 35 37 36
0.066406 -0.097656 0.099314 36 37 35
0.070312 -0.097656 0.100375 35 35 35
0.074219 -0.097656 0.101307 34 33 33
0.078125 -0.097656 0.102183 33 32 33
0.082031 -0.097656 0.103208 36 34 34
0.085938 -0.097656 0.104524 39 37 36
0.089844 -0.097656 0.105860 42 39 37
0.093750 -0.097656 0.107060 49 47 44
0.097656 -0.097656 0.107647 55 53 50
0.101562 -0.097656 0.107386 57 53 51
0.105469 -0.097656 0.106858 58 54 52
0.109375 -0.097656 0.106092 54 51 49
0.113281 -0.097656 0.105254 51 48 47
0.117188 -0.097656 0.104307 49 46 46
0.121094 -0.097656 0.103168 45 44 44
0.125000 -0.097656 0.102004 46 45 44
0.128906 -0.097656 0.100263 42 42 41
0.132812 -0.097656 0.097757 33 34 33
0.136719 -0.097656 0.095020 28 30 30
0.140625 -0.097656 0.092312 26 28 29
0.144531 -0.097656 0.089208 25 27 28
0.148438 -0.097656 0.085537 24 26 27
0.152344 -0.097656 0.081503 24 25 26
0.156250 -0.097656 0.077459 23 23 23
0.160156 -0.097656 0.073176 22 21 21
0.164062 -0.097656 0.067467 23 21 21
0.167969 -0.097656 0.060219 22 19 19
0.171875 -0.097656 0.050879 26 18 19
0.175781 -0.097656 0.039440 22 13 17
-0.207031 -0.101562 0.043645 64 50 41
-0.203125 -0.101562 0.058712 57 42 37
-0.199219 -0.101562 0.069185 59 45 39
-0.195312 -0.101562 0.075995 59 47 41
-0.191406 -0.101562 0.081131 59 49 44
-0.187500 -0.101562 0.084736 51 43 40
-0.183594 -0.101562 0.087816 46 39 36
-0.179688 -0.101562 0.090688 49 40 36
-0.175781 -0.101562 0.093592 53 44 39
-0.171875 -0.101562 0.096460 55 46 41
-0.167969 -0.101562 0.098713 54 46 42
-0.164062 -0.101562 0.100396 54 46 42
-0.160156 -0.101562 0.102003 55 47 43
-0.156250 -0.101562 0.103631 57 49 46
-0.152344 -0.101562 0.104927 59 53 50
-0.148438 -0.101562 0.105872 58 54 51
-0.144531 -0.101562 0.106665 51 50 48
-0.140625 -0.101562 0.107350 47 47 46
-0.136719 -0.101562 0.107940 50 49 48
-0.132812 -0.101562 0.108418 53 52 50
-0.128906 -0.101562 0.108659 52 50 48
-0.125000 -0.101562 0.108593 50 48 46
-0.121094 -0.101562 0.108387 51 49 47
-0.117188 -0.101562 0.108025 54 52 50
-0.113281 -0.101562 0.107515 56 54 50
-0.109375 -0.101562 0.106893 55 53 50
-0.105469 -0.101562 0.106078 55 53 49
-0.101562 -0.101562 0.105023 53 49 46
-0.097656 -0.101562 0.103850 50 46 44
-0.093750 -0.101562 0.102686 49 44 42
-0.089844 -0.101562 0.101382 45 40 39
-0.085938 -0.101562 0.099914 41 37 37
-0.082031 -0.101562 0.098394 40 37 36
-0.078125 -0.101562 0.096876 39 37 35
-0.074219 -0.101562 0.095525 38 36 35
-0.070312 -0.101562 0.094396 39 36 35
-0.066406 -0.101562 0.093476 41 37 36
-0.062500 -0.101562 0.092787 45 41 39
-0.058594 -0.101562 0.091811 47 45 42
-0.054688 -0.101562 0.090403 45 44 42
-0.050781 -0.101562 0.088916 46 46 42
-0.046875 -0.101562 0.087509 45 44 41
-0.042969 -0.101562 0.086425 43 42 40
-0.039062 -0.101562 0.085921 44 43 40
-0.035156 -0.101562 0.085613 46 45 42
-0.031250 -0.101562 0.085415 52 50 47
-0.027344 -0.101562 0.085453 52 51 49
-0.023438 -0.101562 0.085518 48 46 45
-0.019531 -0.101562 0.085634 44 41 41
-0.015625 -0.101562 0.085630 43 40 39
-0.011719 -0.101562 0.085764 52 47 45
-0.007812 -0.101562 0.085876 67 61 54
-0.003906 -0.101562 0.085728 72 65 55
0.000000 -0.101562 0.085390 67 59 50
0.003906 -0.101562 0.084864 55 47 41
0.007812 -0.101562 0.084379 40 34 31
0.011719 -0.101562 0.084071 34 30 29
0.015625 -0.101562 0.084233 31 27 27
0.019531 -0.101562 0.084930 28 25 26
0.023438 -0.101562 0.086110 30 29 30
0.027344 -0.101562 0.087716 39 40 40
0.031250 -0.101562 0.089456 50 51 50
0.035156 -0.101562 0.090874 40 42 42
0.039062 -0.101562 0.091898 20 22 22
0.042969 -0.101562 0.092689 12 12 14
0.046875 -0.101562 0.093474 13 15 16
0.050781 -0.101562 0.094574 21 24 25
0.054688 -0.101562 0.095829 26 30 30
0.058594 -0.101562 0.097069 31 35 36
0.062500 -0.101562 0.098250 37 39 39
0.066406 -0.101562 0.099358 39 40 39
0.070312 -0.101562 0.100334 39 38 38
0.074219 -0.101562 0.101183 36 34 34
0.078125 -0.101562 0.102004 35 32 32
0.082031 -0.101562 0.102995 37 34 33
0.085938 -0.101562 0.104274 39 34 32
0.089844 -0.101562 0.105574 40 35 33
0.093750 -0.101562 0.106778 49 45 40
0.097656 -0.101562 0.107406 55 51 46
0.101562 -0.101562 0.107227 55 50 47
0.105469 -0.101562 0.106760 55 51 48
0.109375 -0.101562 0.106033 50 46 45
0.113281 -0.101562 0.105179 46 43 42
0.117188 -0.101562 0.104127 44 41 41
0.121094 -0.101562 0.102871 42 40 40
0.125000 -0.101562 0.101593 42 40 39
0.128906 -0.101562 0.099800 37 36 35
0.132812 -0.101562 0.097317 30 31 30
0.136719 -0.101562 0.094621 28 29 28
0.140625 -0.101562 0.091972 26 28 28
0.144531 -0.101562 0.088894 26 29 29
0.148438 -0.101562 0.085180 27 29 28
0.152344 -0.101562 0.081090 25 26 26
0.156250 -0.101562 0.076988 24 24 23
0.160156 -0.101562 0.072644 25 24 23
0.164062 -0.101562 0.066766 28 26 25
0.167969 -0.101562 0.059229 24 20 21
0.171875 -0.101562 0.049341 23 17 18
0.175781 -0.101562 0.035190 17 10 15
-0.207031 -0.105469 0.040704 83 69 57
-0.203125 -0.105469 0.056495 57 43 37
-0.199219 -0.105469 0.067273 63 48 40
-0.195312 -0.105469 0.074890 63 51 43
-0.191406 -0.105469 0.080373 57 48 42
-0.187500 -0.105469 0.084241 49 42 39
-0.183594 -0.105469 0.087469 46 39 36
-0.179688 -0.105469 0.090354 50 41 37
-0.175781 -0.105469 0.093245 53 44 38
-0.171875 -0.105469 0.096091 53 45 40
-0.167969 -0.105469 0.098369 51 45 40
-0.164062 -0.105469 0.100076 52 45 41
-0.160156 -0.105469 0.101665 52 45 42
-0.156250 -0.105469 0.103285 53 46 44
-0.152344 -0.105469 0.104599 55 49 47
-0.148438 -0.105469 0.105578 58 54 51
-0.144531 -0.105469 0.106430 55 53 51
-0.140625 -0.105469 0.107157 52 51 49
-0.136719 -0.105469 0.107708 53 51 49
-0.132812 -0.105469 0.108070 53 50 48
-0.128906 -0.105469 0.108190 48 45 43
-0.125000 -0.105469 0.108026 44 42 41
-0.121094 -0.105469 0.107749 46 44 42
-0.117188 -0.105469 0.107334 48 46 44
-0.113281 -0.105469 0.106803 49 47 44
-0.109375 -0.105469 0.106166 49 46 44
-0.105469 -0.105469 0.105325 48 46 43
-0.101562 -0.105469 0.104272 48 45 42
-0.097656 -0.105469 0.103117 48 44 42
-0.093750 -0.105469 0.101948 51 45 43
-0.089844 -0.105469 0.100588 52 46 44
-0.085938 -0.105469 0.099042 51 47 44
-0.082031 -0.105469 0.097442 52 49 45
-0.078125 -0.105469 0.095845 51 50 46
-0.074219 -0.105469 0.094434 47 46 43
-0.070312 -0.105469 0.093231 44 43 41
-0.066406 -0.105469 0.092262 41 38 38
-0.062500 -0.105469 0.091578 41 39 38
-0.058594 -0.105469 0.090596 44 42 41
-0.054688 -0.105469 0.089166 45 44 42
-0.050781 -0.105469 0.087640 48 47 44
-0.046875 -0.105469 0.086170 46 45 42
-0.042969 -0.105469 0.085033 42 42 39
-0.039062 -0.105469 0.084492 42 41 39
-0.035156 -0.105469 0.084141 42 42 40
-0.031250 -0.105469 0.083817 46 46 44
-0.027344 -0.105469 0.083588 47 46 45
-0.023438 -0.105469 0.083324 46 45 44
-0.019531 -0.105469 0.083096 47 44 44
-0.015625 -0.105469 0.082723 52 48 46
-0.011719 -0.105469 0.082760 78 68 62
-0.007812 -0.105469 0.083010 107 92 78
-0.003906 -0.105469 0.083036 103 89 71
0.000000 -0.105469 0.083017 91 77 58
0.003906 -0.105469 0.082856 79 65 50
0.007812 -0.105469 0.082725 68 56 46
0.011719 -0.105469 0.082773 63 52 45
0.015625 -0.105469 0.083153 46 38 35
0.019531 -0.105469 0.083855 33 27 27
0.023438 -0.105469 0.084990 34 30 28
0.027344 -0.105469 0.086643 48 45 41
0.031250 -0.105469 0.088414 59 55 52
0.035156 -0.105469 0.089864 42 41 39
0.039062 -0.105469 0.091116 27 28 26
0.042969 -0.105469 0.092203 25 24 22
0.046875 -0.105469 0.093198 30 29 27
0.050781 -0.105469 0.094431 40 41 36
0.054688 -0.105469 0.095801 41 43 38
0.058594 -0.105469 0.097171 42 43 41
0.062500 -0.105469 0.098430 47 46 44
0.066406 -0.105469 0.099541 47 44 43
0.070312 -0.105469 0.100480 45 41 41
0.074219 -0.105469 0.101285 42 38 37
0.078125 -0.105469 0.102055 40 36 34
0.082031 -0.105469 0.102982 42 37 35
0.085938 -0.105469 0.104166 41 37 33
0.089844 -0.105469 0.105367 42 38 33
0.093750 -0.105469 0.106464 53 48 41
0.097656 -0.105469 0.107032 59 54 47
0.101562 -0.105469 0.106886 59 54 48
0.105469 -0.105469 0.106453 61 55 51
0.109375 -0.105469 0.105761 57 50 48
0.113281 -0.105469 0.104904 53 47 45
0.117188 -0.105469 0.103787 50 45 44
0.121094 -0.105469 0.102450 45 42 40
0.125000 -0.105469 0.101093 42 40 38
0.128906 -0.105469 0.099270 36 35 33
0.132812 -0.105469 0.096825 31 31 29
0.136719 -0.105469 0.094173 30 30 28
0.140625 -0.105469 0.091553 28 29 28
0.144531 -0.105469 0.088498 29 30 29
0.148438 -0.105469 0.084782 29 31 29
0.152344 -0.105469 0.080674 25 26 25
0.156250 -0.105469 0.076586 22 23 22
0.160156 -0.105469 0.072285 24 23 22
0.164062 -0.105469 0.066262 28 27 25
0.167969 -0.105469 0.058236 24 22 22
0.171875 -0.105469 0.047610 23 19 21
0.175781 -0.105469 0.031174 17 12 18
-0.207031 -0.109375 0.040620 89 73 63
-0.203125 -0.109375 0.055692 49 37 33
-0.199219 -0.109375 0.065617 56 43 35
-0.195312 -0.109375 0.073541 61 48 39
-0.191406 -0.109375 0.079374 59 48 41
-0.187500 -0.109375 0.083575 56 48 42
-0.183594 -0.109375 0.087049 56 48 43
-0.179688 -0.109375 0.090002 60 50 43
-0.175781 -0.109375 0.092885 59 50 42
-0.171875 -0.109375 0.095774 58 50 44
-0.167969 -0.109375 0.098087 54 48 43
-0.164062 -0.109375 0.099760 53 47 43
-0.160156 -0.109375 0.101328 52 46 43
-0.156250 -0.109375 0.102935 50 45 43
-0.152344 -0.109375 0.104251 50 46 45
-0.148438 -0.109375 0.105246 53 50 48
-0.144531 -0.109375 0.106103 52 50 48
-0.140625 -0.109375 0.106840 52 50 47
-0.136719 -0.109375 0.107328 53 50 47
-0.132812 -0.109375 0.107583 53 49 47
-0.128906 -0.109375 0.107642 52 48 46
-0.125000 -0.109375 0.107449 52 48 45
-0.121094 -0.109375 0.107156 51 47 45
-0.117188 -0.109375 0.106740 50 46 44
-0.113281 -0.109375 0.106226 48 45 43
-0.109375 -0.109375 0.105609 46 43 41
-0.105469 -0.109375 0.104808 45 42 40
-0.101562 -0.109375 0.103833 47 43 41
-0.097656 -0.109375 0.102766 47 43 42
-0.093750 -0.109375 0.101664 48 44 42
-0.089844 -0.109375 0.100327 49 45 43
-0.085938 -0.109375 0.098775 47 44 42
-0.082031 -0.109375 0.097153 47 46 43
-0.078125 -0.109375 0.095528 48 49 46
-0.074219 -0.109375 0.094080 46 48 46
-0.070312 -0.109375 0.092814 45 46 44
-0.066406 -0.109375 0.091790 41 41 41
-0.062500 -0.109375 0.091057 41 39 40
-0.058594 -0.109375 0.090012 44 42 42
-0.054688 -0.109375 0.088464 46 45 43
-0.050781 -0.109375 0.086788 51 49 45
-0.046875 -0.109375 0.085196 49 48 44
-0.042969 -0.109375 0.083985 47 46 42
-0.039062 -0.109375 0.083415 49 48 45
-0.035156 -0.109375 0.082961 51 51 48
-0.031250 -0.109375 0.082368 52 51 49
-0.027344 -0.109375 0.081584 46 46 45
-0.023438 -0.109375 0.080575 41 40 41
-0.019531 -0.109375 0.079557 42 39 40
-0.015625 -0.109375 0.078313 44 40 40
-0.011719 -0.109375 0.077796 56 47 44
-0.007812 -0.109375 0.078113 66 53 47
-0.003906 -0.109375 0.078671 72 58 47
0.000000 -0.109375 0.079552 90 73 54
0.003906 -0.109375 0.080363 106 87 63
0.007812 -0.109375 0.081028 116 95 70
0.011719 -0.109375 0.081745 116 94 73
0.015625 -0.109375 0.082548 87 70 56
0.019531 -0.109375 0.083358 57 47 40
0.023438 -0.109375 0.084450 51 44 39
0.027344 -0.109375 0.086044 74 65 56
0.031250 -0.109375 0.087718 84 71 62
0.035156 -0.109375 0.089146 54 47 41
0.039062 -0.109375 0.090602 46 42 36
0.042969 -0.109375 0.092023 48 44 37
0.046875 -0.109375 0.093266 37 34 30
0.050781 -0.109375 0.094570 31 30 27
0.054688 -0.109375 0.095921 29 27 25
0.058594 -0.109375 0.097194 29 27 26
0.062500 -0.109375 0.098373 33 28 29
0.066406 -0.109375 0.099483 34 28 29
0.070312 -0.109375 0.100452 33 28 29
0.074219 -0.109375 0.101316 30 27 28
0.078125 -0.109375 0.102103 29 27 27
0.082031 -0.109375 0.102981 32 30 29
0.085938 -0.109375 0.104062 35 32 30
0.089844 -0.109375 0.105131 38 35 32
0.093750 -0.109375 0.106075 49 45 40
0.097656 -0.109375 0.106540 54 49 44
0.101562 -0.109375 0.106387 54 48 44
0.105469 -0.109375 0.105966 55 49 45
0.109375 -0.109375 0.105284 50 43 41
0.113281 -0.109375 0.104405 47 41 39
0.117188 -0.109375 0.103257 45 40 39
0.121094 -0.109375 0.101895 41 37 36
0.125000 -0.109375 0.100499 38 35 33
0.128906 -0.109375 0.098664 34 32 30
0.132812 -0.109375 0.096249 31 30 28
0.136719 -0.109375 0.093623 30 30 27
0.140625 -0.109375 0.091005 28 28 26
0.144531 -0.109375 0.087971 28 29 27
0.148438 -0.109375 0.084304 29 30 28
0.152344 -0.109375 0.080296 25 26 25
0.156250 -0.109375 0.076309 24 24 23
0.160156 -0.109375 0.072023 25 25 22
0.164062 -0.109375 0.065879 29 27 25
0.167969 -0.109375 0.057327 25 23 22
0.171875 -0.109375 0.045998 24 22 23
0.175781 -0.109375 0.027516 19 14 21
-0.207031 -0.113281 0.040507 119 101 84
-0.203125 -0.113281 0.054455 49 38 34
-0.199219 -0.113281 0.064130 48 37 31
-0.195312 -0.113281 0.072280 53 42 34
-0.191406 -0.113281 0.078411 51 42 35
-0.187500 -0.113281 0.082891 50 43 37
-0.183594 -0.113281 0.086617 54 46 40
-0.179688 -0.113281 0.089654 57 47 39
-0.175781 -0.113281 0.092544 55 46 37
-0.171875 -0.113281 0.095515 59 50 42
-0.167969 -0.113281 0.097843 56 49 42
-0.164062 -0.113281 0.099440 52 47 42
-0.160156 -0.113281 0.100985 52 47 44
-0.156250 -0.113281 0.102567 52 47 45
-0.152344 -0.113281 0.103887 56 52 49
-0.148438 -0.113281 0.104890 59 55 52
-0.144531 -0.113281 0.105688 57 54 50
-0.140625 -0.113281 0.106355 55 52 48
-0.136719 -0.113281 0.106764 53 48 45
-0.132812 -0.113281 0.106953 53 47 44
-0.128906 -0.113281 0.107008 55 49 46
-0.125000 -0.113281 0.106833 54 48 46
-0.121094 -0.113281 0.106557 52 47 44
-0.117188 -0.113281 0.106189 53 48 45
-0.113281 -0.113281 0.105739 54 48 45
-0.109375 -0.113281 0.105177 54 48 45
-0.105469 -0.113281 0.104471 55 49 46
-0.101562 -0.113281 0.103627 60 53 49
-0.097656 -0.113281 0.102684 63 55 51
-0.093750 -0.113281 0.101693 63 56 52
-0.089844 -0.113281 0.100423 63 57 53
-0.085938 -0.113281 0.098897 57 54 50
-0.082031 -0.113281 0.097261 56 55 51
-0.078125 -0.113281 0.095583 59 60 56
-0.074219 -0.113281 0.094061 56 59 55
-0.070312 -0.113281 0.092716 52 54 51
-0.066406 -0.113281 0.091632 44 45 45
-0.062500 -0.113281 0.090851 41 41 41
-0.058594 -0.113281 0.089705 43 42 41
-0.054688 -0.113281 0.087935 40 39 39
-0.050781 -0.113281 0.086031 38 37 36
-0.046875 -0.113281 0.084293 35 35 34
-0.042969 -0.113281 0.082974 35 35 34
-0.039062 -0.113281 0.082326 40 40 39
-0.035156 -0.113281 0.081704 47 47 45
-0.031250 -0.113281 0.080782 49 49 47
-0.027344 -0.113281 0.079376 40 40 40
-0.023438 -0.113281 0.077506 35 35 36
-0.019531 -0.113281 0.075488 39 37 38
-0.015625 -0.113281 0.073139 41 36 37
-0.011719 -0.113281 0.071818 36 31 31
-0.007812 -0.113281 0.072102 32 27 26
-0.003906 -0.113281 0.073449 38 31 27
0.000000 -0.113281 0.075347 52 40 33
0.003906 -0.113281 0.077178 61 45 36
0.007812 -0.113281 0.078838 73 55 43
0.011719 -0.113281 0.080503 88 68 52
0.015625 -0.113281 0.082020 88 69 54
0.019531 -0.113281 0.083215 82 67 53
0.023438 -0.113281 0.084297 84 72 59
0.027344 -0.113281 0.085685 99 85 68
0.031250 -0.113281 0.087089 80 66 52
0.035156 -0.113281 0.088398 47 39 32
0.039062 -0.113281 0.090149 61 51 40
0.042969 -0.113281 0.092021 88 74 57
0.046875 -0.113281 0.093567 74 63 51
0.050781 -0.113281 0.094975 60 51 43
0.054688 -0.113281 0.096256 47 41 38
0.058594 -0.113281 0.097350 37 32 33
0.062500 -0.113281 0.098367 34 28 30
0.066406 -0.113281 0.099420 33 27 29
0.070312 -0.113281 0.100401 37 32 34
0.074219 -0.113281 0.101295 44 39 38
0.078125 -0.113281 0.102116 46 43 41
0.082031 -0.113281 0.102970 48 46 45
0.085938 -0.113281 0.103972 50 49 46
0.089844 -0.113281 0.104940 49 49 46
0.093750 -0.113281 0.105754 54 52 48
0.097656 -0.113281 0.106093 54 50 47
0.101562 -0.113281 0.105879 53 48 44
0.105469 -0.113281 0.105450 54 47 44
0.109375 -0.113281 0.104765 47 41 39
0.113281 -0.113281 0.103861 45 39 37
0.117188 -0.113281 0.102703 44 38 37
0.121094 -0.113281 0.101336 40 35 35
0.125000 -0.113281 0.099925 38 34 33
0.128906 -0.113281 0.098087 35 32 30
0.132812 -0.113281 0.095661 32 30 27
0.136719 -0.113281 0.093017 30 29 26
0.140625 -0.113281 0.090383 27 26 24
0.144531 -0.113281 0.087362 26 26 24
0.148438 -0.113281 0.083775 27 27 25
0.152344 -0.113281 0.079916 26 26 24
0.156250 -0.113281 0.076031 27 26 24
0.160156 -0.113281 0.071672 27 26 23
0.164062 -0.113281 0.065492 28 27 24
0.167969 -0.113281 0.056555 26 24 23
0.171875 -0.113281 0.044352 26 23 24
0.175781 -0.113281 0.024135 21 16 23
-0.207031 -0.117188 0.041671 149 132 109
-0.203125 -0.117188 0.053925 60 48 42
-0.199219 -0.117188 0.063326 53 42 35
-0.195312 -0.117188 0.071290 55 44 36
-0.191406 -0.117188 0.077499 49 41 34
-0.187500 -0.117188 0.082194 46 39 34
-0.183594 -0.117188 0.086082 51 43 37
-0.179688 -0.117188 0.089230 52 42 33
-0.175781 -0.117188 0.092197 50 40 31
-0.171875 -0.117188 0.095224 56 45 36
-0.167969 -0.117188 0.097545 55 45 37
-0.164062 -0.117188 0.099111 50 43 38
-0.160156 -0.117188 0.100649 47 42 39
-0.156250 -0.117188 0.102150 47 43 41
-0.152344 -0.117188 0.103415 53 49 46
-0.148438 -0.117188 0.104422 55 51 48
-0.144531 -0.117188 0.105187 50 47 44
-0.140625 -0.117188 0.105791 46 42 40
-0.136719 -0.117188 0.106131 43 38 37
-0.132812 -0.117188 0.106248 44 38 36
-0.128906 -0.117188 0.106256 48 41 39
-0.125000 -0.117188 0.106062 47 40 39
-0.121094 -0.117188 0.105790 46 40 38
-0.117188 -0.117188 0.105444 50 43 40
-0.113281 -0.117188 0.105014 49 42 40
-0.109375 -0.117188 0.104456 44 37 36
-0.105469 -0.117188 0.103788 42 36 35
-0.101562 -0.117188 0.103002 45 38 36
-0.097656 -0.117188 0.102123 47 39 38
-0.093750 -0.117188 0.101223 48 41 39
-0.089844 -0.117188 0.100031 52 45 43
-0.085938 -0.117188 0.098589 52 47 45
-0.082031 -0.117188 0.097007 55 53 49
-0.078125 -0.117188 0.095314 59 58 53
-0.074219 -0.117188 0.093734 57 58 53
-0.070312 -0.117188 0.092405 57 58 54
-0.066406 -0.117188 0.091434 52 52 50
-0.062500 -0.117188 0.090714 49 49 47
-0.058594 -0.117188 0.089479 52 51 49
-0.054688 -0.117188 0.087449 46 46 44
-0.050781 -0.117188 0.085239 38 38 37
-0.046875 -0.117188 0.083304 35 36 35
-0.042969 -0.117188 0.081840 37 37 36
-0.039062 -0.117188 0.081005 40 42 40
-0.035156 -0.117188 0.080029 44 45 43
-0.031250 -0.117188 0.078617 40 40 40
-0.027344 -0.117188 0.076565 30 31 32
-0.023438 -0.117188 0.073944 29 30 31
-0.019531 -0.117188 0.071137 36 35 36
-0.015625 -0.117188 0.068021 39 36 36
-0.011719 -0.117188 0.066334 35 31 32
-0.007812 -0.117188 0.066840 32 28 28
-0.003906 -0.117188 0.068788 33 29 28
0.000000 -0.117188 0.071245 32 26 25
0.003906 -0.117188 0.073675 29 22 21
0.007812 -0.117188 0.076045 37 28 25
0.011719 -0.117188 0.078481 58 43 36
0.015625 -0.117188 0.080743 87 67 52
0.019531 -0.117188 0.082534 117 94 73
0.023438 -0.117188 0.083765 123 103 80
0.027344 -0.117188 0.084963 98 82 62
0.031250 -0.117188 0.086239 57 45 35
0.035156 -0.117188 0.087753 47 36 28
0.039062 -0.117188 0.089836 84 68 49
0.042969 -0.117188 0.091882 121 100 74
0.046875 -0.117188 0.093527 122 100 77
0.050781 -0.117188 0.095031 134 111 90
0.054688 -0.117188 0.096372 136 116 98
0.058594 -0.117188 0.097542 113 99 88
0.062500 -0.117188 0.098577 89 78 72
0.066406 -0.117188 0.099550 59 53 51
0.070312 -0.117188 0.100461 43 39 40
0.074219 -0.117188 0.101338 49 44 44
0.078125 -0.117188 0.102185 50 48 48
0.082031 -0.117188 0.103050 46 47 48
0.085938 -0.117188 0.104013 49 50 51
0.089844 -0.117188 0.104891 49 51 52
0.093750 -0.117188 0.105570 51 52 51
0.097656 -0.117188 0.105808 51 49 48
0.101562 -0.117188 0.105504 52 47 45
0.105469 -0.117188 0.104970 55 48 45
0.109375 -0.117188 0.104245 51 44 41
0.113281 -0.117188 0.103330 48 42 39
0.117188 -0.117188 0.102179 47 40 39
0.121094 -0.117188 0.100831 43 37 36
0.125000 -0.117188 0.099424 40 36 34
0.128906 -0.117188 0.097576 37 33 31
0.132812 -0.117188 0.095117 33 30 27
0.136719 -0.117188 0.092448 30 28 24
0.140625 -0.117188 0.089795 27 25 23
0.144531 -0.117188 0.086784 24 24 22
0.148438 -0.117188 0.083255 26 26 23
0.152344 -0.117188 0.079502 27 27 24
0.156250 -0.117188 0.075732 28 27 24
0.160156 -0.117188 0.071374 26 25 22
0.164062 -0.117188 0.065139 26 25 23
0.167969 -0.117188 0.055778 24 22 22
0.171875 -0.117188 0.042485 23 21 23
0.175781 -0.117188 0.020595 18 13 20
-0.207031 -0.121094 0.041777 147 128 107
-0.203125 -0.121094 0.052936 69 55 48
-0.199219 -0.121094 0.062530 57 46 38
-0.195312 -0.121094 0.070186 58 47 38
-0.191406 -0.121094 0.076490 55 46 37
-0.187500 -0.121094 0.081266 51 43 37
-0.183594 -0.121094 0.085219 51 42 35
-0.179688 -0.121094 0.088476 48 39 31
-0.175781 -0.121094 0.091611 45 36 28
-0.171875 -0.121094 0.094740 49 38 30
-0.167969 -0.121094 0.097102 51 39 31
-0.164062 -0.121094 0.098723 53 44 37
-0.160156 -0.121094 0.100272 53 46 41
-0.156250 -0.121094 0.101655 49 45 43
-0.152344 -0.121094 0.102811 52 50 48
-0.148438 -0.121094 0.103806 53 51 49
-0.144531 -0.121094 0.104581 46 45 42
-0.140625 -0.121094 0.105156 42 40 38
-0.136719 -0.121094 0.105440 41 37 36
-0.132812 -0.121094 0.105469 43 37 36
-0.128906 -0.121094 0.105384 47 40 38
-0.125000 -0.121094 0.105135 47 40 38
-0.121094 -0.121094 0.104827 46 39 37
-0.117188 -0.121094 0.104430 47 40 38
-0.113281 -0.121094 0.103935 43 37 35
-0.109375 -0.121094 0.103297 37 31 31
-0.105469 -0.121094 0.102562 34 29 28
-0.101562 -0.121094 0.101722 34 29 28
-0.097656 -0.121094 0.100830 34 29 28
-0.093750 -0.121094 0.099964 34 28 28
-0.089844 -0.121094 0.098821 33 29 28
-0.085938 -0.121094 0.097459 34 30 29
-0.082031 -0.121094 0.095932 33 30 30
-0.078125 -0.121094 0.094230 32 30 30
-0.074219 -0.121094 0.092629 35 33 32
-0.070312 -0.121094 0.091486 44 41 40
-0.066406 -0.121094 0.090856 48 45 43
-0.062500 -0.121094 0.090427 51 48 45
-0.058594 -0.121094 0.089244 59 56 51
-0.054688 -0.121094 0.086880 58 57 52
-0.050781 -0.121094 0.084203 47 49 45
-0.046875 -0.121094 0.081935 43 45 42
-0.042969 -0.121094 0.080251 47 48 44
-0.039062 -0.121094 0.079176 49 51 47
-0.035156 -0.121094 0.077844 47 49 46
-0.031250 -0.121094 0.075999 37 38 38
-0.027344 -0.121094 0.073508 27 28 30
-0.023438 -0.121094 0.070499 25 27 29
-0.019531 -0.121094 0.067396 28 29 30
-0.015625 -0.121094 0.064093 29 29 30
-0.011719 -0.121094 0.062506 31 30 31
-0.007812 -0.121094 0.063307 38 35 35
-0.003906 -0.121094 0.065348 46 42 40
0.000000 -0.121094 0.067799 47 41 39
0.003906 -0.121094 0.070300 45 38 35
0.007812 -0.121094 0.072820 46 38 33
0.011719 -0.121094 0.075475 51 41 34
0.015625 -0.121094 0.078168 77 60 46
0.019531 -0.121094 0.080573 116 92 69
0.023438 -0.121094 0.082250 122 100 76
0.027344 -0.121094 0.083615 82 68 51
0.031250 -0.121094 0.085245 50 39 29
0.035156 -0.121094 0.087352 65 49 36
0.039062 -0.121094 0.089657 111 87 62
0.042969 -0.121094 0.091543 104 83 59
0.046875 -0.121094 0.093079 69 53 40
0.050781 -0.121094 0.094624 80 61 49
0.054688 -0.121094 0.096116 112 91 75
0.058594 -0.121094 0.097527 126 107 91
0.062500 -0.121094 0.098749 127 110 96
0.066406 -0.121094 0.099743 83 73 66
0.070312 -0.121094 0.100655 42 39 38
0.074219 -0.121094 0.101606 40 38 37
0.078125 -0.121094 0.102484 42 41 42
0.082031 -0.121094 0.103320 40 41 43
0.085938 -0.121094 0.104207 46 47 49
0.089844 -0.121094 0.104942 53 52 54
0.093750 -0.121094 0.105505 56 54 54
0.097656 -0.121094 0.105738 58 54 52
0.101562 -0.121094 0.105392 59 53 49
0.105469 -0.121094 0.104714 59 51 46
0.109375 -0.121094 0.103876 52 44 40
0.113281 -0.121094 0.102902 44 38 35
0.117188 -0.121094 0.101758 42 36 35
0.121094 -0.121094 0.100478 40 35 34
0.125000 -0.121094 0.099121 38 34 32
0.128906 -0.121094 0.097280 37 33 31
0.132812 -0.121094 0.094773 32 29 26
0.136719 -0.121094 0.092048 29 26 23
0.140625 -0.121094 0.089349 27 25 22
0.144531 -0.121094 0.086301 24 23 21
0.148438 -0.121094 0.082751 25 24 21
0.152344 -0.121094 0.079027 27 26 23
0.156250 -0.121094 0.075307 28 28 24
0.160156 -0.121094 0.070943 27 26 23
0.164062 -0.121094 0.064618 29 28 26
0.167969 -0.121094 0.054956 26 25 25
0.171875 -0.121094 0.041022 27 25 28
0.175781 -0.121094 0.017529 22 17 24
-0.207031 -0.125000 0.040966 135 113 93
-0.203125 -0.125000 0.051989 73 57 51
-0.199219 -0.125000 0.061564 56 46 39
-0.195312 -0.125000 0.069037 53 44 36
-0.191406 -0.125000 0.075397 57 48 39
-0.187500 -0.125000 0.080208 55 47 39
-0.183594 -0.125000 0.084240 47 40 32
-0.179688 -0.125000 0.087761 50 41 33
-0.175781 -0.125000 0.091324 60 49 39
-0.171875 -0.125000 0.094678 58 45 35
-0.167969 -0.125000 0.096920 48 37 29
-0.164062 -0.125000 0.098367 50 40 33
-0.160156 -0.125000 0.099823 59 50 43
-0.156250 -0.125000 0.101109 58 54 50
-0.152344 -0.125000 0.102212 57 57 54
-0.148438 -0.125000 0.103191 58 58 55
-0.144531 -0.125000 0.103964 51 51 48
-0.140625 -0.125000 0.104546 48 47 44
-0.136719 -0.125000 0.104817 46 44 41
-0.132812 -0.125000 0.104791 45 41 39
-0.128906 -0.125000 0.104653 47 42 40
-0.125000 -0.125000 0.104366 46 40 39
-0.121094 -0.125000 0.103996 45 39 38
-0.117188 -0.125000 0.103511 45 40 38
-0.113281 -0.125000 0.102921 43 38 37
-0.109375 -0.125000 0.102177 40 35 34
-0.105469 -0.125000 0.101327 37 32 32
-0.101562 -0.125000 0.100379 36 31 29
-0.097656 -0.125000 0.099416 36 31 29
-0.093750 -0.125000 0.098538 37 31 30
-0.089844 -0.125000 0.097397 36 31 30
-0.085938 -0.125000 0.096019 36 32 30
-0.082031 -0.125000 0.094432 35 31 29
-0.078125 -0.125000 0.092632 32 28 27
-0.074219 -0.125000 0.091026 34 29 29
-0.070312 -0.125000 0.090145 36 32 31
-0.066406 -0.125000 0.090169 38 34 33
-0.062500 -0.125000 0.090344 44 39 37
-0.058594 -0.125000 0.089080 48 43 40
-0.054688 -0.125000 0.085974 47 45 42
-0.050781 -0.125000 0.082661 41 41 39
-0.046875 -0.125000 0.079949 36 37 35
-0.042969 -0.125000 0.077836 38 39 37
-0.039062 -0.125000 0.076415 41 42 40
-0.035156 -0.125000 0.074789 39 41 40
-0.031250 -0.125000 0.072713 31 33 34
-0.027344 -0.125000 0.070154 25 27 29
-0.023438 -0.125000 0.067269 24 26 29
-0.019531 -0.125000 0.064470 25 27 29
-0.015625 -0.125000 0.061469 27 27 27
-0.011719 -0.125000 0.059996 29 29 29
-0.007812 -0.125000 0.060656 34 32 33
-0.003906 -0.125000 0.062364 38 35 34
0.000000 -0.125000 0.064547 36 33 32
0.003906 -0.125000 0.066916 38 33 31
0.007812 -0.125000 0.069408 38 32 29
0.011719 -0.125000 0.072099 35 29 26
0.015625 -0.125000 0.074926 45 37 29
0.019531 -0.125000 0.077650 67 52 40
0.023438 -0.125000 0.079954 83 65 50
0.027344 -0.125000 0.082113 68 54 42
0.031250 -0.125000 0.084424 50 40 30
0.035156 -0.125000 0.086892 73 55 39
0.039062 -0.125000 0.089212 115 87 60
0.042969 -0.125000 0.091068 97 73 51
0.046875 -0.125000 0.092605 51 37 27
0.050781 -0.125000 0.094038 40 29 23
0.054688 -0.125000 0.095425 50 36 31
0.058594 -0.125000 0.096835 65 48 41
0.062500 -0.125000 0.098182 85 64 55
0.066406 -0.125000 0.099433 72 56 49
0.070312 -0.125000 0.100629 51 42 38
0.074219 -0.125000 0.101760 53 46 41
0.078125 -0.125000 0.102669 54 48 45
0.082031 -0.125000 0.103495 51 47 45
0.085938 -0.125000 0.104349 52 47 46
0.089844 -0.125000 0.105036 52 45 44
0.093750 -0.125000 0.105584 51 43 42
0.097656 -0.125000 0.105780 54 45 43
0.101562 -0.125000 0.105330 58 48 44
0.105469 -0.125000 0.104526 58 46 42
0.109375 -0.125000 0.103593 55 44 39
0.113281 -0.125000 0.102560 45 37 34
0.117188 -0.125000 0.101419 42 35 33
0.121094 -0.125000 0.100198 43 36 35
0.125000 -0.125000 0.098912 40 35 33
0.128906 -0.125000 0.097115 41 36 33
0.132812 -0.125000 0.094590 36 33 28
0.136719 -0.125000 0.091815 30 27 24
0.140625 -0.125000 0.089056 28 25 22
0.144531 -0.125000 0.085958 25 23 20
0.148438 -0.125000 0.082338 23 22 20
0.152344 -0.125000 0.078537 25 24 20
0.156250 -0.125000 0.074798 26 26 22
0.160156 -0.125000 0.070396 26 25 22
0.164062 -0.125000 0.063924 29 28 26
0.167969 -0.125000 0.054046 26 25 25
0.171875 -0.125000 0.039767 32 29 31
0.175781 -0.125000 0.015554 30 24 31
-0.207031 -0.128906 0.040259 110 87 74
-0.203125 -0.128906 0.051544 71 54 49
-0.199219 -0.128906 0.060691 57 46 40
-0.195312 -0.128906 0.068001 50 42 35
-0.191406 -0.128906 0.074289 55 48 39
-0.187500 -0.128906 0.079128 57 50 41
-0.183594 -0.128906 0.083309 48 42 34
-0.179688 -0.128906 0.087246 74 64 48
-0.175781 -0.128906 0.091386 133 111 86
-0.171875 -0.128906 0.094990 121 97 76
-0.167969 -0.128906 0.097007 69 54 42
-0.164062 -0.128906 0.098081 48 38 32
-0.160156 -0.128906 0.099306 52 44 38
-0.156250 -0.128906 0.100540 60 55 50
-0.152344 -0.128906 0.101631 59 59 56
-0.148438 -0.128906 0.102597 56 57 55
-0.144531 -0.128906 0.103373 48 50 47
-0.140625 -0.128906 0.103988 45 46 44
-0.136719 -0.128906 0.104321 45 45 43
-0.132812 -0.128906 0.104312 45 43 41
-0.128906 -0.128906 0.104188 48 45 42
-0.125000 -0.128906 0.103892 48 44 43
-0.121094 -0.128906 0.103437 47 43 41
-0.117188 -0.128906 0.102819 46 42 41
-0.113281 -0.128906 0.102079 43 39 38
-0.109375 -0.128906 0.101165 39 36 34
-0.105469 -0.128906 0.100097 34 31 30
-0.101562 -0.128906 0.098920 32 29 28
-0.097656 -0.128906 0.097703 34 30 29
-0.093750 -0.128906 0.096611 35 31 30
-0.089844 -0.128906 0.095310 32 28 28
-0.085938 -0.128906 0.093872 32 29 28
-0.082031 -0.128906 0.092325 33 29 29
-0.078125 -0.128906 0.090626 34 28 28
-0.074219 -0.128906 0.089268 38 31 29
-0.070312 -0.128906 0.088780 39 32 30
-0.066406 -0.128906 0.089892 53 44 41
-0.062500 -0.128906 0.091001 74 62 56
-0.058594 -0.128906 0.089486 58 50 46
-0.054688 -0.128906 0.085050 42 39 37
-0.050781 -0.128906 0.080758 38 38 37
-0.046875 -0.128906 0.077611 34 36 35
-0.042969 -0.128906 0.075057 36 37 36
-0.039062 -0.128906 0.073290 36 38 37
-0.035156 -0.128906 0.071433 32 35 35
-0.031250 -0.128906 0.069246 27 29 31
-0.027344 -0.128906 0.066704 23 25 28
-0.023438 -0.128906 0.063934 24 26 28
-0.019531 -0.128906 0.061469 26 28 29
-0.015625 -0.128906 0.058953 29 29 29
-0.011719 -0.128906 0.057741 31 30 30
-0.007812 -0.128906 0.058203 31 30 30
-0.003906 -0.128906 0.059533 27 26 26
0.000000 -0.128906 0.061468 23 22 24
0.003906 -0.128906 0.063689 28 26 26
0.007812 -0.128906 0.066157 37 32 30
0.011719 -0.128906 0.068918 43 37 32
0.015625 -0.128906 0.071719 48 40 33
0.019531 -0.128906 0.074500 44 35 28
0.023438 -0.128906 0.077367 49 38 29
0.027344 -0.128906 0.080518 58 43 33
0.031250 -0.128906 0.083722 57 44 33
0.035156 -0.128906 0.086565 73 55 40
0.039062 -0.128906 0.088829 94 69 48
0.042969 -0.128906 0.090714 95 68 48
0.046875 -0.128906 0.092442 76 53 39
0.050781 -0.128906 0.093892 54 38 29
0.054688 -0.128906 0.095143 41 28 23
0.058594 -0.128906 0.096472 37 26 22
0.062500 -0.128906 0.097863 43 30 26
0.066406 -0.128906 0.099326 42 30 26
0.070312 -0.128906 0.100810 42 30 27
0.074219 -0.128906 0.102082 44 34 30
0.078125 -0.128906 0.103034 41 34 31
0.082031 -0.128906 0.103941 43 36 32
0.085938 -0.128906 0.104809 47 38 34
0.089844 -0.128906 0.105452 52 40 35
0.093750 -0.128906 0.105970 58 43 38
0.097656 -0.128906 0.106067 66 50 44
0.101562 -0.128906 0.105362 62 46 41
0.105469 -0.128906 0.104356 48 36 33
0.109375 -0.128906 0.103355 51 39 35
0.113281 -0.128906 0.102281 49 38 34
0.117188 -0.128906 0.101153 41 33 31
0.121094 -0.128906 0.099962 39 32 31
0.125000 -0.128906 0.098706 36 31 30
0.128906 -0.128906 0.096948 40 35 32
0.132812 -0.128906 0.094434 38 34 29
0.136719 -0.128906 0.091647 30 27 23
0.140625 -0.128906 0.088841 27 25 22
0.144531 -0.128906 0.085699 23 22 19
0.148438 -0.128906 0.081979 20 19 17
0.152344 -0.128906 0.078003 19 18 17
0.156250 -0.128906 0.074107 20 19 17
0.160156 -0.128906 0.069599 20 19 18
0.164062 -0.128906 0.062961 22 22 21
0.167969 -0.128906 0.052814 21 20 21
0.171875 -0.128906 0.038359 31 28 30
0.175781 -0.128906 0.014465 34 26 32
-0.207031 -0.132812 0.039308 105 80 71
-0.203125 -0.132812 0.050626 70 54 49
-0.199219 -0.132812 0.059873 62 50 44
-0.195312 -0.132812 0.067097 55 46 39
-0.191406 -0.132812 0.073324 57 50 40
-0.187500 -0.132812 0.078213 60 53 43
-0.183594 -0.132812 0.082484 51 46 37
-0.179688 -0.132812 0.086472 80 70 52
-0.175781 -0.132812 0.090715 159 132 104
-0.171875 -0.132812 0.094564 168 137 110
-0.167969 -0.132812 0.096902 117 94 73
-0.164062 -0.132812 0.098039 71 57 45
-0.160156 -0.132812 0.098981 53 44 37
-0.156250 -0.132812 0.100033 60 52 46
-0.152344 -0.132812 0.101086 65 60 55
-0.148438 -0.132812 0.101992 57 56 52
-0.144531 -0.132812 0.102745 49 49 46
-0.140625 -0.132812 0.103379 46 47 45
-0.136719 -0.132812 0.103742 45 47 44
-0.132812 -0.132812 0.103737 47 47 44
-0.128906 -0.132812 0.103636 53 52 49
-0.125000 -0.132812 0.103398 56 54 51
-0.121094 -0.132812 0.102952 55 52 50
-0.117188 -0.132812 0.102263 49 47 45
-0.113281 -0.132812 0.101425 42 39 38
-0.109375 -0.132812 0.100385 37 35 33
-0.105469 -0.132812 0.099171 34 32 31
-0.101562 -0.132812 0.097842 36 33 32
-0.097656 -0.132812 0.096416 40 35 34
-0.093750 -0.132812 0.095101 35 30 30
-0.089844 -0.132812 0.093653 28 25 25
-0.085938 -0.132812 0.092269 28 25 25
-0.082031 -0.132812 0.090877 32 28 27
-0.078125 -0.132812 0.089265 34 28 27
-0.074219 -0.132812 0.088060 34 27 25
-0.070312 -0.132812 0.087811 36 29 26
-0.066406 -0.132812 0.089771 82 65 56
-0.062500 -0.132812 0.091526 134 109 95
-0.058594 -0.132812 0.089632 80 69 61
-0.054688 -0.132812 0.083759 42 40 37
-0.050781 -0.132812 0.078566 39 40 38
-0.046875 -0.132812 0.075103 39 40 39
-0.042969 -0.132812 0.072238 39 41 39
-0.039062 -0.132812 0.070320 37 40 38
-0.035156 -0.132812 0.068456 32 35 35
-0.031250 -0.132812 0.066289 27 30 32
-0.027344 -0.132812 0.063814 23 25 28
-0.023438 -0.132812 0.061119 22 24 27
-0.019531 -0.132812 0.058756 25 26 28
-0.015625 -0.132812 0.056396 29 29 29
-0.011719 -0.132812 0.055168 31 31 30
-0.007812 -0.132812 0.055442 33 32 31
-0.003906 -0.132812 0.056667 32 31 30
0.000000 -0.132812 0.058574 33 33 32
0.003906 -0.132812 0.060791 42 40 37
0.007812 -0.132812 0.063282 51 47 42
0.011719 -0.132812 0.066134 59 52 44
0.015625 -0.132812 0.068965 59 49 41
0.019531 -0.132812 0.071855 37 31 25
0.023438 -0.132812 0.075055 30 23 18
0.027344 -0.132812 0.078782 43 32 24
0.031250 -0.132812 0.082714 64 47 36
0.035156 -0.132812 0.085979 78 58 44
0.039062 -0.132812 0.088334 80 58 43
0.042969 -0.132812 0.090366 86 62 46
0.046875 -0.132812 0.092316 97 71 54
0.050781 -0.132812 0.093967 86 66 50
0.054688 -0.132812 0.095397 65 50 39
0.058594 -0.132812 0.096852 54 42 34
0.062500 -0.132812 0.098332 53 41 34
0.066406 -0.132812 0.099882 53 40 35
0.070312 -0.132812 0.101479 57 44 39
0.074219 -0.132812 0.102833 58 46 41
0.078125 -0.132812 0.103865 63 51 44
0.082031 -0.132812 0.104819 78 63 51
0.085938 -0.132812 0.105603 90 71 56
0.089844 -0.132812 0.106124 105 79 60
0.093750 -0.132812 0.106572 125 91 69
0.097656 -0.132812 0.106632 139 106 82
0.101562 -0.132812 0.105757 110 83 68
0.105469 -0.132812 0.104426 53 40 35
0.109375 -0.132812 0.103183 48 35 31
0.113281 -0.132812 0.102069 55 39 34
0.117188 -0.132812 0.100973 41 32 30
0.121094 -0.132812 0.099803 35 29 28
0.125000 -0.132812 0.098575 33 29 27
0.128906 -0.132812 0.096838 37 33 30
0.132812 -0.132812 0.094326 38 34 29
0.136719 -0.132812 0.091523 30 27 24
0.140625 -0.132812 0.088722 27 25 22
0.144531 -0.132812 0.085530 26 24 21
0.148438 -0.132812 0.081642 21 21 18
0.152344 -0.132812 0.077458 19 18 16
0.156250 -0.132812 0.073302 19 18 16
0.160156 -0.132812 0.068583 19 18 17
0.164062 -0.132812 0.061702 21 20 20
0.167969 -0.132812 0.051283 20 19 20
0.171875 -0.132812 0.036647 31 28 29
0.175781 -0.132812 0.013161 37 28 33
-0.207031 -0.136719 0.038576 112 85 73
-0.203125 -0.136719 0.049928 70 53 49
-0.199219 -0.136719 0.059297 65 52 46
-0.195312 -0.136719 0.066458 62 52 43
-0.191406 -0.136719 0.072539 60 53 43
-0.187500 -0.136719 0.077407 67 60 49
-0.183594 -0.136719 0.081530 57 52 41
-0.179688 -0.136719 0.085217 57 51 40
-0.175781 -0.136719 0.089194 102 82 64
-0.171875 -0.136719 0.093161 139 111 87
-0.167969 -0.136719 0.096088 145 117 91
-0.164062 -0.136719 0.097741 116 93 73
-0.160156 -0.136719 0.098702 63 51 42
-0.156250 -0.136719 0.099632 50 41 34
-0.152344 -0.136719 0.100668 54 46 41
-0.148438 -0.136719 0.101468 50 45 41
-0.144531 -0.136719 0.102096 48 46 42
-0.140625 -0.136719 0.102648 48 48 45
-0.136719 -0.136719 0.103001 45 46 43
-0.132812 -0.136719 0.103036 42 43 40
-0.128906 -0.136719 0.102981 43 44 43
-0.125000 -0.136719 0.102844 48 48 46
-0.121094 -0.136719 0.102488 50 49 46
-0.117188 -0.136719 0.101807 48 46 44
-0.113281 -0.136719 0.100946 43 41 39
-0.109375 -0.136719 0.099901 39 36 34
-0.105469 -0.136719 0.098694 38 34 32
-0.101562 -0.136719 0.097359 43 38 35
-0.097656 -0.136719 0.095929 45 39 37
-0.093750 -0.136719 0.094728 39 34 31
-0.089844 -0.136719 0.093503 43 37 34
-0.085938 -0.136719 0.092289 65 54 48
-0.082031 -0.136719 0.090960 80 65 55
-0.078125 -0.136719 0.089301 81 64 52
-0.074219 -0.136719 0.087976 61 47 39
-0.070312 -0.136719 0.087640 43 34 30
-0.066406 -0.136719 0.089800 84 65 56
-0.062500 -0.136719 0.091105 123 96 83
-0.058594 -0.136719 0.088108 59 49 44
-0.054688 -0.136719 0.081129 31 29 28
-0.050781 -0.136719 0.075721 32 32 32
-0.046875 -0.136719 0.072196 32 33 33
-0.042969 -0.136719 0.069329 33 34 34
-0.039062 -0.136719 0.067469 32 33 33
-0.035156 -0.136719 0.065799 30 32 33
-0.031250 -0.136719 0.063800 28 30 32
-0.027344 -0.136719 0.061368 23 25 27
-0.023438 -0.136719 0.058525 21 23 26
-0.019531 -0.136719 0.055931 25 25 27
-0.015625 -0.136719 0.053254 29 28 29
-0.011719 -0.136719 0.051894 31 30 29
-0.007812 -0.136719 0.052006 32 31 29
-0.003906 -0.136719 0.053218 33 32 30
0.000000 -0.136719 0.055277 37 35 32
0.003906 -0.136719 0.057764 39 37 33
0.007812 -0.136719 0.060449 37 35 32
0.011719 -0.136719 0.063507 37 33 30
0.015625 -0.136719 0.066522 36 30 27
0.019531 -0.136719 0.069557 24 21 19
0.023438 -0.136719 0.072901 21 18 15
0.027344 -0.136719 0.076813 35 28 22
0.031250 -0.136719 0.080812 61 47 36
0.035156 -0.136719 0.084011 76 58 44
0.039062 -0.136719 0.086437 85 64 49
0.042969 -0.136719 0.088683 106 82 62
0.046875 -0.136719 0.090696 124 101 78
0.050781 -0.136719 0.092399 118 99 77
0.054688 -0.136719 0.094094 103 87 68
0.058594 -0.136719 0.095794 100 85 68
0.062500 -0.136719 0.097482 102 86 71
0.066406 -0.136719 0.099245 109 91 77
0.070312 -0.136719 0.100998 120 102 87
0.074219 -0.136719 0.102492 123 105 90
0.078125 -0.136719 0.103607 130 109 91
0.082031 -0.136719 0.104513 137 112 90
0.085938 -0.136719 0.105274 135 109 84
0.089844 -0.136719 0.105890 146 116 86
0.093750 -0.136719 0.106416 155 121 88
0.097656 -0.136719 0.106589 165 131 100
0.101562 -0.136719 0.105853 149 119 96
0.105469 -0.136719 0.104414 70 55 46
0.109375 -0.136719 0.102993 41 31 26
0.113281 -0.136719 0.101940 46 32 28
0.117188 -0.136719 0.100918 41 31 29
0.121094 -0.136719 0.099711 40 33 31
0.125000 -0.136719 0.098448 40 35 31
0.128906 -0.136719 0.096704 41 36 32
0.132812 -0.136719 0.094194 39 35 30
0.136719 -0.136719 0.091400 31 28 25
0.140625 -0.136719 0.088640 30 28 24
0.144531 -0.136719 0.085377 32 30 25
0.148438 -0.136719 0.081327 28 26 22
0.152344 -0.136719 0.076995 24 23 19
0.156250 -0.136719 0.072576 24 22 18
0.160156 -0.136719 0.067543 23 22 19
0.164062 -0.136719 0.060234 27 26 23
0.167969 -0.136719 0.049378 23 22 22
0.171875 -0.136719 0.034522 29 26 27
0.175781 -0.136719 0.011354 31 23 28
-0.207031 -0.140625 0.037383 91 65 55
-0.203125 -0.140625 0.048993 66 47 44
-0.199219 -0.140625 0.058656 68 53 47
-0.195312 -0.140625 0.065941 62 52 43
-0.191406 -0.140625 0.071956 62 54 44
-0.187500 -0.140625 0.076728 73 66 53
-0.183594 -0.140625 0.080635 62 57 44
-0.179688 -0.140625 0.084114 47 44 34
-0.175781 -0.140625 0.087851 60 52 41
-0.171875 -0.140625 0.091606 83 67 53
-0.167969 -0.140625 0.094645 123 95 74
-0.164062 -0.140625 0.096844 148 116 92
-0.160156 -0.140625 0.098429 102 78 62
-0.156250 -0.140625 0.099742 68 51 41
-0.152344 -0.140625 0.100821 67 52 43
-0.148438 -0.140625 0.101389 59 50 43
-0.144531 -0.140625 0.101658 48 45 39
-0.140625 -0.140625 0.101858 44 43 39
-0.136719 -0.140625 0.102150 44 43 40
-0.132812 -0.140625 0.102327 42 42 39
-0.128906 -0.140625 0.102368 41 41 40
-0.125000 -0.140625 0.102282 45 44 41
-0.121094 -0.140625 0.101951 46 43 41
-0.117188 -0.140625 0.101301 44 41 39
-0.113281 -0.140625 0.100507 43 39 36
-0.109375 -0.140625 0.099589 39 34 32
-0.105469 -0.140625 0.098518 36 30 28
-0.101562 -0.140625 0.097281 38 32 29
-0.097656 -0.140625 0.096035 42 35 32
-0.093750 -0.140625 0.095165 49 42 36
-0.089844 -0.140625 0.094233 76 64 52
-0.085938 -0.140625 0.093050 107 87 70
-0.082031 -0.140625 0.091616 110 88 68
-0.078125 -0.140625 0.089954 117 93 71
-0.074219 -0.140625 0.088702 110 86 66
-0.070312 -0.140625 0.088197 83 65 51
-0.066406 -0.140625 0.089458 99 79 63
-0.062500 -0.140625 0.089428 90 69 59
-0.058594 -0.140625 0.085059 38 30 28
-0.054688 -0.140625 0.077658 27 24 24
-0.050781 -0.140625 0.072591 31 30 29
-0.046875 -0.140625 0.069149 30 30 30
-0.042969 -0.140625 0.066500 30 30 30
-0.039062 -0.140625 0.064915 30 30 31
-0.035156 -0.140625 0.063617 30 32 33
-0.031250 -0.140625 0.061856 28 29 31
-0.027344 -0.140625 0.059399 23 24 27
-0.023438 -0.140625 0.056349 21 22 25
-0.019531 -0.140625 0.053120 24 24 26
-0.015625 -0.140625 0.049497 27 26 27
-0.011719 -0.140625 0.047835 28 26 26
-0.007812 -0.140625 0.047556 28 27 25
-0.003906 -0.140625 0.049116 29 27 25
0.000000 -0.140625 0.051595 29 27 25
0.003906 -0.140625 0.054522 28 27 25
0.007812 -0.140625 0.057655 26 25 23
0.011719 -0.140625 0.061096 25 23 21
0.015625 -0.140625 0.064364 24 21 20
0.019531 -0.140625 0.067601 23 21 18
0.023438 -0.140625 0.070937 33 29 24
0.027344 -0.140625 0.074523 56 49 36
0.031250 -0.140625 0.077995 70 57 42
0.035156 -0.140625 0.080813 68 53 41
0.039062 -0.140625 0.083148 75 58 46
0.042969 -0.140625 0.085335 94 75 58
0.046875 -0.140625 0.087299 101 81 64
0.050781 -0.140625 0.089072 81 67 53
0.054688 -0.140625 0.090936 64 54 44
0.058594 -0.140625 0.092819 66 55 46
0.062500 -0.140625 0.094740 72 60 51
0.066406 -0.140625 0.096730 79 66 57
0.070312 -0.140625 0.098668 94 80 70
0.074219 -0.140625 0.100338 101 86 75
0.078125 -0.140625 0.101538 101 82 70
0.082031 -0.140625 0.102445 93 72 60
0.085938 -0.140625 0.103380 95 75 59
0.089844 -0.140625 0.104366 134 108 80
0.093750 -0.140625 0.105145 155 127 92
0.097656 -0.140625 0.105512 158 129 97
0.101562 -0.140625 0.105186 168 138 113
0.105469 -0.140625 0.104318 119 96 78
0.109375 -0.140625 0.103289 57 46 37
0.113281 -0.140625 0.102329 42 33 28
0.117188 -0.140625 0.101235 33 27 25
0.121094 -0.140625 0.099866 34 28 26
0.125000 -0.140625 0.098396 39 33 30
0.128906 -0.140625 0.096537 36 33 30
0.132812 -0.140625 0.094045 34 31 27
0.136719 -0.140625 0.091305 29 26 24
0.140625 -0.140625 0.088594 28 26 23
0.144531 -0.140625 0.085312 29 26 23
0.148438 -0.140625 0.081183 26 23 19
0.152344 -0.140625 0.076757 26 24 19
0.156250 -0.140625 0.072182 26 24 19
0.160156 -0.140625 0.066758 24 23 19
0.164062 -0.140625 0.058648 31 29 25
0.167969 -0.140625 0.047265 29 27 26
0.171875 -0.140625 0.032332 34 30 31
0.175781 -0.140625 0.009312 33 24 30
-0.207031 -0.144531 0.035904 84 60 52
-0.203125 -0.144531 0.047732 67 46 43
-0.199219 -0.144531 0.057765 76 57 49
-0.195312 -0.144531 0.065463 62 51 42
-0.191406 -0.144531 0.071558 59 52 43
-0.187500 -0.144531 0.076223 66 59 48
-0.183594 -0.144531 0.079970 55 50 39
-0.179688 -0.144531 0.083343 48 45 34
-0.175781 -0.144531 0.086850 56 52 40
-0.171875 -0.144531 0.090355 56 48 39
-0.167969 -0.144531 0.093348 71 55 44
-0.164062 -0.144531 0.095970 129 99 75
-0.160156 -0.144531 0.098327 145 111 85
-0.156250 -0.144531 0.100248 132 98 74
-0.152344 -0.144531 0.101405 136 101 78
-0.148438 -0.144531 0.101651 121 95 76
-0.144531 -0.144531 0.101465 78 67 54
-0.140625 -0.144531 0.101212 48 43 37
-0.136719 -0.144531 0.101282 46 43 37
-0.132812 -0.144531 0.101459 53 49 43
-0.128906 -0.144531 0.101488 50 46 42
-0.125000 -0.144531 0.101422 47 42 39
-0.121094 -0.144531 0.101216 43 38 37
-0.117188 -0.144531 0.100834 42 37 35
-0.113281 -0.144531 0.100382 48 40 37
-0.109375 -0.144531 0.099796 50 41 36
-0.105469 -0.144531 0.099045 46 37 32
-0.101562 -0.144531 0.098082 43 36 30
-0.097656 -0.144531 0.097150 51 42 36
-0.093750 -0.144531 0.096476 69 57 47
-0.089844 -0.144531 0.095527 89 74 57
-0.085938 -0.144531 0.094165 90 74 55
-0.082031 -0.144531 0.092536 74 59 44
-0.078125 -0.144531 0.090773 84 68 49
-0.074219 -0.144531 0.089411 104 81 61
-0.070312 -0.144531 0.088453 103 81 61
-0.066406 -0.144531 0.088159 109 88 67
-0.062500 -0.144531 0.086428 76 60 47
-0.058594 -0.144531 0.080239 34 28 24
-0.054688 -0.144531 0.073553 31 27 25
-0.050781 -0.144531 0.069419 33 31 29
-0.046875 -0.144531 0.066288 31 30 29
-0.042969 -0.144531 0.063915 30 30 30
-0.039062 -0.144531 0.062583 31 31 31
-0.035156 -0.144531 0.061671 34 35 35
-0.031250 -0.144531 0.060134 30 31 33
-0.027344 -0.144531 0.057573 24 24 27
-0.023438 -0.144531 0.054469 21 22 25
-0.019531 -0.144531 0.050476 23 23 25
-0.015625 -0.144531 0.045452 26 25 26
-0.011719 -0.144531 0.042495 25 24 24
-0.007812 -0.144531 0.042235 26 24 24
-0.003906 -0.144531 0.044847 24 22 22
0.000000 -0.144531 0.047950 23 22 21
0.003906 -0.144531 0.051479 25 23 22
0.007812 -0.144531 0.055120 24 23 21
0.011719 -0.144531 0.058918 24 22 20
0.015625 -0.144531 0.062422 24 22 20
0.019531 -0.144531 0.065752 30 27 23
0.023438 -0.144531 0.068797 50 43 32
0.027344 -0.144531 0.071630 61 52 38
0.031250 -0.144531 0.074348 48 39 30
0.035156 -0.144531 0.076690 37 29 24
0.039062 -0.144531 0.078748 37 29 25
0.042969 -0.144531 0.080614 41 32 28
0.046875 -0.144531 0.082355 41 33 29
0.050781 -0.144531 0.084117 37 31 27
0.054688 -0.144531 0.086074 34 30 25
0.058594 -0.144531 0.088107 38 33 28
0.062500 -0.144531 0.090216 44 38 33
0.066406 -0.144531 0.092384 48 43 37
0.070312 -0.144531 0.094531 58 51 46
0.074219 -0.144531 0.096453 61 53 48
0.078125 -0.144531 0.097922 59 49 44
0.082031 -0.144531 0.099108 52 42 37
0.085938 -0.144531 0.100325 53 42 36
0.089844 -0.144531 0.101650 86 68 52
0.093750 -0.144531 0.102796 114 90 67
0.097656 -0.144531 0.103535 108 85 63
0.101562 -0.144531 0.103829 121 97 77
0.105469 -0.144531 0.103894 123 100 81
0.109375 -0.144531 0.103630 98 81 64
0.113281 -0.144531 0.102863 78 67 53
0.117188 -0.144531 0.101605 47 42 36
0.121094 -0.144531 0.100091 33 30 28
0.125000 -0.144531 0.098445 35 31 29
0.128906 -0.144531 0.096434 31 29 27
0.132812 -0.144531 0.093946 28 26 24
0.136719 -0.144531 0.091242 28 26 23
0.140625 -0.144531 0.088567 28 25 23
0.144531 -0.144531 0.085338 27 24 21
0.148438 -0.144531 0.081222 30 25 21
0.152344 -0.144531 0.076789 45 37 29
0.156250 -0.144531 0.072275 55 46 36
0.160156 -0.144531 0.066557 44 40 32
0.164062 -0.144531 0.057361 37 34 29
0.167969 -0.144531 0.045129 27 24 23
0.171875 -0.144531 0.030292 29 25 28
0.175781 -0.144531 0.007847 23 16 22
-0.207031 -0.148438 0.034199 113 89 77
-0.203125 -0.148438 0.046825 61 44 40
-0.199219 -0.148438 0.057018 70 53 44
-0.195312 -0.148438 0.065092 64 53 43
-0.191406 -0.148438 0.071256 57 51 41
-0.187500 -0.148438 0.075789 54 48 40
-0.183594 -0.148438 0.079352 46 42 33
-0.179688 -0.148438 0.082593 52 49 37
-0.175781 -0.148438 0.086007 67 64 47
-0.171875 -0.148438 0.089482 59 54 42
-0.167969 -0.148438 0.092496 48 41 33
-0.164062 -0.148438 0.095225 84 64 50
-0.160156 -0.148438 0.097904 140 101 79
-0.156250 -0.148438 0.100186 152 110 82
-0.152344 -0.148438 0.101341 153 109 81
-0.148438 -0.148438 0.101480 150 113 86
-0.144531 -0.148438 0.101312 115 93 70
-0.140625 -0.148438 0.100944 60 51 40
-0.136719 -0.148438 0.100788 45 39 31
-0.132812 -0.148438 0.100792 52 43 36
-0.128906 -0.148438 0.100754 48 39 34
-0.125000 -0.148438 0.100817 43 36 34
-0.121094 -0.148438 0.100886 48 41 39
-0.117188 -0.148438 0.100869 60 51 46
-0.113281 -0.148438 0.100756 76 63 54
-0.109375 -0.148438 0.100432 82 67 55
-0.105469 -0.148438 0.099904 78 63 51
-0.101562 -0.148438 0.099094 75 62 49
-0.097656 -0.148438 0.098200 79 66 52
-0.093750 -0.148438 0.097341 85 73 56
-0.089844 -0.148438 0.096107 87 76 57
-0.085938 -0.148438 0.094549 85 73 53
-0.082031 -0.148438 0.092806 77 64 46
-0.078125 -0.148438 0.090912 84 70 50
-0.074219 -0.148438 0.089097 92 74 54
-0.070312 -0.148438 0.087303 83 67 49
