ply
    format ascii 1.0
    element vertex 81126
    property float x
    property float y
    property float z
    property uchar red
    property uchar green
    property uchar blue
    end_header
-0.054688 -0.125000 -0.138960 77 78 83
-0.050781 -0.125000 -0.135899 51 52 60
-0.046875 -0.125000 -0.132727 62 63 68
-0.042969 -0.125000 -0.128142 70 70 73
-0.039062 -0.125000 -0.123770 49 49 54
-0.035156 -0.125000 -0.117943 89 87 91
-0.031250 -0.125000 -0.114048 149 147 145
-0.027344 -0.125000 -0.107724 158 158 155
-0.023438 -0.125000 -0.102257 163 161 158
-0.019531 -0.125000 -0.096356 168 164 161
-0.015625 -0.125000 -0.090324 176 171 167
-0.011719 -0.125000 -0.083730 180 175 171
-0.007812 -0.125000 -0.073826 178 173 170
-0.003906 -0.125000 -0.060127 171 169 166
0.000000 -0.125000 -0.025382 163 163 160
0.003906 -0.125000 -0.014060 159 161 159
0.007812 -0.125000 -0.017328 159 161 160
0.011719 -0.125000 -0.019092 161 163 163
0.015625 -0.125000 -0.020671 163 165 166
0.019531 -0.125000 -0.021973 164 165 167
0.023438 -0.125000 -0.023924 163 164 167
0.027344 -0.125000 -0.026100 160 160 164
0.031250 -0.125000 -0.028081 160 161 165
0.035156 -0.125000 -0.028968 161 163 167
0.039062 -0.125000 -0.029290 163 164 167
0.042969 -0.125000 -0.029327 166 165 168
0.046875 -0.125000 -0.029321 167 166 169
0.050781 -0.125000 -0.029275 163 164 167
0.054688 -0.125000 -0.029160 152 154 157
0.058594 -0.125000 -0.029045 147 148 152
0.062500 -0.125000 -0.028845 153 154 157
0.066406 -0.125000 -0.028556 154 156 159
0.070312 -0.125000 -0.028170 148 151 155
0.074219 -0.125000 -0.027634 147 150 153
0.078125 -0.125000 -0.026914 148 150 153
0.082031 -0.125000 -0.025944 144 147 150
0.085938 -0.125000 -0.024673 144 147 149
0.089844 -0.125000 -0.023476 139 143 145
0.093750 -0.125000 -0.022229 128 134 136
0.097656 -0.125000 -0.020375 128 135 137
0.101562 -0.125000 -0.018081 111 119 122
0.105469 -0.125000 -0.015766 97 105 110
0.109375 -0.125000 -0.013032 113 121 124
0.113281 -0.125000 -0.009720 122 129 132
0.117188 -0.125000 -0.005817 113 121 125
0.121094 -0.125000 -0.001550 113 122 126
0.125000 -0.125000 0.003008 114 122 126
0.128906 -0.125000 0.008883 135 137 138
0.132812 -0.125000 0.016360 169 165 161
0.136719 -0.125000 0.025431 190 186 179
0.140625 -0.125000 0.034698 198 194 183
0.144531 -0.125000 0.048441 196 190 179
0.148438 -0.125000 0.036311 173 162 155
-0.187500 -0.128906 -0.069953 213 207 198
-0.183594 -0.128906 -0.086136 162 172 161
-0.179688 -0.128906 -0.097015 181 183 178
-0.175781 -0.128906 -0.105075 163 164 163
-0.171875 -0.128906 -0.112817 173 173 171
-0.167969 -0.128906 -0.118848 171 172 171
-0.164062 -0.128906 -0.124093 167 168 167
-0.160156 -0.128906 -0.129167 170 170 169
-0.156250 -0.128906 -0.133813 166 167 166
-0.152344 -0.128906 -0.137587 159 160 160
-0.148438 -0.128906 -0.140716 156 157 158
-0.144531 -0.128906 -0.143708 146 149 150
-0.140625 -0.128906 -0.146235 138 142 143
-0.136719 -0.128906 -0.148463 147 150 151
-0.132812 -0.128906 -0.150253 151 154 155
-0.128906 -0.128906 -0.151782 148 151 152
-0.125000 -0.128906 -0.153074 148 151 152
-0.121094 -0.128906 -0.153977 141 145 145
-0.117188 -0.128906 -0.154636 138 143 142
-0.113281 -0.128906 -0.155200 143 147 146
-0.109375 -0.128906 -0.155624 146 150 147
-0.105469 -0.128906 -0.155847 143 146 143
-0.101562 -0.128906 -0.155853 125 130 128
-0.097656 -0.128906 -0.155689 111 116 116
-0.093750 -0.128906 -0.155312 100 106 107
-0.089844 -0.128906 -0.154697 88 94 97
-0.085938 -0.128906 -0.153688 86 92 95
-0.082031 -0.128906 -0.152531 82 89 92
-0.078125 -0.128906 -0.151113 87 96 97
-0.074219 -0.128906 -0.149172 91 99 100
-0.070312 -0.128906 -0.147072 73 80 83
-0.066406 -0.128906 -0.145020 69 74 78
-0.062500 -0.128906 -0.142878 61 65 70
-0.058594 -0.128906 -0.140759 62 65 68
-0.054688 -0.128906 -0.138879 73 71 75
-0.050781 -0.128906 -0.135763 46 46 52
-0.046875 -0.128906 -0.132432 53 54 59
-0.042969 -0.128906 -0.128055 69 69 72
-0.039062 -0.128906 -0.123692 43 43 49
-0.035156 -0.128906 -0.117151 75 73 78
-0.031250 -0.128906 -0.113352 148 147 144
-0.027344 -0.128906 -0.107115 161 161 158
-0.023438 -0.128906 -0.101489 164 162 160
-0.019531 -0.128906 -0.095427 167 164 161
-0.015625 -0.128906 -0.089152 171 167 163
-0.011719 -0.128906 -0.082269 175 170 167
-0.007812 -0.128906 -0.072020 175 171 167
-0.003906 -0.128906 -0.053281 174 171 167
0.000000 -0.128906 -0.013317 169 166 163
0.003906 -0.128906 -0.011439 163 162 160
0.007812 -0.128906 -0.014568 161 160 159
0.011719 -0.128906 -0.016710 160 160 160
0.015625 -0.128906 -0.018337 159 160 161
0.019531 -0.128906 -0.019598 162 162 163
0.023438 -0.128906 -0.021435 165 166 167
0.027344 -0.128906 -0.023484 167 167 170
0.031250 -0.128906 -0.025367 170 170 173
0.035156 -0.128906 -0.026223 171 172 175
0.039062 -0.128906 -0.026539 171 171 173
0.042969 -0.128906 -0.026608 170 169 172
0.046875 -0.128906 -0.026643 170 169 172
0.050781 -0.128906 -0.026676 165 166 169
0.054688 -0.128906 -0.026683 151 154 158
0.058594 -0.128906 -0.026657 145 148 152
0.062500 -0.128906 -0.026497 153 155 158
0.066406 -0.128906 -0.026272 153 155 158
0.070312 -0.128906 -0.025958 143 146 150
0.074219 -0.128906 -0.025456 140 143 147
0.078125 -0.128906 -0.024786 146 148 151
0.082031 -0.128906 -0.023889 143 145 148
0.085938 -0.128906 -0.022693 140 143 146
0.089844 -0.128906 -0.021540 138 141 144
0.093750 -0.128906 -0.020369 131 135 138
0.097656 -0.128906 -0.018637 127 133 135
0.101562 -0.128906 -0.016397 109 117 121
0.105469 -0.128906 -0.014102 99 107 112
0.109375 -0.128906 -0.011474 116 123 127
0.113281 -0.128906 -0.008247 120 126 130
0.117188 -0.128906 -0.004353 115 123 127
0.121094 -0.128906 -0.000273 127 135 138
0.125000 -0.128906 0.004445 123 130 134
0.128906 -0.128906 0.010259 123 126 129
0.132812 -0.128906 0.017101 157 154 151
0.136719 -0.128906 0.026236 190 185 178
0.140625 -0.128906 0.039161 200 195 186
0.144531 -0.128906 0.054956 197 193 182
-0.187500 -0.132812 -0.059839 180 173 164
-0.183594 -0.132812 -0.083532 183 188 175
-0.179688 -0.132812 -0.095078 180 182 176
-0.175781 -0.132812 -0.103477 156 156 156
-0.171875 -0.132812 -0.111312 167 166 165
-0.167969 -0.132812 -0.117123 171 171 169
-0.164062 -0.132812 -0.122527 171 171 169
-0.160156 -0.132812 -0.127682 175 174 173
-0.156250 -0.132812 -0.132383 174 174 172
-0.152344 -0.132812 -0.136283 166 166 165
-0.148438 -0.132812 -0.139518 162 163 163
-0.144531 -0.132812 -0.142649 155 157 157
-0.140625 -0.132812 -0.145306 151 154 154
-0.136719 -0.132812 -0.147631 159 161 160
-0.132812 -0.132812 -0.149514 156 158 158
-0.128906 -0.132812 -0.151145 155 157 157
-0.125000 -0.132812 -0.152529 158 159 159
-0.121094 -0.132812 -0.153534 150 153 152
-0.117188 -0.132812 -0.154257 146 150 148
-0.113281 -0.132812 -0.154845 140 144 142
-0.109375 -0.132812 -0.155293 130 134 132
-0.105469 -0.132812 -0.155559 122 126 125
-0.101562 -0.132812 -0.155595 108 113 112
-0.097656 -0.132812 -0.155449 105 109 109
-0.093750 -0.132812 -0.155084 100 105 105
-0.089844 -0.132812 -0.154449 82 89 91
-0.085938 -0.132812 -0.153421 76 84 86
-0.082031 -0.132812 -0.152296 79 87 89
-0.078125 -0.132812 -0.150947 87 95 96
-0.074219 -0.132812 -0.149044 88 96 96
-0.070312 -0.132812 -0.146993 73 80 82
-0.066406 -0.132812 -0.145008 74 80 82
-0.062500 -0.132812 -0.142876 71 76 79
-0.058594 -0.132812 -0.140748 65 67 70
-0.054688 -0.132812 -0.138874 67 65 69
-0.050781 -0.132812 -0.135752 42 41 47
-0.046875 -0.132812 -0.132279 49 49 55
-0.042969 -0.132812 -0.127885 72 72 76
-0.039062 -0.132812 -0.123411 42 43 49
-0.035156 -0.132812 -0.116613 64 64 70
-0.031250 -0.132812 -0.112542 147 146 143
-0.027344 -0.132812 -0.106451 167 168 163
-0.023438 -0.132812 -0.100645 170 170 166
-0.019531 -0.132812 -0.094463 174 173 169
-0.015625 -0.132812 -0.087973 175 172 169
-0.011719 -0.132812 -0.080555 177 174 171
-0.007812 -0.132812 -0.070315 175 172 170
-0.003906 -0.132812 -0.044916 173 170 168
0.000000 -0.132812 -0.004736 168 166 164
0.003906 -0.132812 -0.008913 163 162 160
0.007812 -0.132812 -0.012046 164 162 161
0.011719 -0.132812 -0.014338 165 163 162
0.015625 -0.132812 -0.016018 162 161 161
0.019531 -0.132812 -0.017214 162 161 162
0.023438 -0.132812 -0.018914 163 163 164
0.027344 -0.132812 -0.020837 165 165 166
0.031250 -0.132812 -0.022596 168 168 170
0.035156 -0.132812 -0.023434 170 170 172
0.039062 -0.132812 -0.023782 168 168 170
0.042969 -0.132812 -0.023905 164 164 167
0.046875 -0.132812 -0.024002 162 163 166
0.050781 -0.132812 -0.024116 159 161 164
0.054688 -0.132812 -0.024208 149 152 156
0.058594 -0.132812 -0.024262 142 146 150
0.062500 -0.132812 -0.024174 147 150 154
0.066406 -0.132812 -0.024036 151 153 156
0.070312 -0.132812 -0.023793 143 146 150
0.074219 -0.132812 -0.023345 140 143 148
0.078125 -0.132812 -0.022739 146 148 152
0.082031 -0.132812 -0.021907 143 145 148
0.085938 -0.132812 -0.020801 139 142 144
0.089844 -0.132812 -0.019700 136 139 142
0.093750 -0.132812 -0.018581 127 131 134
0.097656 -0.132812 -0.016959 124 129 132
0.101562 -0.132812 -0.014786 119 127 130
0.105469 -0.132812 -0.012487 116 125 128
0.109375 -0.132812 -0.009909 120 127 131
0.113281 -0.132812 -0.006773 117 124 128
0.117188 -0.132812 -0.002866 119 127 131
0.121094 -0.132812 0.001114 137 144 145
0.125000 -0.132812 0.005990 130 136 139
0.128906 -0.132812 0.011796 118 121 125
0.132812 -0.132812 0.018883 153 151 148
0.136719 -0.132812 0.027493 196 190 182
0.140625 -0.132812 0.040972 209 201 193
0.144531 -0.132812 0.043014 181 175 169
-0.187500 -0.136719 -0.065253 125 131 128
-0.183594 -0.136719 -0.080637 180 178 166
-0.179688 -0.136719 -0.092583 183 182 177
-0.175781 -0.136719 -0.101710 158 157 157
-0.171875 -0.136719 -0.109922 158 157 156
-0.167969 -0.136719 -0.115588 164 164 162
-0.164062 -0.136719 -0.121140 163 163 160
-0.160156 -0.136719 -0.126346 167 165 164
-0.156250 -0.136719 -0.131097 170 168 166
-0.152344 -0.136719 -0.135113 164 163 161
-0.148438 -0.136719 -0.138456 164 163 162
-0.144531 -0.136719 -0.141716 163 162 161
-0.140625 -0.136719 -0.144508 158 157 157
-0.136719 -0.136719 -0.146942 152 153 152
-0.132812 -0.136719 -0.148898 137 140 141
-0.128906 -0.136719 -0.150606 137 139 141
-0.125000 -0.136719 -0.152055 141 143 144
-0.121094 -0.136719 -0.153133 137 139 140
-0.117188 -0.136719 -0.153930 134 136 137
-0.113281 -0.136719 -0.154568 120 123 124
-0.109375 -0.136719 -0.155049 110 113 114
-0.105469 -0.136719 -0.155322 109 113 112
-0.101562 -0.136719 -0.155324 101 105 104
-0.097656 -0.136719 -0.155194 102 106 104
-0.093750 -0.136719 -0.154868 100 106 104
-0.089844 -0.136719 -0.154185 89 97 97
-0.085938 -0.136719 -0.153149 91 99 99
-0.082031 -0.136719 -0.152083 96 103 102
-0.078125 -0.136719 -0.150786 90 97 96
-0.074219 -0.136719 -0.148934 80 87 87
-0.070312 -0.136719 -0.146930 73 81 81
-0.066406 -0.136719 -0.144959 84 90 90
-0.062500 -0.136719 -0.142799 84 88 89
-0.058594 -0.136719 -0.140652 73 76 78
-0.054688 -0.136719 -0.138805 73 72 76
-0.050781 -0.136719 -0.135689 48 47 53
-0.046875 -0.136719 -0.131989 54 54 60
-0.042969 -0.136719 -0.127747 79 80 82
-0.039062 -0.136719 -0.123380 41 43 50
-0.035156 -0.136719 -0.116467 53 54 62
-0.031250 -0.136719 -0.111949 138 138 135
-0.027344 -0.136719 -0.105887 165 166 161
-0.023438 -0.136719 -0.099964 170 170 165
-0.019531 -0.136719 -0.093611 178 176 171
-0.015625 -0.136719 -0.087033 180 179 175
-0.011719 -0.136719 -0.079128 186 184 181
-0.007812 -0.136719 -0.069220 185 184 181
-0.003906 -0.136719 -0.032896 180 180 178
0.000000 -0.136719 0.000174 175 174 173
0.003906 -0.136719 -0.006450 168 167 167
0.007812 -0.136719 -0.009588 165 163 163
0.011719 -0.136719 -0.012041 166 163 163
0.015625 -0.136719 -0.013849 165 162 163
0.019531 -0.136719 -0.015023 165 162 163
0.023438 -0.136719 -0.016641 162 161 162
0.027344 -0.136719 -0.018462 162 161 162
0.031250 -0.136719 -0.020114 165 164 166
0.035156 -0.136719 -0.020932 168 168 169
0.039062 -0.136719 -0.021304 167 167 169
0.042969 -0.136719 -0.021479 162 163 165
0.046875 -0.136719 -0.021649 160 162 165
0.050781 -0.136719 -0.021828 157 160 162
0.054688 -0.136719 -0.021972 149 153 156
0.058594 -0.136719 -0.022097 143 147 151
0.062500 -0.136719 -0.022063 146 149 152
0.066406 -0.136719 -0.021976 151 152 156
0.070312 -0.136719 -0.021799 147 149 153
0.074219 -0.136719 -0.021429 144 146 150
0.078125 -0.136719 -0.020883 145 147 151
0.082031 -0.136719 -0.020078 139 141 146
0.085938 -0.136719 -0.019033 137 139 143
0.089844 -0.136719 -0.018011 135 138 141
0.093750 -0.136719 -0.016922 124 129 133
0.097656 -0.136719 -0.015321 124 130 133
0.101562 -0.136719 -0.013253 132 137 140
0.105469 -0.136719 -0.011007 129 136 138
0.109375 -0.136719 -0.008424 116 124 126
0.113281 -0.136719 -0.005349 113 120 125
0.117188 -0.136719 -0.001391 126 132 137
0.121094 -0.136719 0.002560 137 144 145
0.125000 -0.136719 0.007627 124 130 132
0.128906 -0.136719 0.013450 109 112 116
0.132812 -0.136719 0.020558 148 147 142
0.136719 -0.136719 0.028826 199 192 184
0.140625 -0.136719 0.040288 217 208 200
0.144531 -0.136719 0.017234 192 182 174
-0.187500 -0.140625 -0.056943 175 173 171
-0.183594 -0.140625 -0.079587 156 156 141
-0.179688 -0.140625 -0.091104 186 185 179
-0.175781 -0.140625 -0.100712 175 173 171
-0.171875 -0.140625 -0.108446 158 156 156
-0.167969 -0.140625 -0.114370 163 162 161
-0.164062 -0.140625 -0.119920 158 157 155
-0.160156 -0.140625 -0.125129 157 156 156
-0.156250 -0.140625 -0.129893 160 158 157
-0.152344 -0.140625 -0.133990 152 151 151
-0.148438 -0.140625 -0.137443 151 151 151
-0.144531 -0.140625 -0.140807 152 151 151
-0.140625 -0.140625 -0.143720 145 145 145
-0.136719 -0.140625 -0.146231 136 138 138
-0.132812 -0.140625 -0.148238 126 130 131
-0.128906 -0.140625 -0.150038 128 132 134
-0.125000 -0.140625 -0.151570 131 135 138
-0.121094 -0.140625 -0.152705 133 136 138
-0.117188 -0.140625 -0.153566 131 133 135
-0.113281 -0.140625 -0.154272 117 120 123
-0.109375 -0.140625 -0.154793 115 119 120
-0.105469 -0.140625 -0.155088 117 120 119
-0.101562 -0.140625 -0.155087 104 108 106
-0.097656 -0.140625 -0.154940 96 101 100
-0.093750 -0.140625 -0.154626 95 102 101
-0.089844 -0.140625 -0.153989 97 105 104
-0.085938 -0.140625 -0.152987 101 108 107
-0.082031 -0.140625 -0.151898 93 100 98
-0.078125 -0.140625 -0.150598 76 82 82
-0.074219 -0.140625 -0.148807 68 74 75
-0.070312 -0.140625 -0.146870 71 78 79
-0.066406 -0.140625 -0.144936 84 90 89
-0.062500 -0.140625 -0.142826 79 83 83
-0.058594 -0.140625 -0.140708 66 69 71
-0.054688 -0.140625 -0.138798 70 69 73
-0.050781 -0.140625 -0.135737 49 48 55
-0.046875 -0.140625 -0.132007 50 51 57
-0.042969 -0.140625 -0.127763 75 75 78
-0.039062 -0.140625 -0.123286 42 43 50
-0.035156 -0.140625 -0.116241 50 50 57
-0.031250 -0.140625 -0.111532 134 132 129
-0.027344 -0.140625 -0.105418 165 165 158
-0.023438 -0.140625 -0.099374 167 166 160
-0.019531 -0.140625 -0.092916 173 171 165
-0.015625 -0.140625 -0.086134 176 174 170
-0.011719 -0.140625 -0.077642 185 184 180
-0.007812 -0.140625 -0.068432 190 189 186
-0.003906 -0.140625 -0.019817 191 191 188
0.000000 -0.140625 0.003212 192 191 188
0.003906 -0.140625 -0.003539 185 184 183
0.007812 -0.140625 -0.006961 173 172 172
0.011719 -0.140625 -0.009643 167 166 167
0.015625 -0.140625 -0.011619 167 166 167
0.019531 -0.140625 -0.012829 165 164 165
0.023438 -0.140625 -0.014420 162 162 163
0.027344 -0.140625 -0.016203 163 162 164
0.031250 -0.140625 -0.017786 165 164 166
0.035156 -0.140625 -0.018582 168 168 169
0.039062 -0.140625 -0.018973 166 167 169
0.042969 -0.140625 -0.019189 162 163 165
0.046875 -0.140625 -0.019409 160 162 165
0.050781 -0.140625 -0.019641 154 157 161
0.054688 -0.140625 -0.019828 146 149 154
0.058594 -0.140625 -0.020003 144 148 152
0.062500 -0.140625 -0.020016 146 149 153
0.066406 -0.140625 -0.019980 148 150 154
0.070312 -0.140625 -0.019866 146 147 151
0.074219 -0.140625 -0.019567 146 148 152
0.078125 -0.140625 -0.019095 149 151 155
0.082031 -0.140625 -0.018349 142 145 149
0.085938 -0.140625 -0.017375 140 143 146
0.089844 -0.140625 -0.016420 138 141 144
0.093750 -0.140625 -0.015345 131 136 139
0.097656 -0.140625 -0.013746 129 136 139
0.101562 -0.140625 -0.011745 130 137 139
0.105469 -0.140625 -0.009544 124 130 133
0.109375 -0.140625 -0.006986 113 121 124
0.113281 -0.140625 -0.003966 122 128 132
0.117188 -0.140625 -0.000006 137 141 145
0.121094 -0.140625 0.004002 135 141 142
0.125000 -0.140625 0.009215 117 123 125
0.128906 -0.140625 0.014948 101 105 109
0.132812 -0.140625 0.021609 139 139 135
0.136719 -0.140625 0.030050 192 186 177
0.140625 -0.140625 0.042949 213 205 196
0.144531 -0.140625 0.013801 202 192 181
-0.183594 -0.144531 -0.076375 61 55 58
-0.179688 -0.144531 -0.090030 160 157 157
-0.175781 -0.144531 -0.100710 181 177 176
-0.171875 -0.144531 -0.106948 159 157 157
-0.167969 -0.144531 -0.113267 168 167 164
-0.164062 -0.144531 -0.118886 165 164 161
-0.160156 -0.144531 -0.124134 164 163 161
-0.156250 -0.144531 -0.128918 165 163 161
-0.152344 -0.144531 -0.133054 156 155 155
-0.148438 -0.144531 -0.136607 154 153 153
-0.144531 -0.144531 -0.140040 153 152 152
-0.140625 -0.144531 -0.143042 145 146 145
-0.136719 -0.144531 -0.145605 141 143 143
-0.132812 -0.144531 -0.147659 141 143 145
-0.128906 -0.144531 -0.149534 143 146 148
-0.125000 -0.144531 -0.151140 143 145 148
-0.121094 -0.144531 -0.152341 139 143 144
-0.117188 -0.144531 -0.153252 130 133 135
-0.113281 -0.144531 -0.153986 121 125 127
-0.109375 -0.144531 -0.154515 127 130 132
-0.105469 -0.144531 -0.154843 126 129 128
-0.101562 -0.144531 -0.154878 110 115 114
-0.097656 -0.144531 -0.154682 97 104 103
-0.093750 -0.144531 -0.154342 98 106 105
-0.089844 -0.144531 -0.153750 110 117 115
-0.085938 -0.144531 -0.152778 103 110 108
-0.082031 -0.144531 -0.151721 81 88 87
-0.078125 -0.144531 -0.150464 67 74 75
-0.074219 -0.144531 -0.148727 67 73 76
-0.070312 -0.144531 -0.146835 75 82 83
-0.066406 -0.144531 -0.144940 82 88 88
-0.062500 -0.144531 -0.142873 73 78 79
-0.058594 -0.144531 -0.140752 64 67 69
-0.054688 -0.144531 -0.138785 72 71 74
-0.050781 -0.144531 -0.135731 54 53 59
-0.046875 -0.144531 -0.131913 50 52 57
-0.042969 -0.144531 -0.127709 73 74 77
-0.039062 -0.144531 -0.123227 45 45 52
-0.035156 -0.144531 -0.116104 48 47 55
-0.031250 -0.144531 -0.111154 126 123 121
-0.027344 -0.144531 -0.104971 164 161 155
-0.023438 -0.144531 -0.098749 165 162 156
-0.019531 -0.144531 -0.092139 169 166 160
-0.015625 -0.144531 -0.085221 171 168 163
-0.011719 -0.144531 -0.076294 177 175 170
-0.007812 -0.144531 -0.067189 182 180 176
-0.003906 -0.144531 -0.009241 185 184 180
0.000000 -0.144531 0.005471 191 190 187
0.003906 -0.144531 -0.001068 191 190 188
0.007812 -0.144531 -0.004668 185 185 184
0.011719 -0.144531 -0.007444 183 183 182
0.015625 -0.144531 -0.009471 184 184 183
0.019531 -0.144531 -0.010677 180 180 180
0.023438 -0.144531 -0.012208 175 176 176
0.027344 -0.144531 -0.013937 172 173 174
0.031250 -0.144531 -0.015489 167 168 170
0.035156 -0.144531 -0.016289 166 168 169
0.039062 -0.144531 -0.016720 164 166 168
0.042969 -0.144531 -0.016983 159 161 163
0.046875 -0.144531 -0.017255 161 163 166
0.050781 -0.144531 -0.017541 158 161 164
0.054688 -0.144531 -0.017754 152 156 159
0.058594 -0.144531 -0.017961 156 159 162
0.062500 -0.144531 -0.018026 158 160 162
0.066406 -0.144531 -0.018042 154 156 158
0.070312 -0.144531 -0.017985 148 150 153
0.074219 -0.144531 -0.017757 149 151 155
0.078125 -0.144531 -0.017368 153 155 159
0.082031 -0.144531 -0.016701 148 151 155
0.085938 -0.144531 -0.015778 143 146 150
0.089844 -0.144531 -0.014843 139 143 146
0.093750 -0.144531 -0.013816 138 142 145
0.097656 -0.144531 -0.012228 135 141 143
0.101562 -0.144531 -0.010212 123 131 133
0.105469 -0.144531 -0.008084 118 126 129
0.109375 -0.144531 -0.005568 126 132 136
0.113281 -0.144531 -0.002495 140 144 147
0.117188 -0.144531 0.001486 141 144 147
0.121094 -0.144531 0.005581 127 132 133
0.125000 -0.144531 0.010677 111 117 119
0.128906 -0.144531 0.016541 107 111 115
0.132812 -0.144531 0.023365 152 151 147
0.136719 -0.144531 0.031839 192 186 178
0.140625 -0.144531 0.045515 203 196 187
0.144531 -0.144531 0.031330 197 188 178
-0.183594 -0.148438 -0.047988 11 8 12
-0.179688 -0.148438 -0.087193 155 149 156
-0.175781 -0.148438 -0.098564 182 177 178
-0.171875 -0.148438 -0.105534 155 154 155
-0.167969 -0.148438 -0.112098 169 167 165
-0.164062 -0.148438 -0.117950 168 166 163
-0.160156 -0.148438 -0.123254 168 167 164
-0.156250 -0.148438 -0.128117 169 168 166
-0.152344 -0.148438 -0.132266 164 164 163
-0.148438 -0.148438 -0.135873 161 161 160
-0.144531 -0.148438 -0.139351 159 159 158
-0.140625 -0.148438 -0.142409 153 154 153
-0.136719 -0.148438 -0.145028 148 150 150
-0.132812 -0.148438 -0.147139 149 151 152
-0.128906 -0.148438 -0.149059 150 152 154
-0.125000 -0.148438 -0.150698 146 148 150
-0.121094 -0.148438 -0.151953 138 141 143
-0.117188 -0.148438 -0.152913 126 130 133
-0.113281 -0.148438 -0.153697 125 129 132
-0.109375 -0.148438 -0.154267 133 136 137
-0.105469 -0.148438 -0.154600 127 131 131
-0.101562 -0.148438 -0.154638 117 123 123
-0.097656 -0.148438 -0.154464 112 119 118
-0.093750 -0.148438 -0.154121 113 120 117
-0.089844 -0.148438 -0.153495 117 123 119
-0.085938 -0.148438 -0.152547 97 104 103
-0.082031 -0.148438 -0.151557 76 83 84
-0.078125 -0.148438 -0.150358 71 78 80
-0.074219 -0.148438 -0.148709 75 82 84
-0.070312 -0.148438 -0.146882 83 90 91
-0.066406 -0.148438 -0.144982 81 88 89
-0.062500 -0.148438 -0.142924 71 76 78
-0.058594 -0.148438 -0.140798 69 72 74
-0.054688 -0.148438 -0.138792 74 73 77
-0.050781 -0.148438 -0.135808 53 52 58
-0.046875 -0.148438 -0.131960 51 52 58
-0.042969 -0.148438 -0.127783 72 73 76
-0.039062 -0.148438 -0.123234 44 45 51
-0.035156 -0.148438 -0.116020 44 43 50
-0.031250 -0.148438 -0.110976 116 113 112
-0.027344 -0.148438 -0.104733 163 159 154
-0.023438 -0.148438 -0.098374 164 160 155
-0.019531 -0.148438 -0.091692 167 163 157
-0.015625 -0.148438 -0.084584 170 165 159
-0.011719 -0.148438 -0.075264 172 168 162
-0.007812 -0.148438 -0.065385 174 170 165
-0.003906 -0.148438 -0.000747 175 172 168
0.000000 -0.148438 0.007659 178 176 173
0.003906 -0.148438 0.001276 179 178 176
0.007812 -0.148438 -0.002491 179 178 177
0.011719 -0.148438 -0.005336 182 181 180
0.015625 -0.148438 -0.007401 188 186 185
0.019531 -0.148438 -0.008610 188 187 185
0.023438 -0.148438 -0.010079 186 186 184
0.027344 -0.148438 -0.011740 182 182 181
0.031250 -0.148438 -0.013265 174 175 176
0.035156 -0.148438 -0.014083 173 174 175
0.039062 -0.148438 -0.014558 169 170 172
0.042969 -0.148438 -0.014875 161 164 166
0.046875 -0.148438 -0.015206 164 166 169
0.050781 -0.148438 -0.015539 164 166 168
0.054688 -0.148438 -0.015769 159 161 164
0.058594 -0.148438 -0.016001 161 163 165
0.062500 -0.148438 -0.016100 159 161 163
0.066406 -0.148438 -0.016161 154 156 159
0.070312 -0.148438 -0.016160 147 149 152
0.074219 -0.148438 -0.015994 146 148 152
0.078125 -0.148438 -0.015674 152 153 157
0.082031 -0.148438 -0.015059 149 151 155
0.085938 -0.148438 -0.014158 143 146 150
0.089844 -0.148438 -0.013255 139 142 145
0.093750 -0.148438 -0.012324 137 141 144
0.097656 -0.148438 -0.010784 131 137 139
0.101562 -0.148438 -0.008757 119 128 130
0.105469 -0.148438 -0.006725 126 133 136
0.109375 -0.148438 -0.004220 143 146 149
0.113281 -0.148438 -0.001020 147 149 151
0.117188 -0.148438 0.002951 131 134 137
0.121094 -0.148438 0.007102 110 116 119
0.125000 -0.148438 0.012026 101 108 112
0.128906 -0.148438 0.017921 116 118 123
0.132812 -0.148438 0.024739 164 161 157
0.136719 -0.148438 0.033380 186 181 173
0.140625 -0.148438 0.046146 191 186 177
0.144531 -0.148438 0.047044 194 187 179
-0.179688 -0.152344 -0.083946 186 183 185
-0.175781 -0.152344 -0.096385 182 179 180
-0.171875 -0.152344 -0.104711 150 151 152
-0.167969 -0.152344 -0.110988 165 165 162
-0.164062 -0.152344 -0.117093 167 165 163
-0.160156 -0.152344 -0.122489 168 167 164
-0.156250 -0.152344 -0.127489 169 168 166
-0.152344 -0.152344 -0.131675 164 165 164
-0.148438 -0.152344 -0.135260 157 159 159
-0.144531 -0.152344 -0.138744 158 159 158
-0.140625 -0.152344 -0.141862 158 159 158
-0.136719 -0.152344 -0.144524 153 155 155
-0.132812 -0.152344 -0.146673 150 152 153
-0.128906 -0.152344 -0.148646 148 150 152
-0.125000 -0.152344 -0.150321 141 143 145
-0.121094 -0.152344 -0.151610 135 138 140
-0.117188 -0.152344 -0.152589 131 134 137
-0.113281 -0.152344 -0.153399 132 136 138
-0.109375 -0.152344 -0.154001 131 135 137
-0.105469 -0.152344 -0.154320 120 126 127
-0.101562 -0.152344 -0.154350 116 124 125
-0.097656 -0.152344 -0.154208 118 125 125
-0.093750 -0.152344 -0.153878 111 116 116
-0.089844 -0.152344 -0.153260 97 103 103
-0.085938 -0.152344 -0.152346 79 86 87
-0.082031 -0.152344 -0.151370 74 82 82
-0.078125 -0.152344 -0.150180 78 87 88
-0.074219 -0.152344 -0.148588 86 94 95
-0.070312 -0.152344 -0.146854 92 98 100
-0.066406 -0.152344 -0.144998 78 84 87
-0.062500 -0.152344 -0.142964 64 70 72
-0.058594 -0.152344 -0.140851 67 71 74
-0.054688 -0.152344 -0.138806 66 66 70
-0.050781 -0.152344 -0.135856 46 46 52
-0.046875 -0.152344 -0.131984 52 53 58
-0.042969 -0.152344 -0.127881 72 74 76
-0.039062 -0.152344 -0.123306 43 44 50
-0.035156 -0.152344 -0.116042 43 43 49
-0.031250 -0.152344 -0.110825 114 112 110
-0.027344 -0.152344 -0.104526 169 165 160
-0.023438 -0.152344 -0.098067 172 167 163
-0.019531 -0.152344 -0.091359 171 166 160
-0.015625 -0.152344 -0.084087 173 167 162
-0.011719 -0.152344 -0.074516 174 169 163
-0.007812 -0.152344 -0.063328 177 171 165
-0.003906 -0.152344 0.005779 178 172 168
0.000000 -0.152344 0.009530 177 173 170
0.003906 -0.152344 0.003461 172 169 168
0.007812 -0.152344 -0.000436 167 165 165
0.011719 -0.152344 -0.003297 166 165 165
0.015625 -0.152344 -0.005407 170 169 168
0.019531 -0.152344 -0.006625 172 172 171
0.023438 -0.152344 -0.008041 171 171 171
0.027344 -0.152344 -0.009654 167 168 168
0.031250 -0.152344 -0.011155 162 164 165
0.035156 -0.152344 -0.011989 163 165 167
0.039062 -0.152344 -0.012515 161 163 165
0.042969 -0.152344 -0.012900 156 158 161
0.046875 -0.152344 -0.013279 159 161 163
0.050781 -0.152344 -0.013637 158 160 163
0.054688 -0.152344 -0.013882 154 156 159
0.058594 -0.152344 -0.014149 154 156 159
0.062500 -0.152344 -0.014297 153 155 158
0.066406 -0.152344 -0.014411 152 154 157
0.070312 -0.152344 -0.014455 148 150 153
0.074219 -0.152344 -0.014339 145 147 151
0.078125 -0.152344 -0.014068 148 150 154
0.082031 -0.152344 -0.013479 146 149 153
0.085938 -0.152344 -0.012621 143 145 149
0.089844 -0.152344 -0.011725 139 143 145
0.093750 -0.152344 -0.010846 134 139 141
0.097656 -0.152344 -0.009443 128 135 137
0.101562 -0.152344 -0.007432 128 135 138
0.105469 -0.152344 -0.005368 144 149 150
0.109375 -0.152344 -0.002831 152 153 154
0.113281 -0.152344 0.000451 140 142 143
0.117188 -0.152344 0.004348 120 124 127
0.121094 -0.152344 0.008620 107 113 117
0.125000 -0.152344 0.013347 107 113 118
0.128906 -0.152344 0.019166 130 131 134
0.132812 -0.152344 0.026136 169 166 162
0.136719 -0.152344 0.034676 183 180 172
0.140625 -0.152344 0.048595 195 188 180
0.144531 -0.152344 0.060767 194 184 176
-0.179688 -0.156250 -0.081171 187 185 187
-0.175781 -0.156250 -0.094803 175 172 172
-0.171875 -0.156250 -0.104034 154 154 155
-0.167969 -0.156250 -0.110089 167 167 164
-0.164062 -0.156250 -0.116378 170 168 165
-0.160156 -0.156250 -0.121915 171 169 166
-0.156250 -0.156250 -0.126997 170 169 167
-0.152344 -0.156250 -0.131197 166 168 166
-0.148438 -0.156250 -0.134749 157 159 159
-0.144531 -0.156250 -0.138249 159 161 160
-0.140625 -0.156250 -0.141416 166 167 165
-0.136719 -0.156250 -0.144102 163 163 162
-0.132812 -0.156250 -0.146267 155 156 157
-0.128906 -0.156250 -0.148259 144 146 148
-0.125000 -0.156250 -0.149975 134 137 139
-0.121094 -0.156250 -0.151328 134 137 140
-0.117188 -0.156250 -0.152329 138 141 143
-0.113281 -0.156250 -0.153124 137 141 143
-0.109375 -0.156250 -0.153720 133 138 139
-0.105469 -0.156250 -0.154061 127 133 134
-0.101562 -0.156250 -0.154103 122 130 132
-0.097656 -0.156250 -0.153941 118 126 127
-0.093750 -0.156250 -0.153620 104 110 112
-0.089844 -0.156250 -0.153025 85 92 94
-0.085938 -0.156250 -0.152111 76 84 87
-0.082031 -0.156250 -0.151160 81 90 90
-0.078125 -0.156250 -0.150012 87 97 96
-0.074219 -0.156250 -0.148449 95 103 103
-0.070312 -0.156250 -0.146779 94 100 102
-0.066406 -0.156250 -0.145000 74 80 83
-0.062500 -0.156250 -0.143007 67 74 76
-0.058594 -0.156250 -0.140887 77 82 83
-0.054688 -0.156250 -0.138790 69 70 74
-0.050781 -0.156250 -0.135876 50 50 56
-0.046875 -0.156250 -0.132006 64 64 68
-0.042969 -0.156250 -0.127984 79 81 83
-0.039062 -0.156250 -0.123356 45 46 53
-0.035156 -0.156250 -0.116027 45 45 51
-0.031250 -0.156250 -0.110667 111 110 108
-0.027344 -0.156250 -0.104381 170 166 161
-0.023438 -0.156250 -0.097791 176 170 166
-0.019531 -0.156250 -0.090979 173 167 162
-0.015625 -0.156250 -0.083530 176 171 165
-0.011719 -0.156250 -0.073863 180 175 169
-0.007812 -0.156250 -0.061187 183 177 171
-0.003906 -0.156250 0.010872 183 178 173
0.000000 -0.156250 0.011247 183 179 175
0.003906 -0.156250 0.005387 178 176 173
0.007812 -0.156250 0.001339 172 171 169
0.011719 -0.156250 -0.001562 169 169 168
0.015625 -0.156250 -0.003676 169 169 168
0.019531 -0.156250 -0.004854 166 167 166
0.023438 -0.156250 -0.006192 160 161 162
0.027344 -0.156250 -0.007729 154 156 157
0.031250 -0.156250 -0.009181 150 153 156
0.035156 -0.156250 -0.010023 151 154 158
0.039062 -0.156250 -0.010602 151 153 157
0.042969 -0.156250 -0.011062 152 154 157
0.046875 -0.156250 -0.011491 157 158 161
0.050781 -0.156250 -0.011889 157 158 161
0.054688 -0.156250 -0.012168 155 156 159
0.058594 -0.156250 -0.012454 157 158 161
0.062500 -0.156250 -0.012622 157 159 162
0.066406 -0.156250 -0.012755 155 157 160
0.070312 -0.156250 -0.012820 152 154 156
0.074219 -0.156250 -0.012751 147 150 153
0.078125 -0.156250 -0.012514 148 151 155
0.082031 -0.156250 -0.011945 145 148 151
0.085938 -0.156250 -0.011153 139 142 146
0.089844 -0.156250 -0.010237 134 138 141
0.093750 -0.156250 -0.009330 127 133 136
0.097656 -0.156250 -0.008066 128 133 137
0.101562 -0.156250 -0.006079 139 144 146
0.105469 -0.156250 -0.003924 152 154 155
0.109375 -0.156250 -0.001408 141 142 144
0.113281 -0.156250 0.001868 121 122 126
0.117188 -0.156250 0.005767 114 117 121
0.121094 -0.156250 0.010105 113 118 122
0.125000 -0.156250 0.014784 113 119 124
0.128906 -0.156250 0.020872 126 127 131
0.132812 -0.156250 0.028156 156 154 152
0.136719 -0.156250 0.036458 183 180 174
0.140625 -0.156250 0.050104 199 189 183
0.144531 -0.156250 0.055338 197 188 178
-0.179688 -0.160156 -0.082157 179 176 182
-0.175781 -0.160156 -0.092981 172 169 168
-0.171875 -0.160156 -0.102700 164 162 162
-0.167969 -0.160156 -0.109618 170 169 167
-0.164062 -0.160156 -0.115946 172 169 166
-0.160156 -0.160156 -0.121459 170 168 165
-0.156250 -0.160156 -0.126567 167 166 164
-0.152344 -0.160156 -0.130795 166 167 166
-0.148438 -0.160156 -0.134284 157 159 159
-0.144531 -0.160156 -0.137756 156 157 157
-0.140625 -0.160156 -0.140946 162 163 161
-0.136719 -0.160156 -0.143653 163 163 163
-0.132812 -0.160156 -0.145861 154 155 156
-0.128906 -0.160156 -0.147874 137 140 142
-0.125000 -0.160156 -0.149592 132 135 137
-0.121094 -0.160156 -0.150972 139 141 142
-0.117188 -0.160156 -0.151990 140 143 144
-0.113281 -0.160156 -0.152784 133 137 140
-0.109375 -0.160156 -0.153404 132 137 138
-0.105469 -0.160156 -0.153772 135 140 141
-0.101562 -0.160156 -0.153822 126 132 135
-0.097656 -0.160156 -0.153672 113 120 122
-0.093750 -0.160156 -0.153370 102 109 111
-0.089844 -0.160156 -0.152788 92 98 101
-0.085938 -0.160156 -0.151900 90 98 100
-0.082031 -0.160156 -0.150981 93 102 102
-0.078125 -0.160156 -0.149867 89 98 97
-0.074219 -0.160156 -0.148371 86 94 93
-0.070312 -0.160156 -0.146772 77 84 85
-0.066406 -0.160156 -0.145035 66 71 75
-0.062500 -0.160156 -0.143105 74 78 80
-0.058594 -0.160156 -0.141028 84 87 89
-0.054688 -0.160156 -0.138853 68 68 73
-0.050781 -0.160156 -0.135955 49 48 54
-0.046875 -0.160156 -0.132099 65 65 69
-0.042969 -0.160156 -0.128117 78 79 80
-0.039062 -0.160156 -0.123426 45 46 52
-0.035156 -0.160156 -0.116068 47 47 53
-0.031250 -0.160156 -0.110575 111 110 108
-0.027344 -0.160156 -0.104273 167 164 159
-0.023438 -0.160156 -0.097568 172 167 163
-0.019531 -0.160156 -0.090723 167 161 158
-0.015625 -0.160156 -0.083123 175 169 165
-0.011719 -0.160156 -0.073307 183 177 173
-0.007812 -0.160156 -0.059015 186 181 176
-0.003906 -0.160156 0.014700 185 181 176
0.000000 -0.160156 0.012925 185 182 178
0.003906 -0.160156 0.007291 182 181 178
0.007812 -0.160156 0.003127 177 177 175
0.011719 -0.160156 0.000143 174 174 172
0.015625 -0.160156 -0.002010 173 173 171
0.019531 -0.160156 -0.003157 170 171 169
0.023438 -0.160156 -0.004457 164 165 165
0.027344 -0.160156 -0.005923 159 161 161
0.031250 -0.160156 -0.007319 159 161 162
0.035156 -0.160156 -0.008181 158 160 163
0.039062 -0.160156 -0.008808 156 157 161
0.042969 -0.160156 -0.009330 157 158 161
0.046875 -0.160156 -0.009817 161 162 165
0.050781 -0.160156 -0.010266 162 162 164
0.054688 -0.160156 -0.010583 158 159 162
0.058594 -0.160156 -0.010879 159 160 162
0.062500 -0.160156 -0.011050 158 159 162
0.066406 -0.160156 -0.011188 152 154 157
0.070312 -0.160156 -0.011254 146 149 152
0.074219 -0.160156 -0.011225 146 148 152
0.078125 -0.160156 -0.011025 150 152 155
0.082031 -0.160156 -0.010433 146 149 152
0.085938 -0.160156 -0.009692 137 140 143
0.089844 -0.160156 -0.008823 129 133 137
0.093750 -0.160156 -0.007869 123 130 133
0.097656 -0.160156 -0.006650 130 136 140
0.101562 -0.160156 -0.004672 145 147 150
0.105469 -0.160156 -0.002453 145 147 149
0.109375 -0.160156 -0.000001 124 126 129
0.113281 -0.160156 0.003178 110 113 118
0.117188 -0.160156 0.007083 121 125 129
0.121094 -0.160156 0.011506 130 135 138
0.125000 -0.160156 0.016408 122 127 132
0.128906 -0.160156 0.022669 118 120 126
0.132812 -0.160156 0.029960 142 143 142
0.136719 -0.160156 0.038376 181 179 173
0.140625 -0.160156 0.048224 186 175 173
0.144531 -0.160156 0.017993 194 187 179
-0.179688 -0.164062 -0.080943 173 170 179
-0.175781 -0.164062 -0.092550 169 167 164
-0.171875 -0.164062 -0.102447 166 163 162
-0.167969 -0.164062 -0.109169 172 170 169
-0.164062 -0.164062 -0.115488 174 170 168
-0.160156 -0.164062 -0.121072 170 167 164
-0.156250 -0.164062 -0.126263 165 164 162
-0.152344 -0.164062 -0.130514 168 168 167
-0.148438 -0.164062 -0.133918 159 161 161
-0.144531 -0.164062 -0.137334 154 155 156
-0.140625 -0.164062 -0.140546 158 159 159
-0.136719 -0.164062 -0.143261 162 163 163
-0.132812 -0.164062 -0.145492 155 156 157
-0.128906 -0.164062 -0.147553 138 140 142
-0.125000 -0.164062 -0.149296 137 140 141
-0.121094 -0.164062 -0.150659 141 144 144
-0.117188 -0.164062 -0.151674 136 139 140
-0.113281 -0.164062 -0.152498 129 133 135
-0.109375 -0.164062 -0.153119 131 137 137
-0.105469 -0.164062 -0.153464 136 141 141
-0.101562 -0.164062 -0.153520 119 124 128
-0.097656 -0.164062 -0.153380 102 109 113
-0.093750 -0.164062 -0.153077 99 106 109
-0.089844 -0.164062 -0.152541 96 102 104
-0.085938 -0.164062 -0.151718 100 106 106
-0.082031 -0.164062 -0.150818 97 105 104
-0.078125 -0.164062 -0.149705 79 86 87
-0.074219 -0.164062 -0.148274 66 73 74
-0.070312 -0.164062 -0.146778 57 64 67
-0.066406 -0.164062 -0.145092 55 60 65
-0.062500 -0.164062 -0.143230 68 72 74
-0.058594 -0.164062 -0.141200 71 73 77
-0.054688 -0.164062 -0.138947 54 54 60
-0.050781 -0.164062 -0.136073 42 42 49
-0.046875 -0.164062 -0.132263 66 65 69
-0.042969 -0.164062 -0.128324 80 81 82
-0.039062 -0.164062 -0.123538 45 46 52
-0.035156 -0.164062 -0.116283 48 48 53
-0.031250 -0.164062 -0.110576 109 107 105
-0.027344 -0.164062 -0.104208 166 162 158
-0.023438 -0.164062 -0.097384 171 166 163
-0.019531 -0.164062 -0.090470 165 160 157
-0.015625 -0.164062 -0.082640 175 169 166
-0.011719 -0.164062 -0.072679 183 178 174
-0.007812 -0.164062 -0.056719 186 181 177
-0.003906 -0.164062 0.018024 185 180 177
0.000000 -0.164062 0.014512 185 182 179
0.003906 -0.164062 0.009019 183 182 179
0.007812 -0.164062 0.004768 178 178 176
0.011719 -0.164062 0.001736 173 173 171
0.015625 -0.164062 -0.000457 169 170 168
0.019531 -0.164062 -0.001597 167 168 166
0.023438 -0.164062 -0.002854 162 162 162
0.027344 -0.164062 -0.004244 158 159 160
0.031250 -0.164062 -0.005565 159 161 162
0.035156 -0.164062 -0.006428 160 162 164
0.039062 -0.164062 -0.007092 159 160 163
0.042969 -0.164062 -0.007673 161 161 164
0.046875 -0.164062 -0.008220 165 165 167
0.050781 -0.164062 -0.008719 164 164 166
0.054688 -0.164062 -0.009077 158 159 161
0.058594 -0.164062 -0.009397 157 159 161
0.062500 -0.164062 -0.009590 158 159 162
0.066406 -0.164062 -0.009734 150 153 155
0.070312 -0.164062 -0.009784 144 148 150
0.074219 -0.164062 -0.009760 146 149 152
0.078125 -0.164062 -0.009593 150 151 154
0.082031 -0.164062 -0.008981 145 147 150
0.085938 -0.164062 -0.008251 134 137 140
0.089844 -0.164062 -0.007451 128 132 135
0.093750 -0.164062 -0.006455 130 136 139
0.097656 -0.164062 -0.005180 140 145 147
0.101562 -0.164062 -0.003237 144 147 149
0.105469 -0.164062 -0.001023 137 139 142
0.109375 -0.164062 0.001419 122 125 129
0.113281 -0.164062 0.004507 121 124 129
0.117188 -0.164062 0.008355 140 142 146
0.121094 -0.164062 0.012812 147 151 153
0.125000 -0.164062 0.017775 130 135 139
0.128906 -0.164062 0.024001 120 122 128
0.132812 -0.164062 0.031494 136 139 139
0.136719 -0.164062 0.039380 174 174 168
0.140625 -0.164062 0.055659 185 172 171
-0.179688 -0.167969 -0.070083 184 183 191
-0.175781 -0.167969 -0.092413 183 181 177
-0.171875 -0.167969 -0.102474 167 164 164
-0.167969 -0.167969 -0.108787 172 169 169
-0.164062 -0.167969 -0.115175 174 170 168
-0.160156 -0.167969 -0.120725 169 165 164
-0.156250 -0.167969 -0.125932 164 162 161
-0.152344 -0.167969 -0.130178 169 168 168
-0.148438 -0.167969 -0.133559 162 163 163
-0.144531 -0.167969 -0.136959 157 158 159
-0.140625 -0.167969 -0.140198 160 160 160
-0.136719 -0.167969 -0.142916 160 160 161
-0.132812 -0.167969 -0.145142 152 154 155
-0.128906 -0.167969 -0.147215 141 143 145
-0.125000 -0.167969 -0.148998 142 144 145
-0.121094 -0.167969 -0.150390 138 141 141
-0.117188 -0.167969 -0.151416 129 134 134
-0.113281 -0.167969 -0.152248 134 138 139
-0.109375 -0.167969 -0.152856 142 145 145
-0.105469 -0.167969 -0.153183 139 142 142
-0.101562 -0.167969 -0.153260 116 120 123
-0.097656 -0.167969 -0.153129 102 109 112
-0.093750 -0.167969 -0.152811 101 108 110
-0.089844 -0.167969 -0.152315 93 100 102
-0.085938 -0.167969 -0.151542 94 101 102
-0.082031 -0.167969 -0.150687 90 98 98
-0.078125 -0.167969 -0.149639 70 78 79
-0.074219 -0.167969 -0.148278 61 69 71
-0.070312 -0.167969 -0.146849 60 66 70
-0.066406 -0.167969 -0.145232 66 71 74
-0.062500 -0.167969 -0.143432 83 87 88
-0.058594 -0.167969 -0.141394 84 88 88
-0.054688 -0.167969 -0.139088 64 65 70
-0.050781 -0.167969 -0.136247 54 53 58
-0.046875 -0.167969 -0.132467 86 82 83
-0.042969 -0.167969 -0.128610 95 93 93
-0.039062 -0.167969 -0.123695 48 49 55
-0.035156 -0.167969 -0.116446 45 46 51
-0.031250 -0.167969 -0.110572 97 97 95
-0.027344 -0.167969 -0.104225 159 155 151
-0.023438 -0.167969 -0.097310 173 169 165
-0.019531 -0.167969 -0.090308 168 163 160
-0.015625 -0.167969 -0.082132 176 170 167
-0.011719 -0.167969 -0.071915 184 178 174
-0.007812 -0.167969 -0.054685 185 180 176
-0.003906 -0.167969 0.020489 183 178 175
0.000000 -0.167969 0.015781 182 179 176
0.003906 -0.167969 0.010529 182 180 177
0.007812 -0.167969 0.006191 178 177 174
0.011719 -0.167969 0.003136 175 174 172
0.015625 -0.167969 0.000944 171 171 169
0.019531 -0.167969 -0.000171 168 168 167
0.023438 -0.167969 -0.001376 161 163 162
0.027344 -0.167969 -0.002678 158 159 160
0.031250 -0.167969 -0.003906 159 161 163
0.035156 -0.167969 -0.004765 160 161 164
0.039062 -0.167969 -0.005468 160 160 163
0.042969 -0.167969 -0.006097 162 162 165
0.046875 -0.167969 -0.006691 167 166 168
0.050781 -0.167969 -0.007253 167 167 169
0.054688 -0.167969 -0.007656 162 162 165
0.058594 -0.167969 -0.007988 159 161 163
0.062500 -0.167969 -0.008202 159 161 163
0.066406 -0.167969 -0.008358 152 154 157
0.070312 -0.167969 -0.008391 147 150 152
0.074219 -0.167969 -0.008317 150 152 154
0.078125 -0.167969 -0.008151 150 151 153
0.082031 -0.167969 -0.007566 141 143 145
0.085938 -0.167969 -0.006822 131 135 138
0.089844 -0.167969 -0.006057 132 136 139
0.093750 -0.167969 -0.005038 140 144 147
0.097656 -0.167969 -0.003637 146 148 150
0.101562 -0.167969 -0.001693 139 141 143
0.105469 -0.167969 0.000440 128 130 134
0.109375 -0.167969 0.002815 124 127 131
0.113281 -0.167969 0.005805 133 136 140
0.117188 -0.167969 0.009641 146 149 153
0.121094 -0.167969 0.014304 143 149 151
0.125000 -0.167969 0.019561 123 130 134
0.128906 -0.167969 0.025775 117 120 125
0.132812 -0.167969 0.032900 133 136 135
0.136719 -0.167969 0.041868 167 166 161
0.140625 -0.167969 0.060247 195 179 176
-0.175781 -0.171875 -0.087006 196 195 192
-0.171875 -0.171875 -0.101181 171 169 170
-0.167969 -0.171875 -0.108314 165 165 164
-0.164062 -0.171875 -0.114767 169 166 164
-0.160156 -0.171875 -0.120353 168 164 163
-0.156250 -0.171875 -0.125479 163 161 162
-0.152344 -0.171875 -0.129803 166 165 165
-0.148438 -0.171875 -0.133223 160 161 162
-0.144531 -0.171875 -0.136599 156 157 158
-0.140625 -0.171875 -0.139866 154 155 156
-0.136719 -0.171875 -0.142610 149 151 152
-0.132812 -0.171875 -0.144857 149 151 152
-0.128906 -0.171875 -0.146949 145 147 149
-0.125000 -0.171875 -0.148744 142 144 145
-0.121094 -0.171875 -0.150149 130 134 135
-0.117188 -0.171875 -0.151181 125 130 131
-0.113281 -0.171875 -0.152023 140 143 143
-0.109375 -0.171875 -0.152644 145 147 146
-0.105469 -0.171875 -0.152970 132 135 135
-0.101562 -0.171875 -0.153033 110 116 118
-0.097656 -0.171875 -0.152900 104 110 113
-0.093750 -0.171875 -0.152602 101 108 110
-0.089844 -0.171875 -0.152150 89 97 100
-0.085938 -0.171875 -0.151427 91 99 100
-0.082031 -0.171875 -0.150613 88 96 97
-0.078125 -0.171875 -0.149613 73 81 83
-0.074219 -0.171875 -0.148313 70 78 80
-0.070312 -0.171875 -0.146932 68 75 77
-0.066406 -0.171875 -0.145381 73 79 81
-0.062500 -0.171875 -0.143659 94 99 99
-0.058594 -0.171875 -0.141657 95 99 98
-0.054688 -0.171875 -0.139337 67 69 73
-0.050781 -0.171875 -0.136523 51 51 55
-0.046875 -0.171875 -0.132808 79 77 77
-0.042969 -0.171875 -0.128997 88 86 87
-0.039062 -0.171875 -0.123951 46 47 53
-0.035156 -0.171875 -0.116824 45 47 51
-0.031250 -0.171875 -0.110744 82 84 82
-0.027344 -0.171875 -0.104263 141 138 134
-0.023438 -0.171875 -0.097234 173 169 165
-0.019531 -0.171875 -0.090208 172 168 165
-0.015625 -0.171875 -0.081744 175 170 167
-0.011719 -0.171875 -0.071376 183 177 173
-0.007812 -0.171875 -0.052437 184 178 175
-0.003906 -0.171875 0.023097 183 178 175
0.000000 -0.171875 0.017156 182 178 176
0.003906 -0.171875 0.012036 181 178 175
0.007812 -0.171875 0.007603 178 176 173
0.011719 -0.171875 0.004555 174 173 170
0.015625 -0.171875 0.002375 172 171 169
0.019531 -0.171875 0.001281 169 170 169
0.023438 -0.171875 0.000109 163 165 165
0.027344 -0.171875 -0.001136 159 162 162
0.031250 -0.171875 -0.002303 161 163 165
0.035156 -0.171875 -0.003166 163 165 168
0.039062 -0.171875 -0.003893 163 164 167
0.042969 -0.171875 -0.004563 161 161 164
0.046875 -0.171875 -0.005198 165 164 167
0.050781 -0.171875 -0.005815 169 168 170
0.054688 -0.171875 -0.006265 165 166 168
0.058594 -0.171875 -0.006629 160 162 164
0.062500 -0.171875 -0.006878 158 160 162
0.066406 -0.171875 -0.007047 152 154 157
0.070312 -0.171875 -0.007073 146 149 152
0.074219 -0.171875 -0.006944 149 151 153
0.078125 -0.171875 -0.006770 147 148 150
0.082031 -0.171875 -0.006222 138 141 143
0.085938 -0.171875 -0.005424 138 142 144
0.089844 -0.171875 -0.004627 145 148 150
0.093750 -0.171875 -0.003608 144 146 149
0.097656 -0.171875 -0.002107 135 137 141
0.101562 -0.171875 -0.000143 123 125 129
0.105469 -0.171875 0.001881 116 119 123
0.109375 -0.171875 0.004169 125 129 132
0.113281 -0.171875 0.007091 142 146 148
0.117188 -0.171875 0.010986 148 152 154
0.121094 -0.171875 0.015701 140 147 148
0.125000 -0.171875 0.021038 123 131 135
0.128906 -0.171875 0.027828 121 124 128
0.132812 -0.171875 0.034209 138 139 137
0.136719 -0.171875 0.047049 173 168 162
0.140625 -0.171875 0.050451 199 182 178
-0.175781 -0.175781 -0.088250 180 178 176
-0.171875 -0.175781 -0.101242 175 175 174
-0.167969 -0.175781 -0.107868 163 164 162
-0.164062 -0.175781 -0.114099 167 166 164
-0.160156 -0.175781 -0.119966 171 168 167
-0.156250 -0.175781 -0.124930 167 165 165
-0.152344 -0.175781 -0.129260 165 164 165
-0.148438 -0.175781 -0.132761 160 161 162
-0.144531 -0.175781 -0.136197 156 158 159
-0.140625 -0.175781 -0.139519 150 152 153
-0.136719 -0.175781 -0.142280 145 147 148
-0.132812 -0.175781 -0.144544 151 151 152
-0.128906 -0.175781 -0.146679 149 151 152
-0.125000 -0.175781 -0.148508 142 145 146
-0.121094 -0.175781 -0.149916 130 134 136
-0.117188 -0.175781 -0.150952 130 135 136
-0.113281 -0.175781 -0.151825 145 147 147
-0.109375 -0.175781 -0.152461 138 141 140
-0.105469 -0.175781 -0.152793 120 124 125
-0.101562 -0.175781 -0.152854 106 112 115
-0.097656 -0.175781 -0.152725 101 108 111
-0.093750 -0.175781 -0.152460 99 108 110
-0.089844 -0.175781 -0.152042 94 104 106
-0.085938 -0.175781 -0.151385 97 104 106
-0.082031 -0.175781 -0.150614 92 99 100
-0.078125 -0.175781 -0.149626 81 88 91
-0.074219 -0.175781 -0.148397 77 85 86
-0.070312 -0.175781 -0.147083 65 73 75
-0.066406 -0.175781 -0.145593 66 74 77
-0.062500 -0.175781 -0.143955 89 96 96
-0.058594 -0.175781 -0.142009 94 97 97
-0.054688 -0.175781 -0.139689 69 71 74
-0.050781 -0.175781 -0.136874 53 53 58
-0.046875 -0.175781 -0.133210 82 81 81
-0.042969 -0.175781 -0.129465 89 88 89
-0.039062 -0.175781 -0.124373 49 51 56
-0.035156 -0.175781 -0.117314 51 54 56
-0.031250 -0.175781 -0.110972 74 78 76
-0.027344 -0.175781 -0.104386 117 117 114
-0.023438 -0.175781 -0.097353 168 165 160
-0.019531 -0.175781 -0.090205 179 175 171
-0.015625 -0.175781 -0.081424 181 176 173
-0.011719 -0.175781 -0.070916 185 179 176
-0.007812 -0.175781 -0.049871 186 180 176
-0.003906 -0.175781 0.025527 187 181 178
0.000000 -0.175781 0.018348 186 182 179
0.003906 -0.175781 0.013395 184 180 177
0.007812 -0.175781 0.008913 180 177 174
0.011719 -0.175781 0.005879 174 171 168
0.015625 -0.175781 0.003698 170 169 167
0.019531 -0.175781 0.002642 172 172 170
0.023438 -0.175781 0.001541 168 170 169
0.027344 -0.175781 0.000362 162 164 165
0.031250 -0.175781 -0.000751 160 163 165
0.035156 -0.175781 -0.001600 166 167 170
0.039062 -0.175781 -0.002354 169 169 171
0.042969 -0.175781 -0.003081 166 166 169
0.046875 -0.175781 -0.003770 168 168 170
0.050781 -0.175781 -0.004437 172 172 173
0.054688 -0.175781 -0.004928 168 169 171
0.058594 -0.175781 -0.005338 161 163 165
0.062500 -0.175781 -0.005617 157 159 161
0.066406 -0.175781 -0.005772 152 155 157
0.070312 -0.175781 -0.005785 146 150 152
0.074219 -0.175781 -0.005609 147 149 152
0.078125 -0.175781 -0.005425 143 146 148
0.082031 -0.175781 -0.004948 140 143 145
0.085938 -0.175781 -0.004107 151 153 156
0.089844 -0.175781 -0.003205 157 159 161
0.093750 -0.175781 -0.002157 141 143 146
0.097656 -0.175781 -0.000602 122 125 128
0.101562 -0.175781 0.001350 109 113 116
0.105469 -0.175781 0.003235 109 113 117
0.109375 -0.175781 0.005517 129 133 136
0.113281 -0.175781 0.008475 144 148 150
0.117188 -0.175781 0.012411 138 144 146
0.121094 -0.175781 0.016841 131 139 141
0.125000 -0.175781 0.021965 125 132 136
0.128906 -0.175781 0.028778 120 123 127
0.132812 -0.175781 0.034067 138 139 137
0.136719 -0.175781 0.049708 187 182 176
0.140625 -0.175781 0.016518 185 172 171
-0.175781 -0.179688 -0.083500 179 179 174
-0.171875 -0.179688 -0.100005 181 182 180
-0.167969 -0.179688 -0.107074 166 168 165
-0.164062 -0.179688 -0.113708 168 167 165
-0.160156 -0.179688 -0.119355 169 166 166
-0.156250 -0.179688 -0.124376 166 164 164
-0.152344 -0.179688 -0.128771 164 163 163
-0.148438 -0.179688 -0.132316 161 162 162
-0.144531 -0.179688 -0.135832 156 158 158
-0.140625 -0.179688 -0.139212 149 151 152
-0.136719 -0.179688 -0.142000 146 147 149
-0.132812 -0.179688 -0.144276 148 149 149
-0.128906 -0.179688 -0.146431 145 147 148
-0.125000 -0.179688 -0.148274 142 145 146
-0.121094 -0.179688 -0.149720 139 142 143
-0.117188 -0.179688 -0.150782 141 144 144
-0.113281 -0.179688 -0.151647 143 146 144
-0.109375 -0.179688 -0.152300 127 131 131
-0.105469 -0.179688 -0.152665 115 121 122
