ply
    format ascii 1.0
    element vertex 80070
    property float x
    property float y
    property float z
    property uchar red
    property uchar green
    property uchar blue
    end_header
0.171875 0.179688 -0.103359 171 178 196
0.175781 0.179688 -0.101452 151 158 176
0.179688 0.179688 -0.099744 120 125 143
0.183594 0.179688 -0.097947 184 183 188
0.187500 0.179688 -0.096585 155 154 159
0.191406 0.179688 -0.095349 143 142 145
0.195312 0.179688 -0.094238 159 159 161
0.199219 0.179688 -0.092334 168 168 169
0.203125 0.179688 -0.090663 161 161 161
0.207031 0.179688 -0.090684 159 159 160
0.210938 0.179688 -0.098511 155 154 154
0.214844 0.179688 -0.117902 150 149 148
0.218750 0.179688 -0.125307 144 143 140
0.222656 0.179688 -0.128903 127 128 122
0.226562 0.179688 -0.131400 110 105 99
0.230469 0.179688 -0.132836 80 70 65
0.234375 0.179688 -0.134295 74 59 56
0.238281 0.179688 -0.134005 88 70 68
0.242188 0.179688 -0.132519 99 81 79
0.246094 0.179688 -0.130912 131 119 119
0.250000 0.179688 -0.128277 121 109 111
0.253906 0.179688 -0.125054 126 115 121
0.257812 0.179688 -0.120155 109 99 108
0.261719 0.179688 -0.115619 100 92 107
0.265625 0.179688 -0.111256 142 138 155
0.269531 0.179688 -0.106311 151 147 170
0.273438 0.179688 -0.100360 105 103 127
0.277344 0.179688 -0.099122 115 109 138
-0.222656 0.175781 -0.004863 68 65 68
-0.218750 0.175781 -0.010250 98 98 108
-0.214844 0.175781 -0.015891 123 126 140
-0.210938 0.175781 -0.020804 144 147 164
-0.207031 0.175781 -0.024594 155 156 174
-0.203125 0.175781 -0.027598 157 154 171
-0.199219 0.175781 -0.029208 147 143 158
-0.195312 0.175781 -0.030095 156 150 164
-0.191406 0.175781 -0.030955 153 153 177
-0.187500 0.175781 -0.031602 183 183 207
-0.183594 0.175781 -0.031623 183 184 204
-0.179688 0.175781 -0.031052 77 78 96
-0.175781 0.175781 -0.030875 77 79 92
-0.171875 0.175781 -0.030357 143 146 153
-0.167969 0.175781 -0.029030 75 76 81
-0.164062 0.175781 -0.027225 81 82 84
-0.160156 0.175781 -0.023370 123 124 123
-0.156250 0.175781 -0.018451 94 95 93
-0.152344 0.175781 -0.017834 91 92 90
-0.148438 0.175781 -0.030859 90 91 88
-0.144531 0.175781 -0.041948 90 90 89
-0.140625 0.175781 -0.050426 93 93 91
-0.136719 0.175781 -0.057671 102 102 100
-0.132812 0.175781 -0.062739 106 106 105
-0.128906 0.175781 -0.067792 101 104 101
-0.125000 0.175781 -0.072104 79 85 79
-0.121094 0.175781 -0.075742 77 87 77
-0.117188 0.175781 -0.079092 152 164 150
-0.113281 0.175781 -0.081970 139 132 132
-0.109375 0.175781 -0.084963 81 70 73
-0.105469 0.175781 -0.087461 80 68 72
-0.101562 0.175781 -0.089569 82 67 72
-0.097656 0.175781 -0.091767 89 76 83
-0.093750 0.175781 -0.093869 102 91 99
-0.089844 0.175781 -0.096107 122 115 123
-0.085938 0.175781 -0.098410 93 87 97
-0.082031 0.175781 -0.100887 90 88 99
-0.078125 0.175781 -0.103305 149 151 164
-0.074219 0.175781 -0.105421 147 153 165
-0.070312 0.175781 -0.107347 145 151 165
-0.066406 0.175781 -0.109150 161 169 190
-0.062500 0.175781 -0.110879 154 162 185
-0.058594 0.175781 -0.112548 145 153 176
-0.054688 0.175781 -0.114111 145 152 178
-0.050781 0.175781 -0.115547 156 163 189
-0.046875 0.175781 -0.116801 167 174 202
-0.042969 0.175781 -0.117988 169 176 204
-0.039062 0.175781 -0.119065 167 173 202
-0.035156 0.175781 -0.120056 164 171 199
-0.031250 0.175781 -0.120969 156 163 191
-0.027344 0.175781 -0.121766 144 151 177
-0.023438 0.175781 -0.122522 158 166 189
-0.019531 0.175781 -0.123240 151 159 180
-0.015625 0.175781 -0.123898 130 138 159
-0.011719 0.175781 -0.124477 143 151 170
-0.007812 0.175781 -0.124973 158 166 185
-0.003906 0.175781 -0.125380 160 171 193
0.000000 0.175781 -0.125724 156 167 189
0.003906 0.175781 -0.125999 155 165 190
0.007812 0.175781 -0.126230 158 168 193
0.011719 0.175781 -0.126448 160 170 195
0.015625 0.175781 -0.126682 160 170 195
0.019531 0.175781 -0.126905 163 173 198
0.023438 0.175781 -0.127120 167 177 204
0.027344 0.175781 -0.127415 155 165 192
0.031250 0.175781 -0.127726 137 147 174
0.035156 0.175781 -0.128085 111 120 149
0.039062 0.175781 -0.128433 115 124 153
0.042969 0.175781 -0.128763 150 159 188
0.046875 0.175781 -0.129044 170 179 208
0.050781 0.175781 -0.129281 160 169 198
0.054688 0.175781 -0.129504 148 157 186
0.058594 0.175781 -0.129664 153 162 193
0.062500 0.175781 -0.129804 161 170 201
0.066406 0.175781 -0.129986 164 173 204
0.070312 0.175781 -0.130222 160 169 200
0.074219 0.175781 -0.130467 163 172 203
0.078125 0.175781 -0.130679 167 176 205
0.082031 0.175781 -0.130867 158 167 196
0.085938 0.175781 -0.131043 143 152 181
0.089844 0.175781 -0.131116 138 147 176
0.093750 0.175781 -0.131074 168 177 206
0.097656 0.175781 -0.130844 166 175 204
0.101562 0.175781 -0.130437 146 155 184
0.105469 0.175781 -0.129843 151 161 188
0.109375 0.175781 -0.129126 162 172 199
0.113281 0.175781 -0.128327 160 170 197
0.117188 0.175781 -0.127427 162 172 199
0.121094 0.175781 -0.126458 164 175 197
0.125000 0.175781 -0.125384 159 170 192
0.128906 0.175781 -0.124114 162 173 195
0.132812 0.175781 -0.122688 148 159 179
0.136719 0.175781 -0.121119 148 159 179
0.140625 0.175781 -0.119476 158 169 189
0.144531 0.175781 -0.117739 151 159 180
0.148438 0.175781 -0.115918 154 162 181
0.152344 0.175781 -0.114014 162 170 189
0.156250 0.175781 -0.112079 155 162 181
0.160156 0.175781 -0.110115 143 150 169
0.164062 0.175781 -0.108106 154 161 179
0.167969 0.175781 -0.106189 145 152 170
0.171875 0.175781 -0.104283 165 172 190
0.175781 0.175781 -0.102431 167 172 190
0.179688 0.175781 -0.100837 109 113 132
0.183594 0.175781 -0.099066 180 179 183
0.187500 0.175781 -0.097650 145 144 146
0.191406 0.175781 -0.096350 135 135 137
0.195312 0.175781 -0.095162 154 155 157
0.199219 0.175781 -0.093231 165 165 167
0.203125 0.175781 -0.091499 159 159 159
0.207031 0.175781 -0.091410 158 157 158
0.210938 0.175781 -0.100282 155 154 154
0.214844 0.175781 -0.117765 152 150 150
0.218750 0.175781 -0.125123 144 144 142
0.222656 0.175781 -0.128568 130 130 125
0.226562 0.175781 -0.130951 133 128 123
0.230469 0.175781 -0.132294 124 114 109
0.234375 0.175781 -0.133657 87 72 69
0.238281 0.175781 -0.133304 84 66 64
0.242188 0.175781 -0.131903 100 82 80
0.246094 0.175781 -0.130296 95 84 82
0.250000 0.175781 -0.127561 84 72 72
0.253906 0.175781 -0.124416 102 92 93
0.257812 0.175781 -0.119597 87 77 85
0.261719 0.175781 -0.114993 108 100 111
0.265625 0.175781 -0.110362 162 158 172
0.269531 0.175781 -0.105231 148 145 162
0.273438 0.175781 -0.099741 123 121 142
0.277344 0.175781 -0.096585 102 97 120
-0.222656 0.171875 -0.002971 57 55 58
-0.218750 0.171875 -0.009296 98 97 107
-0.214844 0.171875 -0.015374 118 120 133
-0.210938 0.171875 -0.020439 132 135 152
-0.207031 0.171875 -0.024480 149 150 168
-0.203125 0.171875 -0.027691 156 155 171
-0.199219 0.171875 -0.029533 154 150 165
-0.195312 0.171875 -0.030656 161 155 169
-0.191406 0.171875 -0.031720 159 161 184
-0.187500 0.171875 -0.032557 127 129 150
-0.183594 0.171875 -0.032712 162 163 183
-0.179688 0.171875 -0.032252 111 112 130
-0.175781 0.171875 -0.032160 59 61 74
-0.171875 0.171875 -0.031717 92 95 104
-0.167969 0.171875 -0.030473 93 94 99
-0.164062 0.171875 -0.028793 85 86 88
-0.160156 0.171875 -0.024962 109 110 109
-0.156250 0.171875 -0.020319 92 93 91
-0.152344 0.171875 -0.020629 97 97 96
-0.148438 0.171875 -0.033664 96 96 95
-0.144531 0.171875 -0.044406 93 94 93
-0.140625 0.171875 -0.052336 94 94 93
-0.136719 0.171875 -0.059170 101 101 100
-0.132812 0.171875 -0.063807 105 105 103
-0.128906 0.171875 -0.068555 98 101 99
-0.125000 0.171875 -0.072603 85 91 85
-0.121094 0.171875 -0.076062 80 90 80
-0.117188 0.171875 -0.079282 154 164 151
-0.113281 0.171875 -0.082034 162 157 156
-0.109375 0.171875 -0.084939 91 80 83
-0.105469 0.171875 -0.087352 66 54 58
-0.101562 0.171875 -0.089441 90 75 80
-0.097656 0.171875 -0.091571 82 69 76
-0.093750 0.171875 -0.093635 98 87 95
-0.089844 0.171875 -0.095831 125 115 124
-0.085938 0.171875 -0.098083 107 101 111
-0.082031 0.171875 -0.100544 73 71 82
-0.078125 0.171875 -0.102961 125 127 139
-0.074219 0.171875 -0.105115 140 144 156
-0.070312 0.171875 -0.107072 157 163 177
-0.066406 0.171875 -0.108914 176 184 205
-0.062500 0.171875 -0.110694 163 171 192
-0.058594 0.171875 -0.112423 148 156 179
-0.054688 0.171875 -0.114051 141 149 172
-0.050781 0.171875 -0.115549 152 159 185
-0.046875 0.171875 -0.116867 171 178 206
-0.042969 0.171875 -0.118109 164 171 198
-0.039062 0.171875 -0.119244 137 144 172
-0.035156 0.171875 -0.120294 163 170 198
-0.031250 0.171875 -0.121263 161 168 196
-0.027344 0.171875 -0.122110 148 155 181
-0.023438 0.171875 -0.122914 156 163 189
-0.019531 0.171875 -0.123688 159 167 190
-0.015625 0.171875 -0.124395 155 163 184
-0.011719 0.171875 -0.125007 169 177 196
-0.007812 0.171875 -0.125534 169 177 196
-0.003906 0.171875 -0.125972 151 162 184
0.000000 0.171875 -0.126339 150 161 183
0.003906 0.171875 -0.126631 152 163 185
0.007812 0.171875 -0.126872 157 168 190
0.011719 0.171875 -0.127094 162 172 197
0.015625 0.171875 -0.127328 161 171 196
0.019531 0.171875 -0.127547 157 167 192
0.023438 0.171875 -0.127752 153 163 190
0.027344 0.171875 -0.128029 156 166 193
0.031250 0.171875 -0.128329 136 146 173
0.035156 0.171875 -0.128688 109 119 146
0.039062 0.171875 -0.129034 114 123 152
0.042969 0.171875 -0.129370 149 158 187
0.046875 0.171875 -0.129657 168 177 206
0.050781 0.171875 -0.129902 157 166 195
0.054688 0.171875 -0.130133 147 156 185
0.058594 0.171875 -0.130300 151 160 189
0.062500 0.171875 -0.130442 158 167 196
0.066406 0.171875 -0.130617 162 171 200
0.070312 0.171875 -0.130831 159 168 197
0.074219 0.171875 -0.131038 157 167 194
0.078125 0.171875 -0.131214 160 170 197
0.082031 0.171875 -0.131373 164 174 201
0.085938 0.171875 -0.131517 165 175 202
0.089844 0.171875 -0.131561 153 163 190
0.093750 0.171875 -0.131494 170 180 207
0.097656 0.171875 -0.131256 151 161 188
0.101562 0.171875 -0.130845 141 151 178
0.105469 0.171875 -0.130251 169 179 206
0.109375 0.171875 -0.129544 173 183 210
0.113281 0.171875 -0.128763 143 153 180
0.117188 0.171875 -0.127881 129 139 166
0.121094 0.171875 -0.126934 163 174 196
0.125000 0.171875 -0.125892 147 158 180
0.128906 0.171875 -0.124654 151 162 184
0.132812 0.171875 -0.123262 146 157 177
0.136719 0.171875 -0.121728 146 157 177
0.140625 0.171875 -0.120129 159 167 188
0.144531 0.171875 -0.118428 154 162 183
0.148438 0.171875 -0.116657 156 164 183
0.152344 0.171875 -0.114814 148 156 175
0.156250 0.171875 -0.112926 156 163 182
0.160156 0.171875 -0.111017 150 157 176
0.164062 0.171875 -0.109067 153 160 178
0.167969 0.171875 -0.107214 125 130 149
0.171875 0.171875 -0.105356 141 146 165
0.175781 0.171875 -0.103543 131 136 155
0.179688 0.171875 -0.101982 104 109 127
0.183594 0.171875 -0.100289 170 169 174
0.187500 0.171875 -0.098793 132 132 135
0.191406 0.171875 -0.097393 127 127 129
0.195312 0.171875 -0.096097 149 150 151
0.199219 0.171875 -0.094096 162 162 164
0.203125 0.171875 -0.092294 156 156 156
0.207031 0.171875 -0.092137 153 153 153
0.210938 0.171875 -0.101898 149 148 148
0.214844 0.171875 -0.117787 142 140 140
0.218750 0.171875 -0.125004 141 139 138
0.222656 0.171875 -0.128335 124 123 119
0.226562 0.171875 -0.130574 127 120 117
0.230469 0.171875 -0.131781 147 137 132
0.234375 0.171875 -0.133036 93 78 75
0.238281 0.171875 -0.132591 81 63 61
0.242188 0.171875 -0.131155 77 59 57
0.246094 0.171875 -0.129526 84 73 69
0.250000 0.171875 -0.126776 80 69 67
0.253906 0.171875 -0.123684 90 80 79
0.257812 0.171875 -0.118910 94 85 88
0.261719 0.171875 -0.114116 122 115 122
0.265625 0.171875 -0.109319 151 148 157
0.269531 0.171875 -0.104253 146 144 157
0.273438 0.171875 -0.099105 151 150 164
0.277344 0.171875 -0.092368 103 99 115
-0.222656 0.167969 -0.000892 50 47 50
-0.218750 0.167969 -0.008628 96 94 103
-0.214844 0.167969 -0.014813 112 114 127
-0.210938 0.167969 -0.019990 130 133 150
-0.207031 0.167969 -0.024305 141 142 160
-0.203125 0.167969 -0.027698 134 133 149
-0.199219 0.167969 -0.029765 146 144 158
-0.195312 0.167969 -0.031116 174 170 184
-0.191406 0.167969 -0.032369 151 153 176
-0.187500 0.167969 -0.033384 131 133 154
-0.183594 0.167969 -0.033698 126 129 148
-0.179688 0.167969 -0.033375 138 139 157
-0.175781 0.167969 -0.033369 63 65 78
-0.171875 0.167969 -0.033018 57 60 69
-0.167969 0.167969 -0.031896 117 120 127
-0.164062 0.167969 -0.030385 120 121 124
-0.160156 0.167969 -0.026618 102 103 104
-0.156250 0.167969 -0.022435 95 96 96
-0.152344 0.167969 -0.023537 102 104 102
-0.148438 0.167969 -0.036319 100 101 99
-0.144531 0.167969 -0.046694 96 96 95
-0.140625 0.167969 -0.054125 94 95 93
-0.136719 0.167969 -0.060621 99 99 98
-0.132812 0.167969 -0.064842 102 103 101
-0.128906 0.167969 -0.069261 95 98 96
-0.125000 0.167969 -0.073074 85 91 85
-0.121094 0.167969 -0.076340 81 90 81
-0.117188 0.167969 -0.079458 150 159 148
-0.113281 0.167969 -0.082118 169 165 164
-0.109375 0.167969 -0.084975 90 80 81
-0.105469 0.167969 -0.087328 69 57 59
-0.101562 0.167969 -0.089383 79 64 69
-0.097656 0.167969 -0.091476 99 87 91
-0.093750 0.167969 -0.093523 121 110 116
-0.089844 0.167969 -0.095700 144 134 142
-0.085938 0.167969 -0.097927 142 136 146
-0.082031 0.167969 -0.100372 76 74 85
-0.078125 0.167969 -0.102765 80 82 94
-0.074219 0.167969 -0.104919 122 126 138
-0.070312 0.167969 -0.106883 170 176 188
-0.066406 0.167969 -0.108746 166 174 195
-0.062500 0.167969 -0.110556 166 174 195
-0.058594 0.167969 -0.112336 164 172 193
-0.054688 0.167969 -0.114016 151 159 182
-0.050781 0.167969 -0.115566 149 156 182
-0.046875 0.167969 -0.116945 167 174 202
-0.042969 0.167969 -0.118239 163 170 198
-0.039062 0.167969 -0.119417 128 135 164
-0.035156 0.167969 -0.120509 150 157 186
-0.031250 0.167969 -0.121517 164 171 199
-0.027344 0.167969 -0.122402 154 161 189
-0.023438 0.167969 -0.123241 149 156 182
-0.019531 0.167969 -0.124057 149 157 180
-0.015625 0.167969 -0.124812 152 160 181
-0.011719 0.167969 -0.125459 159 167 188
-0.007812 0.167969 -0.126019 141 149 168
-0.003906 0.167969 -0.126480 151 162 184
0.000000 0.167969 -0.126860 145 156 178
0.003906 0.167969 -0.127162 140 151 173
0.007812 0.167969 -0.127405 142 153 175
0.011719 0.167969 -0.127633 151 162 184
0.015625 0.167969 -0.127872 158 168 193
0.019531 0.167969 -0.128091 156 166 191
0.023438 0.167969 -0.128299 152 162 187
0.027344 0.167969 -0.128578 158 168 195
0.031250 0.167969 -0.128880 151 161 188
0.035156 0.167969 -0.129247 137 147 174
0.039062 0.167969 -0.129608 141 150 179
0.042969 0.167969 -0.129962 161 170 199
0.046875 0.167969 -0.130267 165 174 203
0.050781 0.167969 -0.130532 155 164 193
0.054688 0.167969 -0.130780 152 161 190
0.058594 0.167969 -0.130952 145 155 180
0.062500 0.167969 -0.131093 152 162 187
0.066406 0.167969 -0.131261 160 170 195
0.070312 0.167969 -0.131462 162 172 197
0.074219 0.167969 -0.131637 155 165 190
0.078125 0.167969 -0.131789 149 159 184
0.082031 0.167969 -0.131925 154 164 189
0.085938 0.167969 -0.132044 163 173 198
0.089844 0.167969 -0.132071 155 165 190
0.093750 0.167969 -0.131997 160 170 195
0.097656 0.167969 -0.131760 142 152 177
0.101562 0.167969 -0.131354 145 155 180
0.105469 0.167969 -0.130774 177 187 212
0.109375 0.167969 -0.130093 169 179 204
0.113281 0.167969 -0.129341 133 143 168
0.117188 0.167969 -0.128478 123 133 158
0.121094 0.167969 -0.127562 162 173 195
0.125000 0.167969 -0.126558 138 149 171
0.128906 0.167969 -0.125351 152 163 185
0.132812 0.167969 -0.123993 160 171 191
0.136719 0.167969 -0.122485 159 170 190
0.140625 0.167969 -0.120920 166 174 195
0.144531 0.167969 -0.119265 159 167 188
0.148438 0.167969 -0.117553 159 167 186
0.152344 0.167969 -0.115761 152 159 178
0.156250 0.167969 -0.113915 153 160 179
0.160156 0.167969 -0.112055 153 160 179
0.164062 0.167969 -0.110130 139 144 163
0.167969 0.167969 -0.108325 120 125 144
0.171875 0.167969 -0.106500 128 133 152
0.175781 0.167969 -0.104728 97 102 121
0.179688 0.167969 -0.103183 128 133 151
0.183594 0.167969 -0.101531 157 156 161
0.187500 0.167969 -0.100077 124 123 128
0.191406 0.167969 -0.098522 122 122 125
0.195312 0.167969 -0.097090 146 147 148
0.199219 0.167969 -0.094994 160 161 161
0.203125 0.167969 -0.093093 153 154 154
0.207031 0.167969 -0.092882 149 149 150
0.210938 0.167969 -0.103407 145 144 144
0.214844 0.167969 -0.117862 141 139 139
0.218750 0.167969 -0.124832 139 136 135
0.222656 0.167969 -0.128097 127 126 122
0.226562 0.167969 -0.130182 102 95 92
0.230469 0.167969 -0.131258 135 125 121
0.234375 0.167969 -0.132393 97 82 79
0.238281 0.167969 -0.131852 109 91 89
0.242188 0.167969 -0.130439 99 81 79
0.246094 0.167969 -0.128744 95 84 80
0.250000 0.167969 -0.125958 111 100 96
0.253906 0.167969 -0.122791 92 82 80
0.257812 0.167969 -0.118284 97 88 89
0.261719 0.167969 -0.113218 122 116 120
0.265625 0.167969 -0.108411 134 131 138
0.269531 0.167969 -0.103263 146 145 153
0.273438 0.167969 -0.098946 139 139 149
0.277344 0.167969 -0.091913 128 125 138
-0.222656 0.164062 0.000820 54 50 53
-0.218750 0.164062 -0.007988 101 99 107
-0.214844 0.164062 -0.014202 99 101 114
-0.210938 0.164062 -0.019510 128 131 147
-0.207031 0.164062 -0.024017 148 151 168
-0.203125 0.164062 -0.027604 123 124 142
-0.199219 0.164062 -0.029895 127 125 139
-0.195312 0.164062 -0.031468 154 150 165
-0.191406 0.164062 -0.032927 132 134 157
-0.187500 0.164062 -0.034140 179 181 202
-0.183594 0.164062 -0.034620 109 112 131
-0.179688 0.164062 -0.034438 133 136 153
-0.175781 0.164062 -0.034558 69 73 85
-0.171875 0.164062 -0.034317 74 76 88
-0.167969 0.164062 -0.033325 112 115 122
-0.164062 0.164062 -0.032004 144 147 151
-0.160156 0.164062 -0.028378 104 104 106
-0.156250 0.164062 -0.024604 99 100 100
-0.152344 0.164062 -0.026316 102 104 102
-0.148438 0.164062 -0.038827 98 99 97
-0.144531 0.164062 -0.048824 94 94 93
-0.140625 0.164062 -0.055830 92 93 91
-0.136719 0.164062 -0.062017 96 97 95
-0.132812 0.164062 -0.065847 99 100 98
-0.128906 0.164062 -0.069918 95 99 96
-0.125000 0.164062 -0.073531 79 85 80
-0.121094 0.164062 -0.076670 78 86 78
-0.117188 0.164062 -0.079718 134 145 134
-0.113281 0.164062 -0.082312 155 152 147
-0.109375 0.164062 -0.085125 87 78 78
-0.105469 0.164062 -0.087441 103 91 93
-0.101562 0.164062 -0.089446 71 56 59
-0.097656 0.164062 -0.091530 87 75 79
-0.093750 0.164062 -0.093558 133 122 128
-0.089844 0.164062 -0.095686 184 174 182
-0.085938 0.164062 -0.097870 192 187 194
-0.082031 0.164062 -0.100275 120 118 129
-0.078125 0.164062 -0.102605 75 75 87
-0.074219 0.164062 -0.104732 95 99 111
-0.070312 0.164062 -0.106694 146 150 162
-0.066406 0.164062 -0.108572 128 136 155
-0.062500 0.164062 -0.110402 141 149 168
-0.058594 0.164062 -0.112226 166 174 195
-0.054688 0.164062 -0.113958 164 172 195
-0.050781 0.164062 -0.115561 144 151 177
-0.046875 0.164062 -0.117003 150 157 185
-0.042969 0.164062 -0.118352 160 167 195
-0.039062 0.164062 -0.119580 144 151 180
-0.035156 0.164062 -0.120715 139 146 175
-0.031250 0.164062 -0.121762 163 170 198
-0.027344 0.164062 -0.122687 161 168 196
-0.023438 0.164062 -0.123552 156 163 189
-0.019531 0.164062 -0.124390 154 162 185
-0.015625 0.164062 -0.125173 154 162 185
-0.011719 0.164062 -0.125840 153 161 182
-0.007812 0.164062 -0.126415 127 135 156
-0.003906 0.164062 -0.126884 141 149 172
0.000000 0.164062 -0.127274 143 151 174
0.003906 0.164062 -0.127591 146 154 177
0.007812 0.164062 -0.127853 152 160 183
0.011719 0.164062 -0.128100 161 169 192
0.015625 0.164062 -0.128352 166 173 199
0.019531 0.164062 -0.128583 160 167 193
0.023438 0.164062 -0.128811 150 157 183
0.027344 0.164062 -0.129113 154 161 187
0.031250 0.164062 -0.129432 160 167 195
0.035156 0.164062 -0.129820 159 166 194
0.039062 0.164062 -0.130204 160 167 195
0.042969 0.164062 -0.130586 164 171 199
0.046875 0.164062 -0.130912 155 162 191
0.050781 0.164062 -0.131186 149 156 185
0.054688 0.164062 -0.131438 155 162 191
0.058594 0.164062 -0.131610 161 169 192
0.062500 0.164062 -0.131744 160 168 191
0.066406 0.164062 -0.131903 168 176 199
0.070312 0.164062 -0.132094 175 183 206
0.074219 0.164062 -0.132247 169 177 200
0.078125 0.164062 -0.132378 155 163 186
0.082031 0.164062 -0.132498 153 161 184
0.085938 0.164062 -0.132596 161 169 192
0.089844 0.164062 -0.132607 157 165 188
0.093750 0.164062 -0.132531 161 169 192
0.097656 0.164062 -0.132305 152 160 183
0.101562 0.164062 -0.131920 156 164 187
0.105469 0.164062 -0.131372 173 181 204
0.109375 0.164062 -0.130717 166 174 197
0.113281 0.164062 -0.129990 151 159 182
0.117188 0.164062 -0.129160 156 164 187
0.121094 0.164062 -0.128287 157 168 190
0.125000 0.164062 -0.127317 137 148 170
0.128906 0.164062 -0.126136 159 170 192
0.132812 0.164062 -0.124810 171 179 200
0.136719 0.164062 -0.123331 163 171 192
0.140625 0.164062 -0.121806 167 175 196
0.144531 0.164062 -0.120195 158 166 187
0.148438 0.164062 -0.118530 148 155 174
0.152344 0.164062 -0.116796 149 156 175
0.156250 0.164062 -0.115005 131 138 157
0.160156 0.164062 -0.113204 129 136 155
0.164062 0.164062 -0.111315 104 109 128
0.167969 0.164062 -0.109550 102 107 126
0.171875 0.164062 -0.107763 107 112 131
0.175781 0.164062 -0.106018 84 89 108
0.179688 0.164062 -0.104477 146 151 169
0.183594 0.164062 -0.102853 148 147 152
0.187500 0.164062 -0.101446 121 120 125
0.191406 0.164062 -0.099759 122 123 126
0.195312 0.164062 -0.098134 145 146 147
0.199219 0.164062 -0.095916 158 159 159
0.203125 0.164062 -0.093892 151 152 152
0.207031 0.164062 -0.093618 147 147 148
0.210938 0.164062 -0.104621 144 143 142
0.214844 0.164062 -0.117976 143 142 141
0.218750 0.164062 -0.124728 139 137 135
0.222656 0.164062 -0.127942 134 133 129
0.226562 0.164062 -0.129849 89 82 79
0.230469 0.164062 -0.130779 112 101 97
0.234375 0.164062 -0.131762 121 106 103
0.238281 0.164062 -0.131087 158 140 138
0.242188 0.164062 -0.129642 165 147 145
0.246094 0.164062 -0.127891 107 96 94
0.250000 0.164062 -0.125110 107 96 94
0.253906 0.164062 -0.121915 80 70 69
0.257812 0.164062 -0.117810 111 102 103
0.261719 0.164062 -0.112672 138 132 136
0.265625 0.164062 -0.108055 129 127 132
0.269531 0.164062 -0.102847 148 147 153
0.273438 0.164062 -0.098371 146 146 154
0.277344 0.164062 -0.093912 146 143 151
-0.222656 0.160156 0.002241 46 43 45
-0.218750 0.160156 -0.007308 115 113 121
-0.214844 0.160156 -0.013582 115 114 128
-0.210938 0.160156 -0.018984 125 128 145
-0.207031 0.160156 -0.023676 145 148 167
-0.203125 0.160156 -0.027460 131 132 150
-0.199219 0.160156 -0.029935 130 129 145
-0.195312 0.160156 -0.031711 135 133 147
-0.191406 0.160156 -0.033380 155 157 178
-0.187500 0.160156 -0.034806 140 142 163
-0.183594 0.160156 -0.035445 132 135 154
-0.179688 0.160156 -0.035396 111 114 131
-0.175781 0.160156 -0.035691 128 131 146
-0.171875 0.160156 -0.035605 57 61 73
-0.167969 0.160156 -0.034753 82 85 94
-0.164062 0.160156 -0.033645 148 150 156
-0.160156 0.160156 -0.030237 120 123 124
-0.156250 0.160156 -0.026757 107 107 108
-0.152344 0.160156 -0.028916 100 101 101
-0.148438 0.160156 -0.041126 95 96 95
-0.144531 0.160156 -0.050717 91 92 90
-0.140625 0.160156 -0.057366 89 90 88
-0.136719 0.160156 -0.063347 92 93 91
-0.132812 0.160156 -0.066842 94 95 93
-0.128906 0.160156 -0.070539 90 94 91
-0.125000 0.160156 -0.073934 74 80 75
-0.121094 0.160156 -0.076975 73 80 73
-0.117188 0.160156 -0.079974 116 125 116
-0.113281 0.160156 -0.082517 155 155 148
-0.109375 0.160156 -0.085294 108 100 99
-0.105469 0.160156 -0.087594 151 140 141
-0.101562 0.160156 -0.089577 114 102 104
-0.097656 0.160156 -0.091655 75 63 67
-0.093750 0.160156 -0.093706 123 110 117
-0.089844 0.160156 -0.095792 198 188 196
-0.085938 0.160156 -0.097933 190 183 191
-0.082031 0.160156 -0.100329 160 157 166
-0.078125 0.160156 -0.102623 119 119 131
-0.074219 0.160156 -0.104711 88 90 102
-0.070312 0.160156 -0.106635 108 112 124
-0.066406 0.160156 -0.108506 106 114 133
-0.062500 0.160156 -0.110343 104 112 131
-0.058594 0.160156 -0.112191 143 151 172
-0.054688 0.160156 -0.113963 171 179 200
-0.050781 0.160156 -0.115600 150 158 181
-0.046875 0.160156 -0.117068 139 146 172
-0.042969 0.160156 -0.118456 155 162 190
-0.039062 0.160156 -0.119731 160 167 196
-0.035156 0.160156 -0.120890 144 151 180
-0.031250 0.160156 -0.121950 157 164 192
-0.027344 0.160156 -0.122904 154 161 189
-0.023438 0.160156 -0.123795 161 168 194
-0.019531 0.160156 -0.124636 162 169 195
-0.015625 0.160156 -0.125428 155 163 186
-0.011719 0.160156 -0.126109 156 164 185
-0.007812 0.160156 -0.126684 140 148 169
-0.003906 0.160156 -0.127160 137 145 166
0.000000 0.160156 -0.127568 151 159 180
0.003906 0.160156 -0.127901 166 174 197
0.007812 0.160156 -0.128188 173 181 204
0.011719 0.160156 -0.128456 174 182 205
0.015625 0.160156 -0.128722 172 180 203
0.019531 0.160156 -0.128979 164 171 197
0.023438 0.160156 -0.129228 154 161 187
0.027344 0.160156 -0.129554 148 155 181
0.031250 0.160156 -0.129902 157 164 190
0.035156 0.160156 -0.130323 159 166 194
0.039062 0.160156 -0.130739 158 165 193
0.042969 0.160156 -0.131150 156 163 191
0.046875 0.160156 -0.131504 146 153 181
0.050781 0.160156 -0.131801 145 152 180
0.054688 0.160156 -0.132067 160 167 196
0.058594 0.160156 -0.132244 180 188 207
0.062500 0.160156 -0.132388 161 169 188
0.066406 0.160156 -0.132546 153 161 180
0.070312 0.160156 -0.132727 164 172 193
0.074219 0.160156 -0.132868 168 176 197
0.078125 0.160156 -0.132987 159 167 188
0.082031 0.160156 -0.133096 155 163 184
0.085938 0.160156 -0.133192 161 169 190
0.089844 0.160156 -0.133200 153 161 182
0.093750 0.160156 -0.133125 156 164 185
0.097656 0.160156 -0.132919 154 162 185
0.101562 0.160156 -0.132569 151 159 182
0.105469 0.160156 -0.132066 157 165 188
0.109375 0.160156 -0.131442 166 174 197
0.113281 0.160156 -0.130748 168 176 199
0.117188 0.160156 -0.129964 166 174 197
0.121094 0.160156 -0.129138 154 165 187
0.125000 0.160156 -0.128207 146 154 177
0.128906 0.160156 -0.127063 165 173 196
0.132812 0.160156 -0.125786 155 163 184
0.136719 0.160156 -0.124349 141 149 170
0.140625 0.160156 -0.122873 163 171 192
0.144531 0.160156 -0.121299 163 169 191
0.148438 0.160156 -0.119668 138 145 164
0.152344 0.160156 -0.117978 141 148 167
0.156250 0.160156 -0.116233 122 129 148
0.160156 0.160156 -0.114479 127 132 152
0.164062 0.160156 -0.112621 99 104 123
0.167969 0.160156 -0.110865 83 88 107
0.171875 0.160156 -0.109119 75 80 99
0.175781 0.160156 -0.107390 102 105 124
0.179688 0.160156 -0.105819 152 154 172
0.183594 0.160156 -0.104224 145 143 148
0.187500 0.160156 -0.102833 122 121 126
0.191406 0.160156 -0.101126 123 125 127
0.195312 0.160156 -0.099212 144 145 146
0.199219 0.160156 -0.096864 156 157 157
0.203125 0.160156 -0.094693 150 151 150
0.207031 0.160156 -0.094460 146 146 147
0.210938 0.160156 -0.105625 144 144 143
0.214844 0.160156 -0.118035 140 139 138
0.218750 0.160156 -0.124487 134 132 130
0.222656 0.160156 -0.127657 131 130 126
0.226562 0.160156 -0.129424 92 86 82
0.230469 0.160156 -0.130231 89 79 74
0.234375 0.160156 -0.131057 137 122 119
0.238281 0.160156 -0.130244 147 129 127
0.242188 0.160156 -0.128743 156 138 136
0.246094 0.160156 -0.126879 119 107 109
0.250000 0.160156 -0.124091 112 100 102
0.253906 0.160156 -0.120989 115 104 108
0.257812 0.160156 -0.116996 139 130 135
0.261719 0.160156 -0.111769 147 140 147
0.265625 0.160156 -0.107280 139 136 143
0.269531 0.160156 -0.102257 145 144 150
0.273438 0.160156 -0.096562 154 154 162
0.277344 0.160156 -0.093885 136 135 142
-0.222656 0.156250 0.003103 28 25 27
-0.218750 0.156250 -0.006609 124 120 128
-0.214844 0.156250 -0.012847 150 149 162
-0.210938 0.156250 -0.018408 128 131 147
-0.207031 0.156250 -0.023285 123 126 145
-0.203125 0.156250 -0.027239 131 134 151
-0.199219 0.156250 -0.029888 154 156 171
-0.195312 0.156250 -0.031856 156 155 169
-0.191406 0.156250 -0.033730 143 148 168
-0.187500 0.156250 -0.035359 126 131 151
-0.183594 0.156250 -0.036178 162 165 184
-0.179688 0.156250 -0.036283 117 120 137
-0.175781 0.156250 -0.036747 97 100 115
-0.171875 0.156250 -0.036833 107 111 123
-0.167969 0.156250 -0.036182 70 74 85
-0.164062 0.156250 -0.035327 108 111 119
-0.160156 0.156250 -0.032183 146 148 151
-0.156250 0.156250 -0.029025 115 116 116
-0.152344 0.156250 -0.031500 98 100 100
-0.148438 0.156250 -0.043218 94 95 94
-0.144531 0.156250 -0.052418 90 91 90
-0.140625 0.156250 -0.058764 88 89 88
-0.136719 0.156250 -0.064564 90 92 90
-0.132812 0.156250 -0.067783 92 94 91
-0.128906 0.156250 -0.071172 87 91 88
-0.125000 0.156250 -0.074387 78 83 78
-0.121094 0.156250 -0.077306 74 81 74
-0.117188 0.156250 -0.080243 100 108 99
-0.113281 0.156250 -0.082780 160 164 156
-0.109375 0.156250 -0.085550 134 128 125
-0.105469 0.156250 -0.087842 183 172 174
-0.101562 0.156250 -0.089831 178 167 168
-0.097656 0.156250 -0.091894 90 78 82
-0.093750 0.156250 -0.093941 109 97 101
-0.089844 0.156250 -0.096010 179 169 177
-0.085938 0.156250 -0.098103 139 132 140
-0.082031 0.156250 -0.100427 159 156 165
-0.078125 0.156250 -0.102665 166 164 175
-0.074219 0.156250 -0.104712 101 103 115
-0.070312 0.156250 -0.106589 100 102 115
-0.066406 0.156250 -0.108447 114 123 140
-0.062500 0.156250 -0.110283 85 94 111
-0.058594 0.156250 -0.112150 121 129 148
-0.054688 0.156250 -0.113948 176 184 205
-0.050781 0.156250 -0.115615 166 174 197
-0.046875 0.156250 -0.117116 143 150 176
-0.042969 0.156250 -0.118538 153 160 188
-0.039062 0.156250 -0.119845 165 172 200
-0.035156 0.156250 -0.121030 156 163 192
-0.031250 0.156250 -0.122115 150 157 186
-0.027344 0.156250 -0.123087 137 144 172
-0.023438 0.156250 -0.123990 151 158 186
-0.019531 0.156250 -0.124838 153 160 186
-0.015625 0.156250 -0.125637 139 147 170
-0.011719 0.156250 -0.126326 145 153 176
-0.007812 0.156250 -0.126909 143 151 174
-0.003906 0.156250 -0.127390 157 165 186
0.000000 0.156250 -0.127811 171 179 200
0.003906 0.156250 -0.128162 180 188 209
0.007812 0.156250 -0.128475 175 183 204
0.011719 0.156250 -0.128768 168 176 199
0.015625 0.156250 -0.129066 169 177 200
0.019531 0.156250 -0.129365 172 180 203
0.023438 0.156250 -0.129648 173 180 206
0.027344 0.156250 -0.130011 151 158 184
0.031250 0.156250 -0.130400 157 164 190
0.035156 0.156250 -0.130862 155 162 188
0.039062 0.156250 -0.131311 154 161 189
0.042969 0.156250 -0.131751 153 160 188
0.046875 0.156250 -0.132132 147 154 182
0.050781 0.156250 -0.132454 151 158 186
0.054688 0.156250 -0.132738 171 178 206
0.058594 0.156250 -0.132916 183 192 209
0.062500 0.156250 -0.133061 145 154 171
0.066406 0.156250 -0.133215 120 129 146
0.070312 0.156250 -0.133385 130 138 157
0.074219 0.156250 -0.133519 145 153 172
0.078125 0.156250 -0.133631 147 155 174
0.082031 0.156250 -0.133734 149 157 176
0.085938 0.156250 -0.133838 157 165 184
0.089844 0.156250 -0.133858 143 151 172
0.093750 0.156250 -0.133797 143 151 172
0.097656 0.156250 -0.133613 140 148 169
0.101562 0.156250 -0.133295 133 141 162
0.105469 0.156250 -0.132835 140 148 171
0.109375 0.156250 -0.132257 165 173 196
0.113281 0.156250 -0.131620 168 176 199
0.117188 0.156250 -0.130877 144 152 175
0.121094 0.156250 -0.130090 161 169 192
0.125000 0.156250 -0.129205 157 165 188
0.128906 0.156250 -0.128099 168 176 199
0.132812 0.156250 -0.126863 135 143 164
0.136719 0.156250 -0.125467 117 125 146
0.140625 0.156250 -0.124041 163 169 191
0.144531 0.156250 -0.122512 174 180 202
0.148438 0.156250 -0.120922 142 149 168
0.152344 0.156250 -0.119288 146 153 172
0.156250 0.156250 -0.117585 142 147 167
0.160156 0.156250 -0.115864 159 164 184
0.164062 0.156250 -0.114050 133 138 157
0.167969 0.156250 -0.112304 87 90 109
0.171875 0.156250 -0.110550 61 64 83
0.175781 0.156250 -0.108855 136 139 157
0.179688 0.156250 -0.107268 159 162 179
0.183594 0.156250 -0.105689 138 137 142
0.187500 0.156250 -0.104282 118 118 122
0.191406 0.156250 -0.102549 121 122 124
0.195312 0.156250 -0.100372 140 142 143
0.199219 0.156250 -0.097813 152 153 154
0.203125 0.156250 -0.095457 147 147 147
0.207031 0.156250 -0.095256 145 145 146
0.210938 0.156250 -0.106171 146 145 145
0.214844 0.156250 -0.117959 147 146 146
0.218750 0.156250 -0.124200 140 138 136
0.222656 0.156250 -0.127293 135 135 130
0.226562 0.156250 -0.128913 114 109 105
0.230469 0.156250 -0.129608 91 81 77
0.234375 0.156250 -0.130287 152 137 134
0.238281 0.156250 -0.129365 105 87 85
0.242188 0.156250 -0.127867 98 80 78
0.246094 0.156250 -0.125922 133 120 129
0.250000 0.156250 -0.123069 164 151 160
0.253906 0.156250 -0.120102 198 187 195
0.257812 0.156250 -0.116112 155 145 154
0.261719 0.156250 -0.110948 128 120 131
0.265625 0.156250 -0.106585 153 150 159
0.269531 0.156250 -0.101734 141 139 150
0.273438 0.156250 -0.096519 124 124 134
0.277344 0.156250 -0.094785 122 121 132
-0.222656 0.152344 0.003652 23 19 22
-0.218750 0.152344 -0.005688 99 94 102
-0.214844 0.152344 -0.012036 133 132 145
-0.210938 0.152344 -0.017720 172 175 193
-0.207031 0.152344 -0.022713 127 130 149
-0.203125 0.152344 -0.026869 103 106 123
-0.199219 0.152344 -0.029724 136 138 153
-0.195312 0.152344 -0.031882 160 162 175
-0.191406 0.152344 -0.033972 181 186 206
-0.187500 0.152344 -0.035814 157 162 181
-0.183594 0.152344 -0.036838 136 141 160
-0.179688 0.152344 -0.037102 125 130 149
-0.175781 0.152344 -0.037726 147 150 167
-0.171875 0.152344 -0.038023 152 155 170
-0.167969 0.152344 -0.037622 97 101 113
-0.164062 0.152344 -0.037122 92 96 106
-0.160156 0.152344 -0.034350 147 150 155
-0.156250 0.152344 -0.031490 118 120 121
-0.152344 0.152344 -0.034365 98 101 100
-0.148438 0.152344 -0.045587 94 95 95
-0.144531 0.152344 -0.054145 92 93 92
-0.140625 0.152344 -0.060119 89 91 89
-0.136719 0.152344 -0.065813 92 93 91
-0.132812 0.152344 -0.068784 92 94 91
-0.128906 0.152344 -0.071842 87 91 88
-0.125000 0.152344 -0.074955 80 85 81
-0.121094 0.152344 -0.077816 76 83 76
-0.117188 0.152344 -0.080656 100 108 99
-0.113281 0.152344 -0.083156 135 141 132
-0.109375 0.152344 -0.085909 136 134 128
-0.105469 0.152344 -0.088174 137 126 125
-0.101562 0.152344 -0.090163 150 138 140
-0.097656 0.152344 -0.092190 148 136 138
-0.093750 0.152344 -0.094171 32 20 24
-0.089844 0.152344 -0.096215 171 160 166
-0.085938 0.152344 -0.098285 157 150 158
-0.082031 0.152344 -0.100546 134 128 138
-0.078125 0.152344 -0.102745 161 159 170
-0.074219 0.152344 -0.104773 151 151 163
-0.070312 0.152344 -0.106622 125 127 139
-0.066406 0.152344 -0.108477 115 124 141
-0.062500 0.152344 -0.110307 120 129 146
-0.058594 0.152344 -0.112178 145 153 172
-0.054688 0.152344 -0.113986 166 174 195
-0.050781 0.152344 -0.115683 163 171 194
-0.046875 0.152344 -0.117229 156 163 189
-0.042969 0.152344 -0.118681 155 162 190
-0.039062 0.152344 -0.120007 150 157 185
-0.035156 0.152344 -0.121218 146 153 182
-0.031250 0.152344 -0.122328 148 155 184
-0.027344 0.152344 -0.123307 149 156 185
-0.023438 0.152344 -0.124202 161 168 196
-0.019531 0.152344 -0.125058 160 167 195
-0.015625 0.152344 -0.125859 128 135 161
-0.011719 0.152344 -0.126540 124 131 157
-0.007812 0.152344 -0.127132 162 170 193
-0.003906 0.152344 -0.127612 131 137 159
0.000000 0.152344 -0.128042 153 159 181
0.003906 0.152344 -0.128418 197 203 225
0.007812 0.152344 -0.128760 162 168 190
0.011719 0.152344 -0.129083 129 135 157
0.015625 0.152344 -0.129412 137 143 167
0.019531 0.152344 -0.129751 132 138 162
0.023438 0.152344 -0.130075 164 170 194
0.027344 0.152344 -0.130480 162 168 192
0.031250 0.152344 -0.130907 162 168 194
0.035156 0.152344 -0.131403 156 162 188
0.039062 0.152344 -0.131885 153 159 185
0.042969 0.152344 -0.132361 153 158 187
0.046875 0.152344 -0.132762 150 155 184
0.050781 0.152344 -0.133095 160 165 194
0.054688 0.152344 -0.133396 185 190 219
0.058594 0.152344 -0.133587 173 180 196
0.062500 0.152344 -0.133738 134 141 157
0.066406 0.152344 -0.133884 135 142 160
0.070312 0.152344 -0.134044 134 141 159
0.074219 0.152344 -0.134175 138 145 163
0.078125 0.152344 -0.134296 150 157 175
0.082031 0.152344 -0.134400 139 146 165
0.085938 0.152344 -0.134495 145 152 171
0.089844 0.152344 -0.134525 135 142 161
0.093750 0.152344 -0.134495 157 163 185
0.097656 0.152344 -0.134338 143 149 171
0.101562 0.152344 -0.134046 137 143 165
0.105469 0.152344 -0.133622 149 155 179
0.109375 0.152344 -0.133090 176 182 206
0.113281 0.152344 -0.132515 151 157 181
0.117188 0.152344 -0.131826 171 177 201
0.121094 0.152344 -0.131090 169 177 200
0.125000 0.152344 -0.130259 169 177 200
0.128906 0.152344 -0.129197 166 174 197
0.132812 0.152344 -0.128003 162 170 191
0.136719 0.152344 -0.126649 160 166 188
0.140625 0.152344 -0.125278 157 163 185
0.144531 0.152344 -0.123806 150 156 178
0.148438 0.152344 -0.122272 144 149 169
0.152344 0.152344 -0.120690 190 195 215
0.156250 0.152344 -0.119032 138 143 163
0.160156 0.152344 -0.117367 153 158 178
0.164062 0.152344 -0.115613 127 130 149
0.167969 0.152344 -0.113889 89 92 111
0.171875 0.152344 -0.112116 77 80 99
0.175781 0.152344 -0.110399 125 128 147
0.179688 0.152344 -0.108766 136 138 156
0.183594 0.152344 -0.107201 136 134 140
0.187500 0.152344 -0.105785 113 113 118
0.191406 0.152344 -0.104006 121 122 124
0.195312 0.152344 -0.101657 139 141 142
0.199219 0.152344 -0.098807 149 150 152
0.203125 0.152344 -0.096253 145 146 146
0.207031 0.152344 -0.096050 140 140 140
0.210938 0.152344 -0.106462 142 142 141
0.214844 0.152344 -0.117749 147 146 146
0.218750 0.152344 -0.123785 137 136 134
0.222656 0.152344 -0.126746 132 132 127
0.226562 0.152344 -0.128245 87 81 77
0.230469 0.152344 -0.128837 93 83 79
0.234375 0.152344 -0.129400 149 134 131
0.238281 0.152344 -0.128411 137 119 117
0.242188 0.152344 -0.126876 120 102 100
0.246094 0.152344 -0.124841 182 168 181
0.250000 0.152344 -0.121931 169 155 168
0.253906 0.152344 -0.119096 169 157 171
0.257812 0.152344 -0.115106 178 167 181
0.261719 0.152344 -0.110141 144 136 151
0.265625 0.152344 -0.105915 142 138 152
0.269531 0.152344 -0.101384 129 127 140
0.273438 0.152344 -0.096836 143 143 155
0.277344 0.152344 -0.093582 143 142 155
-0.222656 0.148438 0.004864 32 26 29
-0.218750 0.148438 -0.004733 106 100 110
-0.214844 0.148438 -0.011160 107 105 119
-0.210938 0.148438 -0.016873 149 150 169
-0.207031 0.148438 -0.022038 159 162 180
-0.203125 0.148438 -0.026386 115 121 137
-0.199219 0.148438 -0.029408 123 126 141
-0.195312 0.148438 -0.031755 129 133 145
-0.191406 0.148438 -0.034078 136 141 160
-0.187500 0.148438 -0.036157 167 172 191
-0.183594 0.148438 -0.037417 141 146 165
-0.179688 0.148438 -0.037868 120 125 144
-0.175781 0.148438 -0.038708 162 168 184
-0.171875 0.148438 -0.039257 161 164 179
-0.167969 0.148438 -0.039117 147 150 165
-0.164062 0.148438 -0.038947 108 112 123
-0.160156 0.148438 -0.036634 149 152 159
-0.156250 0.148438 -0.034607 123 125 128
-0.152344 0.148438 -0.037878 102 105 105
-0.148438 0.148438 -0.048041 98 100 100
-0.144531 0.148438 -0.055881 95 97 96
-0.140625 0.148438 -0.061515 92 94 92
-0.136719 0.148438 -0.066975 93 95 92
-0.132812 0.148438 -0.069672 92 94 91
-0.128906 0.148438 -0.072426 86 90 88
-0.125000 0.148438 -0.075476 82 86 82
-0.121094 0.148438 -0.078214 79 86 79
-0.117188 0.148438 -0.080995 95 104 95
-0.113281 0.148438 -0.083479 119 127 115
-0.109375 0.148438 -0.086197 121 120 112
-0.105469 0.148438 -0.088457 111 100 99
-0.101562 0.148438 -0.090487 116 104 104
-0.097656 0.148438 -0.092521 173 161 163
-0.093750 0.148438 -0.094494 97 85 89
-0.089844 0.148438 -0.096511 93 82 88
-0.085938 0.148438 -0.098557 191 181 189
-0.082031 0.148438 -0.100791 168 162 172
-0.078125 0.148438 -0.102955 124 121 132
-0.074219 0.148438 -0.104953 166 166 176
-0.070312 0.148438 -0.106784 148 148 160
-0.066406 0.148438 -0.108628 132 141 156
-0.062500 0.148438 -0.110439 139 148 163
-0.058594 0.148438 -0.112307 162 171 188
-0.054688 0.148438 -0.114116 174 182 201
-0.050781 0.148438 -0.115811 162 170 191
-0.046875 0.148438 -0.117364 154 161 187
-0.042969 0.148438 -0.118822 158 165 193
-0.039062 0.148438 -0.120153 160 167 195
-0.035156 0.148438 -0.121369 159 166 195
-0.031250 0.148438 -0.122483 153 160 189
-0.027344 0.148438 -0.123467 146 153 182
-0.023438 0.148438 -0.124362 148 155 183
-0.019531 0.148438 -0.125221 149 156 184
-0.015625 0.148438 -0.126027 137 144 170
-0.011719 0.148438 -0.126711 129 136 162
-0.007812 0.148438 -0.127310 136 143 169
-0.003906 0.148438 -0.127801 144 151 170
0.000000 0.148438 -0.128254 152 158 180
0.003906 0.148438 -0.128655 185 191 213
0.007812 0.148438 -0.129031 158 164 186
0.011719 0.148438 -0.129388 135 141 163
0.015625 0.148438 -0.129752 142 148 170
0.019531 0.148438 -0.130143 134 140 164
0.023438 0.148438 -0.130522 162 168 192
0.027344 0.148438 -0.130982 152 158 182
0.031250 0.148438 -0.131456 153 159 183
0.035156 0.148438 -0.131995 145 151 177
0.039062 0.148438 -0.132521 138 144 170
0.042969 0.148438 -0.133033 136 142 168
0.046875 0.148438 -0.133450 134 140 166
0.050781 0.148438 -0.133785 145 150 179
0.054688 0.148438 -0.134088 169 174 203
0.058594 0.148438 -0.134286 169 176 192
0.062500 0.148438 -0.134447 147 154 170
0.066406 0.148438 -0.134587 151 158 174
0.070312 0.148438 -0.134740 132 139 155
0.074219 0.148438 -0.134874 115 122 140
0.078125 0.148438 -0.135004 125 132 150
0.082031 0.148438 -0.135111 134 141 160
0.085938 0.148438 -0.135205 156 163 182
0.089844 0.148438 -0.135244 178 184 206
0.093750 0.148438 -0.135246 183 189 211
0.097656 0.148438 -0.135127 183 189 211
0.101562 0.148438 -0.134880 161 167 191
0.105469 0.148438 -0.134510 165 171 195
0.109375 0.148438 -0.134022 163 169 193
0.113281 0.148438 -0.133496 152 158 184
0.117188 0.148438 -0.132864 168 174 200
0.121094 0.148438 -0.132186 166 174 197
0.125000 0.148438 -0.131405 165 173 196
0.128906 0.148438 -0.130390 165 171 195
0.132812 0.148438 -0.129245 165 171 193
0.136719 0.148438 -0.127939 164 170 192
0.140625 0.148438 -0.126613 161 167 189
0.144531 0.148438 -0.125186 159 164 186
0.148438 0.148438 -0.123703 159 164 184
0.152344 0.148438 -0.122158 156 161 181
0.156250 0.148438 -0.120532 111 116 136
0.160156 0.148438 -0.118918 116 118 139
0.164062 0.148438 -0.117214 90 93 112
0.167969 0.148438 -0.115511 84 87 106
0.171875 0.148438 -0.113737 94 97 116
0.175781 0.148438 -0.112018 119 122 141
0.179688 0.148438 -0.110349 110 110 128
0.183594 0.148438 -0.108773 130 128 134
0.187500 0.148438 -0.107302 109 109 114
0.191406 0.148438 -0.105439 121 123 124
0.195312 0.148438 -0.102997 140 142 143
0.199219 0.148438 -0.099792 150 151 152
0.203125 0.148438 -0.097034 146 147 147
0.207031 0.148438 -0.096706 142 143 143
0.210938 0.148438 -0.106395 145 144 144
0.214844 0.148438 -0.117255 147 146 146
0.218750 0.148438 -0.123204 141 139 137
0.222656 0.148438 -0.126060 141 141 136
0.226562 0.148438 -0.127469 100 94 90
0.230469 0.148438 -0.127997 89 79 74
0.234375 0.148438 -0.128448 116 101 98
0.238281 0.148438 -0.127392 117 99 97
0.242188 0.148438 -0.125817 138 120 118
0.246094 0.148438 -0.123704 190 176 193
0.250000 0.148438 -0.120679 120 106 123
0.253906 0.148438 -0.117928 150 137 154
0.257812 0.148438 -0.113945 162 151 168
0.261719 0.148438 -0.109159 130 121 138
0.265625 0.148438 -0.104946 155 151 166
0.269531 0.148438 -0.100529 164 161 178
0.273438 0.148438 -0.096349 180 179 193
0.277344 0.148438 -0.092466 154 152 167
-0.222656 0.144531 0.006445 28 25 27
-0.218750 0.144531 -0.003516 75 67 78
-0.214844 0.144531 -0.010090 149 146 161
-0.210938 0.144531 -0.015889 139 140 159
-0.207031 0.144531 -0.021161 137 141 160
-0.203125 0.144531 -0.025680 139 145 161
-0.199219 0.144531 -0.028894 79 85 99
-0.195312 0.144531 -0.031452 117 123 137
-0.191406 0.144531 -0.034023 105 112 130
-0.187500 0.144531 -0.036350 143 150 168
-0.183594 0.144531 -0.037875 158 163 182
-0.179688 0.144531 -0.038567 104 109 128
-0.175781 0.144531 -0.039667 150 155 174
-0.171875 0.144531 -0.040521 147 153 169
-0.167969 0.144531 -0.040702 167 170 184
-0.164062 0.144531 -0.040916 137 141 152
-0.160156 0.144531 -0.039252 147 150 159
-0.156250 0.144531 -0.038536 125 128 132
-0.152344 0.144531 -0.042355 106 109 109
-0.148438 0.144531 -0.051033 102 105 105
-0.144531 0.144531 -0.057844 98 100 99
-0.140625 0.144531 -0.063033 95 97 95
-0.136719 0.144531 -0.068010 96 97 95
-0.132812 0.144531 -0.070615 94 96 93
-0.128906 0.144531 -0.073144 88 92 89
-0.125000 0.144531 -0.076168 83 88 84
-0.121094 0.144531 -0.078789 81 88 81
-0.117188 0.144531 -0.081475 89 99 89
-0.113281 0.144531 -0.083896 106 116 103
-0.109375 0.144531 -0.086512 114 114 106
-0.105469 0.144531 -0.088734 90 81 79
-0.101562 0.144531 -0.090810 88 76 76
-0.097656 0.144531 -0.092854 167 152 155
-0.093750 0.144531 -0.094840 127 115 119
-0.089844 0.144531 -0.096823 72 61 67
-0.085938 0.144531 -0.098824 158 148 156
-0.082031 0.144531 -0.101026 173 168 175
-0.078125 0.144531 -0.103136 129 126 135
-0.074219 0.144531 -0.105117 153 151 162
-0.070312 0.144531 -0.106968 143 143 155
-0.066406 0.144531 -0.108820 133 142 157
-0.062500 0.144531 -0.110629 134 143 158
-0.058594 0.144531 -0.112508 148 157 174
-0.054688 0.144531 -0.114324 157 165 184
-0.050781 0.144531 -0.116019 150 158 179
-0.046875 0.144531 -0.117572 147 155 178
-0.042969 0.144531 -0.119032 153 160 186
-0.039062 0.144531 -0.120369 152 159 187
-0.035156 0.144531 -0.121594 156 163 192
-0.031250 0.144531 -0.122712 151 158 187
-0.027344 0.144531 -0.123701 153 160 189
-0.023438 0.144531 -0.124599 157 164 193
-0.019531 0.144531 -0.125456 163 170 198
-0.015625 0.144531 -0.126265 170 177 205
-0.011719 0.144531 -0.126954 160 167 193
-0.007812 0.144531 -0.127554 136 143 169
-0.003906 0.144531 -0.128060 126 133 152
0.000000 0.144531 -0.128541 126 133 152
0.003906 0.144531 -0.128965 159 166 185
0.007812 0.144531 -0.129367 159 165 187
0.011719 0.144531 -0.129759 155 161 183
0.015625 0.144531 -0.130169 154 160 182
0.019531 0.144531 -0.130614 131 137 159
0.023438 0.144531 -0.131052 143 149 173
0.027344 0.144531 -0.131571 167 173 197
0.031250 0.144531 -0.132094 153 159 183
0.035156 0.144531 -0.132671 126 132 156
0.039062 0.144531 -0.133216 112 118 144
0.042969 0.144531 -0.133743 117 123 149
0.046875 0.144531 -0.134180 122 128 154
0.050781 0.144531 -0.134512 128 134 160
0.054688 0.144531 -0.134799 141 147 173
0.058594 0.144531 -0.134991 179 186 202
0.062500 0.144531 -0.135153 175 182 198
0.066406 0.144531 -0.135288 183 190 206
0.070312 0.144531 -0.135431 162 169 185
0.074219 0.144531 -0.135569 141 148 166
0.078125 0.144531 -0.135699 153 160 178
0.082031 0.144531 -0.135804 171 178 197
0.085938 0.144531 -0.135919 188 195 214
0.089844 0.144531 -0.135984 162 168 190
0.093750 0.144531 -0.136013 164 170 192
0.097656 0.144531 -0.135932 192 198 222
0.101562 0.144531 -0.135737 167 173 197
0.105469 0.144531 -0.135425 167 173 199
0.109375 0.144531 -0.134982 148 154 180
0.113281 0.144531 -0.134504 153 159 185
0.117188 0.144531 -0.133928 164 170 196
0.121094 0.144531 -0.133308 163 169 193
0.125000 0.144531 -0.132580 158 164 188
0.128906 0.144531 -0.131630 158 164 188
0.132812 0.144531 -0.130556 163 169 191
0.136719 0.144531 -0.129311 162 168 190
0.140625 0.144531 -0.128051 159 164 186
0.144531 0.144531 -0.126693 162 167 189
0.148438 0.144531 -0.125279 169 174 194
0.152344 0.144531 -0.123780 134 139 159
0.156250 0.144531 -0.122175 103 105 126
0.160156 0.144531 -0.120597 91 93 114
0.164062 0.144531 -0.118924 77 80 99
0.167969 0.144531 -0.117230 117 120 139
0.171875 0.144531 -0.115447 157 158 178
0.175781 0.144531 -0.113713 162 163 182
0.179688 0.144531 -0.112001 131 131 149
0.183594 0.144531 -0.110404 128 125 132
0.187500 0.144531 -0.108867 109 108 114
0.191406 0.144531 -0.106824 124 125 126
0.195312 0.144531 -0.104301 143 144 145
0.199219 0.144531 -0.100761 150 151 152
0.203125 0.144531 -0.097782 147 147 147
0.207031 0.144531 -0.097225 143 144 144
0.210938 0.144531 -0.106050 145 145 144
0.214844 0.144531 -0.116550 147 146 146
0.218750 0.144531 -0.122448 141 139 138
0.222656 0.144531 -0.125142 143 142 138
0.226562 0.144531 -0.126489 113 107 103
0.230469 0.144531 -0.126999 97 86 82
0.234375 0.144531 -0.127359 92 77 74
0.238281 0.144531 -0.126236 91 73 71
0.242188 0.144531 -0.124616 137 119 117
0.246094 0.144531 -0.122478 147 132 151
0.250000 0.144531 -0.119479 117 102 121
0.253906 0.144531 -0.116791 169 156 174
0.257812 0.144531 -0.112677 137 126 143
0.261719 0.144531 -0.108108 123 114 131
0.265625 0.144531 -0.104176 154 150 165
0.269531 0.144531 -0.099804 129 127 141
0.273438 0.144531 -0.094750 117 116 130
0.277344 0.144531 -0.091988 141 139 154
-0.222656 0.140625 0.007906 23 19 22
-0.218750 0.140625 -0.002702 66 59 66
-0.214844 0.140625 -0.008983 116 113 127
-0.210938 0.140625 -0.014824 142 143 161
-0.207031 0.140625 -0.020171 136 141 159
-0.203125 0.140625 -0.024838 139 145 161
-0.199219 0.140625 -0.028243 130 136 150
