ply
    format ascii 1.0
    element vertex 70464
    property float x
    property float y
    property float z
    property uchar red
    property uchar green
    property uchar blue
    end_header
0.140625 -0.222656 -0.069180 119 161 194
0.144531 -0.222656 -0.069278 127 167 199
0.148438 -0.222656 -0.069046 127 166 199
0.152344 -0.222656 -0.068723 130 167 200
0.156250 -0.222656 -0.068230 135 171 202
0.160156 -0.222656 -0.067240 142 176 206
0.164062 -0.222656 -0.065726 147 179 208
0.167969 -0.222656 -0.064074 145 178 207
0.171875 -0.222656 -0.062140 151 183 210
0.175781 -0.222656 -0.059678 151 183 210
0.179688 -0.222656 -0.056660 155 185 212
0.183594 -0.222656 -0.053544 166 192 217
0.187500 -0.222656 -0.050144 159 187 214
0.191406 -0.222656 -0.045797 165 192 216
0.195312 -0.222656 -0.040355 166 192 217
0.199219 -0.222656 -0.034178 162 190 215
0.203125 -0.222656 -0.026899 167 192 215
0.207031 -0.222656 -0.019607 145 170 200
0.210938 -0.222656 -0.011193 176 194 213
0.214844 -0.222656 0.000009 167 192 215
-0.160156 -0.226562 -0.023769 137 156 179
-0.156250 -0.226562 -0.031804 124 148 175
-0.152344 -0.226562 -0.037482 108 136 163
-0.148438 -0.226562 -0.042322 104 130 160
-0.144531 -0.226562 -0.046407 101 129 159
-0.140625 -0.226562 -0.049843 100 130 160
-0.136719 -0.226562 -0.052513 99 132 162
-0.132812 -0.226562 -0.054743 100 136 165
-0.128906 -0.226562 -0.056671 102 139 168
-0.125000 -0.226562 -0.058348 110 148 176
-0.121094 -0.226562 -0.059520 121 158 186
-0.117188 -0.226562 -0.060186 121 159 187
-0.113281 -0.226562 -0.060886 126 165 192
-0.109375 -0.226562 -0.061446 130 170 196
-0.105469 -0.226562 -0.061449 133 172 198
-0.101562 -0.226562 -0.060973 137 174 199
-0.097656 -0.226562 -0.060525 127 167 194
-0.093750 -0.226562 -0.059996 119 162 192
-0.089844 -0.226562 -0.058962 125 168 197
-0.085938 -0.226562 -0.057543 128 169 198
-0.082031 -0.226562 -0.056033 122 164 194
-0.078125 -0.226562 -0.054362 127 166 196
-0.074219 -0.226562 -0.052290 140 175 202
-0.070312 -0.226562 -0.049833 140 174 201
-0.066406 -0.226562 -0.047303 137 172 200
-0.062500 -0.226562 -0.044565 146 179 205
-0.058594 -0.226562 -0.041316 153 184 209
-0.054688 -0.226562 -0.037277 149 179 207
-0.050781 -0.226562 -0.033179 152 178 206
-0.046875 -0.226562 -0.028460 161 186 212
-0.042969 -0.226562 -0.022813 170 193 218
-0.039062 -0.226562 -0.015090 186 204 221
-0.035156 -0.226562 -0.001528 172 199 215
0.082031 -0.226562 -0.025515 115 145 172
0.085938 -0.226562 -0.033753 102 132 165
0.089844 -0.226562 -0.040032 102 128 160
0.093750 -0.226562 -0.045144 96 120 152
0.097656 -0.226562 -0.049290 98 121 152
0.101562 -0.226562 -0.052876 96 123 153
0.105469 -0.226562 -0.056149 102 133 162
0.109375 -0.226562 -0.059163 104 138 167
0.113281 -0.226562 -0.061437 107 143 172
0.117188 -0.226562 -0.063189 119 155 183
0.121094 -0.226562 -0.064867 125 162 189
0.125000 -0.226562 -0.066395 123 160 188
0.128906 -0.226562 -0.067437 118 157 187
0.132812 -0.226562 -0.068062 122 161 192
0.136719 -0.226562 -0.068697 121 161 193
0.140625 -0.226562 -0.069237 120 162 194
0.144531 -0.226562 -0.069365 125 166 198
0.148438 -0.226562 -0.069154 125 164 198
0.152344 -0.226562 -0.068857 131 167 200
0.156250 -0.226562 -0.068389 138 172 203
0.160156 -0.226562 -0.067419 142 176 205
0.164062 -0.226562 -0.065917 145 178 207
0.167969 -0.226562 -0.064266 145 179 207
0.171875 -0.226562 -0.062327 150 182 210
0.175781 -0.226562 -0.059828 150 182 210
0.179688 -0.226562 -0.056760 156 185 212
0.183594 -0.226562 -0.053588 169 194 218
0.187500 -0.226562 -0.050134 164 191 216
0.191406 -0.226562 -0.045754 168 193 217
0.195312 -0.226562 -0.040269 166 191 216
0.199219 -0.226562 -0.034033 163 190 215
0.203125 -0.226562 -0.026716 169 194 216
0.207031 -0.226562 -0.019450 140 165 196
0.210938 -0.226562 -0.011142 179 196 213
0.214844 -0.226562 0.000126 169 194 216
-0.160156 -0.230469 -0.023934 129 145 171
-0.156250 -0.230469 -0.031971 126 149 176
-0.152344 -0.230469 -0.037864 109 136 164
-0.148438 -0.230469 -0.042748 101 128 157
-0.144531 -0.230469 -0.046824 99 127 157
-0.140625 -0.230469 -0.050202 99 129 158
-0.136719 -0.230469 -0.052833 97 130 160
-0.132812 -0.230469 -0.055053 100 136 165
-0.128906 -0.230469 -0.056956 102 139 168
-0.125000 -0.230469 -0.058615 106 145 174
-0.121094 -0.230469 -0.059752 121 158 186
-0.117188 -0.230469 -0.060380 124 162 189
-0.113281 -0.230469 -0.061054 126 164 192
-0.109375 -0.230469 -0.061575 128 167 195
-0.105469 -0.230469 -0.061542 129 168 196
-0.101562 -0.230469 -0.061035 133 171 197
-0.097656 -0.230469 -0.060551 127 167 194
-0.093750 -0.230469 -0.059982 122 164 193
-0.089844 -0.230469 -0.058912 123 165 195
-0.085938 -0.230469 -0.057462 124 166 195
-0.082031 -0.230469 -0.055916 121 164 194
-0.078125 -0.230469 -0.054211 129 169 198
-0.074219 -0.230469 -0.052112 142 178 204
-0.070312 -0.230469 -0.049621 138 173 200
-0.066406 -0.230469 -0.047064 136 171 199
-0.062500 -0.230469 -0.044307 148 180 206
-0.058594 -0.230469 -0.041018 153 184 209
-0.054688 -0.230469 -0.036961 146 177 206
-0.050781 -0.230469 -0.032829 144 174 203
-0.046875 -0.230469 -0.027973 154 182 210
-0.042969 -0.230469 -0.021867 156 184 212
-0.039062 -0.230469 -0.013462 171 193 212
-0.035156 -0.230469 0.000193 154 182 210
0.082031 -0.230469 -0.023314 128 157 180
0.085938 -0.230469 -0.032796 104 133 167
0.089844 -0.230469 -0.039605 101 126 162
0.093750 -0.230469 -0.044681 100 123 157
0.097656 -0.230469 -0.049014 98 121 153
0.101562 -0.230469 -0.052658 98 124 154
0.105469 -0.230469 -0.055954 104 134 163
0.109375 -0.230469 -0.059013 104 137 167
0.113281 -0.230469 -0.061312 104 140 170
0.117188 -0.230469 -0.063094 114 152 179
0.121094 -0.230469 -0.064807 121 159 186
0.125000 -0.230469 -0.066371 119 157 186
0.128906 -0.230469 -0.067428 118 156 187
0.132812 -0.230469 -0.068066 123 162 192
0.136719 -0.230469 -0.068742 122 162 193
0.140625 -0.230469 -0.069330 121 163 194
0.144531 -0.230469 -0.069477 126 166 198
0.148438 -0.230469 -0.069272 124 164 197
0.152344 -0.230469 -0.069014 128 165 198
0.156250 -0.230469 -0.068579 135 170 201
0.160156 -0.230469 -0.067614 139 174 204
0.164062 -0.230469 -0.066120 142 176 206
0.167969 -0.230469 -0.064467 144 178 207
0.171875 -0.230469 -0.062521 151 184 211
0.175781 -0.230469 -0.059993 157 187 214
0.179688 -0.230469 -0.056885 163 191 216
0.183594 -0.230469 -0.053670 172 196 219
0.187500 -0.230469 -0.050152 164 190 215
0.191406 -0.230469 -0.045746 165 190 215
0.195312 -0.230469 -0.040229 163 189 214
0.199219 -0.230469 -0.033912 166 193 216
0.203125 -0.230469 -0.026588 170 194 216
0.207031 -0.230469 -0.019366 128 155 187
0.210938 -0.230469 -0.011172 177 194 211
0.214844 -0.230469 0.000298 170 194 216
-0.160156 -0.234375 -0.023801 116 133 162
-0.156250 -0.234375 -0.032289 133 154 181
-0.152344 -0.234375 -0.038391 115 140 168
-0.148438 -0.234375 -0.043171 104 130 159
-0.144531 -0.234375 -0.047178 99 127 156
-0.140625 -0.234375 -0.050520 96 126 156
-0.136719 -0.234375 -0.053126 95 128 158
-0.132812 -0.234375 -0.055339 100 136 164
-0.128906 -0.234375 -0.057221 102 140 168
-0.125000 -0.234375 -0.058872 106 145 174
-0.121094 -0.234375 -0.059985 121 159 187
-0.117188 -0.234375 -0.060582 126 164 191
-0.113281 -0.234375 -0.061229 127 167 194
-0.109375 -0.234375 -0.061718 130 170 198
-0.105469 -0.234375 -0.061660 132 171 198
-0.101562 -0.234375 -0.061126 136 173 199
-0.097656 -0.234375 -0.060611 132 170 197
-0.093750 -0.234375 -0.060009 126 167 195
-0.089844 -0.234375 -0.058902 122 164 194
-0.085938 -0.234375 -0.057407 121 165 194
-0.082031 -0.234375 -0.055825 121 165 194
-0.078125 -0.234375 -0.054092 127 168 196
-0.074219 -0.234375 -0.051956 136 174 200
-0.070312 -0.234375 -0.049423 133 170 198
-0.066406 -0.234375 -0.046831 138 173 200
-0.062500 -0.234375 -0.044054 150 182 207
-0.058594 -0.234375 -0.040734 152 183 209
-0.054688 -0.234375 -0.036634 146 178 207
-0.050781 -0.234375 -0.032474 146 176 206
-0.046875 -0.234375 -0.027481 158 186 212
-0.042969 -0.234375 -0.021300 144 176 206
-0.039062 -0.234375 -0.013099 127 157 188
0.082031 -0.234375 -0.021979 97 128 157
0.085938 -0.234375 -0.031907 104 132 166
0.089844 -0.234375 -0.039215 101 127 162
0.093750 -0.234375 -0.044346 98 122 156
0.097656 -0.234375 -0.048768 95 119 152
0.101562 -0.234375 -0.052465 99 125 155
0.105469 -0.234375 -0.055794 107 135 165
0.109375 -0.234375 -0.058880 108 140 169
0.113281 -0.234375 -0.061208 107 142 171
0.117188 -0.234375 -0.063018 114 151 179
0.121094 -0.234375 -0.064761 120 157 184
0.125000 -0.234375 -0.066361 120 157 186
0.128906 -0.234375 -0.067440 122 160 190
0.132812 -0.234375 -0.068095 124 163 193
0.136719 -0.234375 -0.068806 117 158 190
0.140625 -0.234375 -0.069425 116 159 191
0.144531 -0.234375 -0.069594 129 169 199
0.148438 -0.234375 -0.069411 134 172 202
0.152344 -0.234375 -0.069184 131 168 200
0.156250 -0.234375 -0.068769 134 170 201
0.160156 -0.234375 -0.067816 142 177 206
0.164062 -0.234375 -0.066341 142 177 207
0.167969 -0.234375 -0.064685 144 178 207
0.171875 -0.234375 -0.062723 150 183 211
0.175781 -0.234375 -0.060178 156 186 213
0.179688 -0.234375 -0.057032 162 190 215
0.183594 -0.234375 -0.053776 170 195 218
0.187500 -0.234375 -0.050210 162 189 214
0.191406 -0.234375 -0.045735 159 186 212
0.195312 -0.234375 -0.040176 160 187 213
0.199219 -0.234375 -0.033862 170 195 218
0.203125 -0.234375 -0.026524 171 194 216
0.207031 -0.234375 -0.019324 120 147 181
0.210938 -0.234375 -0.011285 169 188 208
0.214844 -0.234375 0.000386 171 194 216
-0.160156 -0.238281 -0.023258 135 154 175
-0.156250 -0.238281 -0.032577 139 162 186
-0.152344 -0.238281 -0.038734 113 139 167
-0.148438 -0.238281 -0.043514 104 130 159
-0.144531 -0.238281 -0.047538 101 129 157
-0.140625 -0.238281 -0.050811 98 129 157
-0.136719 -0.238281 -0.053361 100 133 161
-0.132812 -0.238281 -0.055567 103 139 166
-0.128906 -0.238281 -0.057440 104 142 170
-0.125000 -0.238281 -0.059098 108 147 176
-0.121094 -0.238281 -0.060200 122 160 187
-0.117188 -0.238281 -0.060776 123 163 191
-0.113281 -0.238281 -0.061397 126 167 195
-0.109375 -0.238281 -0.061856 130 171 199
-0.105469 -0.238281 -0.061770 132 171 199
-0.101562 -0.238281 -0.061202 136 173 200
-0.097656 -0.238281 -0.060654 133 171 198
-0.093750 -0.238281 -0.060026 128 168 196
-0.089844 -0.238281 -0.058891 125 167 195
-0.085938 -0.238281 -0.057358 128 170 198
-0.082031 -0.238281 -0.055748 128 171 198
-0.078125 -0.238281 -0.053985 123 166 194
-0.074219 -0.238281 -0.051812 129 169 196
-0.070312 -0.238281 -0.049252 134 171 198
-0.066406 -0.238281 -0.046619 144 177 203
-0.062500 -0.238281 -0.043802 152 183 207
-0.058594 -0.238281 -0.040520 148 180 207
-0.054688 -0.238281 -0.036338 142 176 206
-0.050781 -0.238281 -0.032156 144 176 207
-0.046875 -0.238281 -0.027198 158 188 214
-0.042969 -0.238281 -0.020932 160 190 213
-0.039062 -0.238281 -0.011362 189 207 218
0.085938 -0.238281 -0.031619 108 136 169
0.089844 -0.238281 -0.038665 104 131 165
0.093750 -0.238281 -0.043937 96 122 156
0.097656 -0.238281 -0.048528 92 116 149
0.101562 -0.238281 -0.052301 98 124 155
0.105469 -0.238281 -0.055667 104 132 162
0.109375 -0.238281 -0.058780 106 137 167
0.113281 -0.238281 -0.061140 107 141 171
0.117188 -0.238281 -0.062983 112 149 177
0.121094 -0.238281 -0.064755 118 155 183
0.125000 -0.238281 -0.066387 120 157 185
0.128906 -0.238281 -0.067493 127 164 192
0.132812 -0.238281 -0.068173 128 166 195
0.136719 -0.238281 -0.068913 115 157 190
0.140625 -0.238281 -0.069541 113 157 190
0.144531 -0.238281 -0.069737 126 167 198
0.148438 -0.238281 -0.069591 133 172 202
0.152344 -0.238281 -0.069372 125 164 196
0.156250 -0.238281 -0.068967 128 166 198
0.160156 -0.238281 -0.068031 143 178 207
0.164062 -0.238281 -0.066568 144 179 208
0.167969 -0.238281 -0.064911 144 178 208
0.171875 -0.238281 -0.062936 150 183 211
0.175781 -0.238281 -0.060389 153 184 212
0.179688 -0.238281 -0.057221 159 187 214
0.183594 -0.238281 -0.053927 168 194 218
0.187500 -0.238281 -0.050332 162 189 215
0.191406 -0.238281 -0.045788 159 186 213
0.195312 -0.238281 -0.040141 163 189 214
0.199219 -0.238281 -0.033772 174 197 219
0.203125 -0.238281 -0.026405 175 197 218
0.207031 -0.238281 -0.019309 131 159 191
0.210938 -0.238281 -0.011460 164 185 207
-0.160156 -0.242188 -0.022354 125 143 163
-0.156250 -0.242188 -0.032653 146 170 190
-0.152344 -0.242188 -0.039164 109 137 164
-0.148438 -0.242188 -0.043899 100 127 156
-0.144531 -0.242188 -0.047810 101 129 157
-0.140625 -0.242188 -0.051041 101 131 159
-0.136719 -0.242188 -0.053571 103 135 162
-0.132812 -0.242188 -0.055773 104 139 166
-0.128906 -0.242188 -0.057646 107 144 172
-0.125000 -0.242188 -0.059310 110 149 177
-0.121094 -0.242188 -0.060403 118 157 185
-0.117188 -0.242188 -0.060965 120 160 189
-0.113281 -0.242188 -0.061564 125 167 195
-0.109375 -0.242188 -0.061992 130 171 198
-0.105469 -0.242188 -0.061876 129 169 197
-0.101562 -0.242188 -0.061283 134 171 199
-0.097656 -0.242188 -0.060707 134 171 198
-0.093750 -0.242188 -0.060054 129 168 196
-0.089844 -0.242188 -0.058903 125 166 194
-0.085938 -0.242188 -0.057339 130 171 198
-0.082031 -0.242188 -0.055702 129 172 198
-0.078125 -0.242188 -0.053912 121 165 193
-0.074219 -0.242188 -0.051699 127 168 196
-0.070312 -0.242188 -0.049095 136 172 199
-0.066406 -0.242188 -0.046413 146 178 203
-0.062500 -0.242188 -0.043525 152 182 207
-0.058594 -0.242188 -0.040212 148 180 207
-0.054688 -0.242188 -0.035963 144 178 207
-0.050781 -0.242188 -0.031766 145 178 209
-0.046875 -0.242188 -0.026581 154 187 214
-0.042969 -0.242188 -0.019527 153 186 209
-0.039062 -0.242188 -0.007662 171 193 212
0.085938 -0.242188 -0.031148 110 140 171
0.089844 -0.242188 -0.038147 106 132 165
0.093750 -0.242188 -0.043582 102 127 159
0.097656 -0.242188 -0.048234 92 117 149
0.101562 -0.242188 -0.052089 97 123 154
0.105469 -0.242188 -0.055527 99 127 158
0.109375 -0.242188 -0.058687 103 134 164
0.113281 -0.242188 -0.061085 105 139 169
0.117188 -0.242188 -0.062954 110 147 176
0.121094 -0.242188 -0.064756 117 154 182
0.125000 -0.242188 -0.066428 115 152 182
0.128906 -0.242188 -0.067565 121 158 187
0.132812 -0.242188 -0.068260 123 162 193
0.136719 -0.242188 -0.069023 117 159 191
0.140625 -0.242188 -0.069678 116 159 192
0.144531 -0.242188 -0.069899 122 164 196
0.148438 -0.242188 -0.069765 129 169 200
0.152344 -0.242188 -0.069558 124 164 197
0.156250 -0.242188 -0.069177 126 165 198
0.160156 -0.242188 -0.068256 140 176 205
0.164062 -0.242188 -0.066805 142 178 207
0.167969 -0.242188 -0.065153 144 179 208
0.171875 -0.242188 -0.063170 154 186 213
0.175781 -0.242188 -0.060622 160 189 216
0.179688 -0.242188 -0.057434 164 191 217
0.183594 -0.242188 -0.054105 171 196 219
0.187500 -0.242188 -0.050469 166 192 217
0.191406 -0.242188 -0.045857 166 192 217
0.195312 -0.242188 -0.040137 171 195 218
0.199219 -0.242188 -0.033682 175 198 219
0.203125 -0.242188 -0.026272 177 197 218
0.207031 -0.242188 -0.019270 156 181 208
0.210938 -0.242188 -0.011641 165 188 211
-0.160156 -0.246094 -0.022153 91 106 132
-0.156250 -0.246094 -0.033102 159 179 197
-0.152344 -0.246094 -0.039424 115 143 169
-0.148438 -0.246094 -0.044105 101 128 157
-0.144531 -0.246094 -0.047999 101 129 158
-0.140625 -0.246094 -0.051215 99 128 157
-0.136719 -0.246094 -0.053731 100 131 160
-0.132812 -0.246094 -0.055932 100 135 163
-0.128906 -0.246094 -0.057813 109 147 174
-0.125000 -0.246094 -0.059486 113 152 180
-0.121094 -0.246094 -0.060576 116 155 183
-0.117188 -0.246094 -0.061126 121 160 189
-0.113281 -0.246094 -0.061703 130 169 196
-0.109375 -0.246094 -0.062107 134 173 199
-0.105469 -0.246094 -0.061968 132 170 198
-0.101562 -0.246094 -0.061356 136 172 199
-0.097656 -0.246094 -0.060760 138 173 199
-0.093750 -0.246094 -0.060091 134 171 198
-0.089844 -0.246094 -0.058928 129 169 196
-0.085938 -0.246094 -0.057329 132 172 198
-0.082031 -0.246094 -0.055668 129 171 198
-0.078125 -0.246094 -0.053866 124 167 195
-0.074219 -0.246094 -0.051618 131 171 198
-0.070312 -0.246094 -0.048964 135 172 199
-0.066406 -0.246094 -0.046245 141 174 201
-0.062500 -0.246094 -0.043317 147 178 204
-0.058594 -0.246094 -0.039907 144 176 205
-0.054688 -0.246094 -0.035556 144 177 207
-0.050781 -0.246094 -0.031279 150 181 211
-0.046875 -0.246094 -0.025555 161 190 216
-0.042969 -0.246094 -0.017864 162 192 214
-0.039062 -0.246094 -0.002760 127 157 188
0.085938 -0.246094 -0.030963 99 131 163
0.089844 -0.246094 -0.037796 100 126 159
0.093750 -0.246094 -0.043267 106 130 162
0.097656 -0.246094 -0.047946 97 121 153
0.101562 -0.246094 -0.051907 99 124 155
0.105469 -0.246094 -0.055365 97 124 156
0.109375 -0.246094 -0.058572 103 133 164
0.113281 -0.246094 -0.061024 105 139 169
0.117188 -0.246094 -0.062926 110 147 175
0.121094 -0.246094 -0.064765 120 156 184
0.125000 -0.246094 -0.066479 115 152 182
0.128906 -0.246094 -0.067652 115 153 184
0.132812 -0.246094 -0.068369 117 158 190
0.136719 -0.246094 -0.069155 120 162 194
0.140625 -0.246094 -0.069837 122 165 196
0.144531 -0.246094 -0.070072 124 167 197
0.148438 -0.246094 -0.069945 134 174 203
0.152344 -0.246094 -0.069763 132 172 202
0.156250 -0.246094 -0.069405 130 169 201
0.160156 -0.246094 -0.068497 135 173 204
0.164062 -0.246094 -0.067067 136 173 204
0.167969 -0.246094 -0.065421 140 175 207
0.171875 -0.246094 -0.063430 152 184 213
0.175781 -0.246094 -0.060864 160 190 217
0.179688 -0.246094 -0.057650 164 191 218
0.183594 -0.246094 -0.054308 169 195 219
0.187500 -0.246094 -0.050636 167 193 219
0.191406 -0.246094 -0.045935 169 195 219
0.195312 -0.246094 -0.040107 177 199 221
0.199219 -0.246094 -0.033582 172 194 217
0.203125 -0.246094 -0.026175 165 187 211
0.207031 -0.246094 -0.019205 176 195 217
0.210938 -0.246094 -0.011761 181 199 220
-0.160156 -0.250000 -0.023467 112 128 150
-0.156250 -0.250000 -0.033624 166 185 202
-0.152344 -0.250000 -0.039455 117 144 170
-0.148438 -0.250000 -0.044286 105 131 160
-0.144531 -0.250000 -0.048157 105 132 161
-0.140625 -0.250000 -0.051355 98 127 156
-0.136719 -0.250000 -0.053859 98 130 159
-0.132812 -0.250000 -0.056064 98 134 162
-0.128906 -0.250000 -0.057954 110 147 174
-0.125000 -0.250000 -0.059635 115 153 180
-0.121094 -0.250000 -0.060722 116 154 183
-0.117188 -0.250000 -0.061262 125 162 190
-0.113281 -0.250000 -0.061819 134 171 198
-0.109375 -0.250000 -0.062202 138 174 200
-0.105469 -0.250000 -0.062045 137 173 200
-0.101562 -0.250000 -0.061417 137 172 199
-0.097656 -0.250000 -0.060812 136 170 198
-0.093750 -0.250000 -0.060129 138 173 200
-0.089844 -0.250000 -0.058950 136 173 200
-0.085938 -0.250000 -0.057339 135 173 200
-0.082031 -0.250000 -0.055668 132 172 199
-0.078125 -0.250000 -0.053846 129 171 198
-0.074219 -0.250000 -0.051578 134 174 200
-0.070312 -0.250000 -0.048888 136 173 200
-0.066406 -0.250000 -0.046122 142 175 202
-0.062500 -0.250000 -0.043146 148 177 205
-0.058594 -0.250000 -0.039687 144 175 205
-0.054688 -0.250000 -0.035302 143 175 206
-0.050781 -0.250000 -0.030853 149 179 210
-0.046875 -0.250000 -0.024730 150 181 210
-0.042969 -0.250000 -0.016669 158 187 213
-0.039062 -0.250000 -0.001003 189 207 218
0.085938 -0.250000 -0.029709 113 146 175
0.089844 -0.250000 -0.037458 98 126 157
0.093750 -0.250000 -0.042909 104 129 160
0.097656 -0.250000 -0.047517 98 123 155
0.101562 -0.250000 -0.051680 100 125 157
0.105469 -0.250000 -0.055203 97 125 157
0.109375 -0.250000 -0.058438 102 133 164
0.113281 -0.250000 -0.060928 104 138 169
0.117188 -0.250000 -0.062883 109 145 175
0.121094 -0.250000 -0.064774 119 156 183
0.125000 -0.250000 -0.066522 118 155 184
0.128906 -0.250000 -0.067718 120 158 188
0.132812 -0.250000 -0.068471 119 160 191
0.136719 -0.250000 -0.069289 120 163 194
0.140625 -0.250000 -0.069991 120 163 195
0.144531 -0.250000 -0.070248 121 164 196
0.148438 -0.250000 -0.070136 130 170 201
0.152344 -0.250000 -0.069976 127 167 200
0.156250 -0.250000 -0.069635 127 167 200
0.160156 -0.250000 -0.068741 132 171 203
0.164062 -0.250000 -0.067340 132 171 203
0.167969 -0.250000 -0.065708 136 173 205
0.171875 -0.250000 -0.063719 149 183 212
0.175781 -0.250000 -0.061152 159 189 216
0.179688 -0.250000 -0.057919 163 190 217
0.183594 -0.250000 -0.054558 169 194 219
0.187500 -0.250000 -0.050860 172 196 221
0.191406 -0.250000 -0.046088 173 197 220
0.195312 -0.250000 -0.040099 184 203 224
0.199219 -0.250000 -0.033376 176 196 218
0.203125 -0.250000 -0.025855 152 176 204
0.207031 -0.250000 -0.019068 185 200 220
0.210938 -0.250000 -0.012165 198 210 226
-0.160156 -0.253906 -0.025262 131 146 165
-0.156250 -0.253906 -0.033555 166 183 201
-0.152344 -0.253906 -0.039538 117 143 170
-0.148438 -0.253906 -0.044380 106 132 161
-0.144531 -0.253906 -0.048163 106 134 162
-0.140625 -0.253906 -0.051409 97 126 156
-0.136719 -0.253906 -0.053923 100 131 160
-0.132812 -0.253906 -0.056140 100 135 163
-0.128906 -0.253906 -0.058043 110 147 174
-0.125000 -0.253906 -0.059729 116 153 180
-0.121094 -0.253906 -0.060818 117 154 183
-0.117188 -0.253906 -0.061356 127 164 191
-0.113281 -0.253906 -0.061892 137 172 198
-0.109375 -0.253906 -0.062251 138 173 200
-0.105469 -0.253906 -0.062084 140 173 200
-0.101562 -0.253906 -0.061448 138 171 199
-0.097656 -0.253906 -0.060839 134 168 197
-0.093750 -0.253906 -0.060146 138 173 200
-0.089844 -0.253906 -0.058963 138 173 200
-0.085938 -0.253906 -0.057353 134 172 199
-0.082031 -0.253906 -0.055681 132 172 198
-0.078125 -0.253906 -0.053839 130 171 198
-0.074219 -0.253906 -0.051554 131 172 198
-0.070312 -0.253906 -0.048820 135 172 200
-0.066406 -0.253906 -0.046017 143 176 203
-0.062500 -0.253906 -0.042995 148 177 205
-0.058594 -0.253906 -0.039442 148 177 206
-0.054688 -0.253906 -0.034964 149 179 208
-0.050781 -0.253906 -0.030389 149 182 210
-0.046875 -0.253906 -0.024114 136 175 204
-0.042969 -0.253906 -0.016206 155 185 210
-0.039062 -0.253906 -0.002330 149 182 210
0.085938 -0.253906 -0.027233 131 158 184
0.089844 -0.253906 -0.036684 107 135 163
0.093750 -0.253906 -0.042620 103 129 161
0.097656 -0.253906 -0.047115 99 124 158
0.101562 -0.253906 -0.051402 103 128 160
0.105469 -0.253906 -0.055043 101 128 160
0.109375 -0.253906 -0.058319 104 135 165
0.113281 -0.253906 -0.060825 107 141 171
0.117188 -0.253906 -0.062834 109 145 175
0.121094 -0.253906 -0.064780 114 150 180
0.125000 -0.253906 -0.066579 116 153 183
0.128906 -0.253906 -0.067805 123 161 190
0.132812 -0.253906 -0.068594 120 161 192
0.136719 -0.253906 -0.069439 117 161 192
0.140625 -0.253906 -0.070165 114 158 191
0.144531 -0.253906 -0.070461 117 159 193
0.148438 -0.253906 -0.070374 127 168 200
0.152344 -0.253906 -0.070243 124 166 199
0.156250 -0.253906 -0.069933 130 169 202
0.160156 -0.253906 -0.069074 135 174 205
0.164062 -0.253906 -0.067705 133 172 205
0.167969 -0.253906 -0.066081 135 173 206
0.171875 -0.253906 -0.064084 148 181 211
0.175781 -0.253906 -0.061524 156 186 215
0.179688 -0.253906 -0.058272 157 185 214
0.183594 -0.253906 -0.054843 165 191 217
0.187500 -0.253906 -0.051057 172 195 220
0.191406 -0.253906 -0.046190 170 194 219
0.195312 -0.253906 -0.040098 184 203 223
0.199219 -0.253906 -0.033225 182 200 221
0.203125 -0.253906 -0.025518 151 174 203
0.207031 -0.253906 -0.018907 180 195 217
0.210938 -0.253906 -0.012521 195 207 224
-0.160156 -0.257812 -0.025798 109 125 146
-0.156250 -0.257812 -0.033478 160 176 195
-0.152344 -0.257812 -0.039555 120 144 172
-0.148438 -0.257812 -0.044210 107 133 161
-0.144531 -0.257812 -0.048074 106 133 161
-0.140625 -0.257812 -0.051404 97 126 155
-0.136719 -0.257812 -0.053934 103 134 162
-0.132812 -0.257812 -0.056178 102 136 164
-0.128906 -0.257812 -0.058096 109 146 174
-0.125000 -0.257812 -0.059787 115 153 180
-0.121094 -0.257812 -0.060881 115 153 181
-0.117188 -0.257812 -0.061426 123 160 187
-0.113281 -0.257812 -0.061949 134 169 196
-0.109375 -0.257812 -0.062291 135 170 198
-0.105469 -0.257812 -0.062119 139 172 200
-0.101562 -0.257812 -0.061480 141 173 201
-0.097656 -0.257812 -0.060867 137 171 199
-0.093750 -0.257812 -0.060172 139 173 200
-0.089844 -0.257812 -0.058989 137 172 200
-0.085938 -0.257812 -0.057371 133 170 198
-0.082031 -0.257812 -0.055702 132 171 198
-0.078125 -0.257812 -0.053866 128 169 197
-0.074219 -0.257812 -0.051567 127 168 196
-0.070312 -0.257812 -0.048797 137 174 201
-0.066406 -0.257812 -0.045971 144 177 204
-0.062500 -0.257812 -0.042881 143 173 202
-0.058594 -0.257812 -0.039253 147 175 204
-0.054688 -0.257812 -0.034630 151 180 208
-0.050781 -0.257812 -0.029689 150 185 210
-0.046875 -0.257812 -0.023297 147 187 209
-0.042969 -0.257812 -0.015219 182 207 222
0.085938 -0.257812 -0.026171 99 131 163
0.089844 -0.257812 -0.035656 113 139 169
0.093750 -0.257812 -0.042235 106 133 165
0.097656 -0.257812 -0.046834 102 128 161
0.101562 -0.257812 -0.051103 102 127 159
0.105469 -0.257812 -0.054824 101 128 159
0.109375 -0.257812 -0.058168 101 132 163
0.113281 -0.257812 -0.060718 107 141 170
0.117188 -0.257812 -0.062773 107 143 173
0.121094 -0.257812 -0.064766 110 146 177
0.125000 -0.257812 -0.066620 115 151 182
0.128906 -0.257812 -0.067892 123 161 190
0.132812 -0.257812 -0.068715 121 162 192
0.136719 -0.257812 -0.069579 118 162 193
0.140625 -0.257812 -0.070325 116 160 191
0.144531 -0.257812 -0.070645 122 164 196
0.148438 -0.257812 -0.070590 135 174 204
0.152344 -0.257812 -0.070496 132 171 203
0.156250 -0.257812 -0.070204 133 172 203
0.160156 -0.257812 -0.069380 136 173 205
0.164062 -0.257812 -0.068048 137 174 206
0.167969 -0.257812 -0.066446 140 176 208
0.171875 -0.257812 -0.064469 146 179 210
0.175781 -0.257812 -0.061902 150 181 211
0.179688 -0.257812 -0.058616 150 179 210
0.183594 -0.257812 -0.055158 161 187 215
0.187500 -0.257812 -0.051290 170 194 219
0.191406 -0.257812 -0.046288 168 192 218
0.195312 -0.257812 -0.040059 180 200 222
0.199219 -0.257812 -0.033047 183 200 221
0.203125 -0.257812 -0.025315 160 182 208
0.207031 -0.257812 -0.018721 170 189 212
0.210938 -0.257812 -0.012579 182 198 217
-0.160156 -0.261719 -0.025442 121 142 162
-0.156250 -0.261719 -0.033593 150 168 189
-0.152344 -0.261719 -0.039510 116 140 168
-0.148438 -0.261719 -0.044080 106 132 160
-0.144531 -0.261719 -0.047943 103 129 158
-0.140625 -0.261719 -0.051305 97 125 154
-0.136719 -0.261719 -0.053893 105 135 162
-0.132812 -0.261719 -0.056171 103 136 164
-0.128906 -0.261719 -0.058108 108 145 173
-0.125000 -0.261719 -0.059809 114 152 180
-0.121094 -0.261719 -0.060914 112 151 180
-0.117188 -0.261719 -0.061468 118 156 184
-0.113281 -0.261719 -0.061978 131 166 194
-0.109375 -0.261719 -0.062315 135 171 198
-0.105469 -0.261719 -0.062136 139 173 200
-0.101562 -0.261719 -0.061497 143 175 202
-0.097656 -0.261719 -0.060890 141 174 201
-0.093750 -0.261719 -0.060191 140 174 201
-0.089844 -0.261719 -0.059016 137 172 200
-0.085938 -0.261719 -0.057408 135 171 199
-0.082031 -0.261719 -0.055754 135 173 200
-0.078125 -0.261719 -0.053922 129 169 197
-0.074219 -0.261719 -0.051622 127 167 196
-0.070312 -0.261719 -0.048842 143 178 204
-0.066406 -0.261719 -0.045976 150 181 207
-0.062500 -0.261719 -0.042819 143 173 202
-0.058594 -0.261719 -0.039212 145 173 203
-0.054688 -0.261719 -0.034472 150 179 207
-0.050781 -0.261719 -0.029149 149 182 209
-0.046875 -0.261719 -0.022395 150 183 209
-0.042969 -0.261719 -0.009658 158 187 213
0.085938 -0.261719 -0.025647 113 146 175
0.089844 -0.261719 -0.034819 120 144 173
0.093750 -0.261719 -0.041601 107 133 167
0.097656 -0.261719 -0.046536 101 127 160
0.101562 -0.261719 -0.050827 96 121 153
0.105469 -0.261719 -0.054611 98 124 156
0.109375 -0.261719 -0.058007 99 130 160
0.113281 -0.261719 -0.060605 105 138 168
0.117188 -0.261719 -0.062688 106 142 171
0.121094 -0.261719 -0.064720 114 150 179
0.125000 -0.261719 -0.066615 119 156 185
0.128906 -0.261719 -0.067932 123 161 190
0.132812 -0.261719 -0.068804 121 161 192
0.136719 -0.261719 -0.069703 116 159 190
0.140625 -0.261719 -0.070490 113 157 190
0.144531 -0.261719 -0.070835 120 162 195
0.148438 -0.261719 -0.070807 130 170 201
0.152344 -0.261719 -0.070754 126 166 199
0.156250 -0.261719 -0.070483 127 167 200
0.160156 -0.261719 -0.069689 135 172 205
0.164062 -0.261719 -0.068391 144 178 209
0.167969 -0.261719 -0.066821 146 180 210
0.171875 -0.261719 -0.064872 146 179 210
0.175781 -0.261719 -0.062284 148 178 210
0.179688 -0.261719 -0.058914 151 180 211
0.183594 -0.261719 -0.055380 164 189 216
0.187500 -0.261719 -0.051467 174 196 220
0.191406 -0.261719 -0.046344 176 197 220
0.195312 -0.261719 -0.039991 179 199 221
0.199219 -0.261719 -0.032758 178 196 218
0.203125 -0.261719 -0.024935 175 194 216
0.207031 -0.261719 -0.018523 169 190 213
0.210938 -0.261719 -0.013005 165 187 209
-0.160156 -0.265625 -0.025266 139 160 180
-0.156250 -0.265625 -0.033498 133 153 178
-0.152344 -0.265625 -0.039283 105 128 158
-0.148438 -0.265625 -0.043914 103 127 157
-0.144531 -0.265625 -0.047815 100 126 156
-0.140625 -0.265625 -0.051198 96 123 153
-0.136719 -0.265625 -0.053845 103 132 160
-0.132812 -0.265625 -0.056149 102 136 164
-0.128906 -0.265625 -0.058107 109 146 174
-0.125000 -0.265625 -0.059826 114 152 180
-0.121094 -0.265625 -0.060940 113 152 181
-0.117188 -0.265625 -0.061503 117 155 184
-0.113281 -0.265625 -0.062005 127 164 192
-0.109375 -0.265625 -0.062336 134 169 197
-0.105469 -0.265625 -0.062151 139 173 200
-0.101562 -0.265625 -0.061514 143 175 202
-0.097656 -0.265625 -0.060913 143 175 202
-0.093750 -0.265625 -0.060213 141 174 202
-0.089844 -0.265625 -0.059049 136 171 200
-0.085938 -0.265625 -0.057459 135 171 199
-0.082031 -0.265625 -0.055829 136 173 200
-0.078125 -0.265625 -0.054005 129 169 197
-0.074219 -0.265625 -0.051705 126 166 196
-0.070312 -0.265625 -0.048902 142 177 204
-0.066406 -0.265625 -0.046009 148 179 206
-0.062500 -0.265625 -0.042799 140 171 201
-0.058594 -0.265625 -0.039150 141 171 201
-0.054688 -0.265625 -0.034347 152 182 208
-0.050781 -0.265625 -0.028723 158 187 213
-0.046875 -0.265625 -0.020837 165 191 215
-0.042969 -0.265625 -0.004444 155 185 210
0.085938 -0.265625 -0.020860 131 158 184
0.089844 -0.265625 -0.033835 114 137 167
0.093750 -0.265625 -0.040902 106 132 166
0.097656 -0.265625 -0.046025 102 129 161
0.101562 -0.265625 -0.050517 95 120 152
0.105469 -0.265625 -0.054421 102 128 158
0.109375 -0.265625 -0.057875 102 133 162
0.113281 -0.265625 -0.060497 105 139 168
0.117188 -0.265625 -0.062600 105 141 170
0.121094 -0.265625 -0.064682 115 151 179
0.125000 -0.265625 -0.066623 118 155 184
0.128906 -0.265625 -0.067978 120 158 188
0.132812 -0.265625 -0.068883 122 162 192
0.136719 -0.265625 -0.069810 116 158 190
0.140625 -0.265625 -0.070632 114 157 190
0.144531 -0.265625 -0.071007 121 162 195
0.148438 -0.265625 -0.071005 126 167 199
0.152344 -0.265625 -0.070984 124 164 198
0.156250 -0.265625 -0.070750 128 167 200
0.160156 -0.265625 -0.070000 141 177 207
0.164062 -0.265625 -0.068727 150 183 211
0.167969 -0.265625 -0.067190 148 180 210
0.171875 -0.265625 -0.065263 144 177 209
0.175781 -0.265625 -0.062650 148 178 210
0.179688 -0.265625 -0.059211 155 183 212
0.183594 -0.265625 -0.055561 165 189 216
0.187500 -0.265625 -0.051532 172 194 219
0.191406 -0.265625 -0.046291 180 199 222
0.195312 -0.265625 -0.039808 176 196 219
0.199219 -0.265625 -0.032428 168 188 214
0.203125 -0.265625 -0.024666 187 203 223
0.207031 -0.265625 -0.018285 174 196 218
0.210938 -0.265625 -0.012836 167 192 213
-0.160156 -0.269531 -0.025115 137 158 180
-0.156250 -0.269531 -0.033227 126 147 174
-0.152344 -0.269531 -0.039065 101 125 155
-0.148438 -0.269531 -0.043717 102 126 155
-0.144531 -0.269531 -0.047690 102 127 157
-0.140625 -0.269531 -0.051128 99 126 156
-0.136719 -0.269531 -0.053809 100 129 158
-0.132812 -0.269531 -0.056132 101 135 163
-0.128906 -0.269531 -0.058112 110 147 175
-0.125000 -0.269531 -0.059846 113 152 181
-0.121094 -0.269531 -0.060964 115 154 183
-0.117188 -0.269531 -0.061538 117 155 185
-0.113281 -0.269531 -0.062043 123 160 190
-0.109375 -0.269531 -0.062374 130 166 195
-0.105469 -0.269531 -0.062178 136 171 199
-0.101562 -0.269531 -0.061543 139 173 201
-0.097656 -0.269531 -0.060949 137 171 199
-0.093750 -0.269531 -0.060264 137 171 199
-0.089844 -0.269531 -0.059117 137 171 200
-0.085938 -0.269531 -0.057535 137 172 200
-0.082031 -0.269531 -0.055936 138 174 202
-0.078125 -0.269531 -0.054134 132 170 199
-0.074219 -0.269531 -0.051838 130 169 199
-0.070312 -0.269531 -0.048995 142 177 205
-0.066406 -0.269531 -0.046068 147 179 206
-0.062500 -0.269531 -0.042794 142 174 203
-0.058594 -0.269531 -0.039089 142 172 202
-0.054688 -0.269531 -0.034421 152 182 209
-0.050781 -0.269531 -0.028136 155 185 212
-0.046875 -0.269531 -0.019274 166 196 216
-0.042969 -0.269531 -0.002967 182 207 222
0.085938 -0.269531 -0.021439 103 131 162
0.089844 -0.269531 -0.033270 96 120 152
0.093750 -0.269531 -0.040280 99 127 160
0.097656 -0.269531 -0.045565 103 131 162
0.101562 -0.269531 -0.050204 96 122 153
0.105469 -0.269531 -0.054162 103 129 159
0.109375 -0.269531 -0.057709 101 132 161
0.113281 -0.269531 -0.060384 103 137 166
0.117188 -0.269531 -0.062508 102 138 167
0.121094 -0.269531 -0.064632 112 148 177
0.125000 -0.269531 -0.066616 115 153 182
0.128906 -0.269531 -0.068011 118 157 187
0.132812 -0.269531 -0.068949 124 163 193
0.136719 -0.269531 -0.069909 118 158 191
0.140625 -0.269531 -0.070764 115 156 190
0.144531 -0.269531 -0.071168 119 160 193
0.148438 -0.269531 -0.071206 123 164 197
0.152344 -0.269531 -0.071213 125 165 198
0.156250 -0.269531 -0.071000 128 166 200
0.160156 -0.269531 -0.070279 141 175 206
0.164062 -0.269531 -0.069031 152 183 212
0.167969 -0.269531 -0.067539 149 181 211
0.171875 -0.269531 -0.065657 146 178 210
0.175781 -0.269531 -0.063017 153 183 213
0.179688 -0.269531 -0.059518 162 189 216
0.183594 -0.269531 -0.055799 167 190 217
0.187500 -0.269531 -0.051703 169 191 217
0.191406 -0.269531 -0.046303 184 202 224
0.195312 -0.269531 -0.039550 180 199 221
0.199219 -0.269531 -0.032186 167 188 214
0.203125 -0.269531 -0.024711 189 207 225
0.207031 -0.269531 -0.018000 170 196 217
0.210938 -0.269531 -0.012256 167 191 211
-0.160156 -0.273438 -0.025036 148 168 187
-0.156250 -0.273438 -0.032974 126 147 173
-0.152344 -0.273438 -0.038867 99 122 152
-0.148438 -0.273438 -0.043563 98 121 151
-0.144531 -0.273438 -0.047598 101 125 155
-0.140625 -0.273438 -0.051099 102 129 159
-0.136719 -0.273438 -0.053808 99 129 159
-0.132812 -0.273438 -0.056132 101 135 164
-0.128906 -0.273438 -0.058125 111 147 175
-0.125000 -0.273438 -0.059861 115 153 182
-0.121094 -0.273438 -0.060981 119 157 186
-0.117188 -0.273438 -0.061564 122 159 188
-0.113281 -0.273438 -0.062067 127 163 192
-0.109375 -0.273438 -0.062405 134 170 198
-0.105469 -0.273438 -0.062216 138 173 201
-0.101562 -0.273438 -0.061585 140 174 201
-0.097656 -0.273438 -0.060993 135 170 199
-0.093750 -0.273438 -0.060319 134 169 198
-0.089844 -0.273438 -0.059194 140 174 202
-0.085938 -0.273438 -0.057623 143 177 204
-0.082031 -0.273438 -0.056049 142 177 204
-0.078125 -0.273438 -0.054270 137 173 202
-0.074219 -0.273438 -0.051975 138 174 203
-0.070312 -0.273438 -0.049099 146 179 207
-0.066406 -0.273438 -0.046143 149 180 207
-0.062500 -0.273438 -0.042803 150 180 207
-0.058594 -0.273438 -0.039013 148 178 206
-0.054688 -0.273438 -0.034153 151 181 209
-0.050781 -0.273438 -0.027747 147 182 210
-0.046875 -0.273438 -0.018523 164 197 217
0.089844 -0.273438 -0.032796 112 138 167
0.093750 -0.273438 -0.039597 97 123 158
0.097656 -0.273438 -0.045052 103 130 162
0.101562 -0.273438 -0.049833 96 121 154
0.105469 -0.273438 -0.053918 100 126 158
0.109375 -0.273438 -0.057557 100 130 160
0.113281 -0.273438 -0.060263 102 136 165
0.117188 -0.273438 -0.062429 102 137 166
0.121094 -0.273438 -0.064586 110 146 175
0.125000 -0.273438 -0.066603 116 153 182
0.128906 -0.273438 -0.068044 120 158 188
0.132812 -0.273438 -0.069022 121 160 192
0.136719 -0.273438 -0.070021 111 152 187
0.140625 -0.273438 -0.070912 109 151 187
0.144531 -0.273438 -0.071337 112 154 190
0.148438 -0.273438 -0.071409 116 158 193
0.152344 -0.273438 -0.071456 120 160 195
0.156250 -0.273438 -0.071269 124 163 197
0.160156 -0.273438 -0.070579 137 172 204
0.164062 -0.273438 -0.069348 150 181 211
0.167969 -0.273438 -0.067897 151 182 212
0.171875 -0.273438 -0.066068 149 181 211
0.175781 -0.273438 -0.063412 155 185 214
0.179688 -0.273438 -0.059830 165 191 217
0.183594 -0.273438 -0.056011 168 191 217
0.187500 -0.273438 -0.051806 167 190 216
0.191406 -0.273438 -0.046318 185 203 224
0.195312 -0.273438 -0.039664 185 203 223
0.199219 -0.273438 -0.032255 165 189 214
0.203125 -0.273438 -0.024722 178 201 221
0.207031 -0.273438 -0.018384 164 192 214
0.210938 -0.273438 -0.012241 165 187 209
-0.160156 -0.277344 -0.025133 142 161 183
-0.156250 -0.277344 -0.032906 115 136 165
-0.152344 -0.277344 -0.038788 97 120 150
-0.148438 -0.277344 -0.043504 95 118 148
-0.144531 -0.277344 -0.047575 99 122 152
-0.140625 -0.277344 -0.051149 104 130 160
-0.136719 -0.277344 -0.053878 101 132 161
-0.132812 -0.277344 -0.056169 101 135 164
-0.128906 -0.277344 -0.058158 110 146 174
-0.125000 -0.277344 -0.059895 116 153 181
-0.121094 -0.277344 -0.061015 122 159 187
-0.117188 -0.277344 -0.061605 122 160 188
-0.113281 -0.277344 -0.062103 127 164 192
-0.109375 -0.277344 -0.062440 136 170 198
-0.105469 -0.277344 -0.062266 137 172 199
-0.101562 -0.277344 -0.061657 142 175 202
-0.097656 -0.277344 -0.061060 142 175 203
-0.093750 -0.277344 -0.060377 139 173 201
-0.089844 -0.277344 -0.059278 142 176 203
-0.085938 -0.277344 -0.057732 145 178 205
-0.082031 -0.277344 -0.056189 143 177 204
-0.078125 -0.277344 -0.054440 137 172 202
-0.074219 -0.277344 -0.052153 141 175 204
-0.070312 -0.277344 -0.049236 145 177 206
-0.066406 -0.277344 -0.046290 141 174 203
-0.062500 -0.277344 -0.042864 145 176 205
-0.058594 -0.277344 -0.039012 144 175 205
-0.054688 -0.277344 -0.033698 144 178 206
-0.050781 -0.277344 -0.027142 152 187 212
-0.046875 -0.277344 -0.015820 175 202 219
0.089844 -0.277344 -0.031659 128 155 179
0.093750 -0.277344 -0.038882 99 125 160
0.097656 -0.277344 -0.044510 102 129 163
0.101562 -0.277344 -0.049409 95 120 154
0.105469 -0.277344 -0.053680 100 126 157
0.109375 -0.277344 -0.057391 103 132 162
0.113281 -0.277344 -0.060110 105 138 166
0.117188 -0.277344 -0.062331 102 138 166
0.121094 -0.277344 -0.064527 106 142 171
0.125000 -0.277344 -0.066596 113 148 178
0.128906 -0.277344 -0.068069 121 157 187
0.132812 -0.277344 -0.069063 122 161 192
0.136719 -0.277344 -0.070097 116 157 191
0.140625 -0.277344 -0.071026 119 160 193
0.144531 -0.277344 -0.071481 122 163 196
0.148438 -0.277344 -0.071588 122 164 197
0.152344 -0.277344 -0.071670 123 163 198
0.156250 -0.277344 -0.071519 131 168 201
0.160156 -0.277344 -0.070878 142 176 206
0.164062 -0.277344 -0.069679 151 181 211
0.167969 -0.277344 -0.068280 153 183 213
0.171875 -0.277344 -0.066522 151 182 212
0.175781 -0.277344 -0.063856 153 182 213
0.179688 -0.277344 -0.060230 160 186 215
0.183594 -0.277344 -0.056346 163 188 215
0.187500 -0.277344 -0.051966 164 188 215
0.191406 -0.277344 -0.046546 183 202 223
0.195312 -0.277344 -0.040155 185 203 224
0.199219 -0.277344 -0.032818 163 188 214
0.203125 -0.277344 -0.025012 165 192 216
0.207031 -0.277344 -0.018404 181 205 222
0.210938 -0.277344 -0.009885 167 192 213
-0.160156 -0.281250 -0.025223 138 157 179
-0.156250 -0.281250 -0.032880 115 137 166
-0.152344 -0.281250 -0.038828 105 128 157
-0.148438 -0.281250 -0.043550 98 120 150
-0.144531 -0.281250 -0.047625 97 120 151
-0.140625 -0.281250 -0.051244 103 129 159
-0.136719 -0.281250 -0.053979 102 132 162
-0.132812 -0.281250 -0.056253 101 134 163
-0.128906 -0.281250 -0.058228 105 140 169
-0.125000 -0.281250 -0.059954 113 149 177
-0.121094 -0.281250 -0.061067 120 156 184
-0.117188 -0.281250 -0.061658 120 157 186
-0.113281 -0.281250 -0.062155 125 162 191
-0.109375 -0.281250 -0.062490 134 168 197
-0.105469 -0.281250 -0.062314 132 167 196
-0.101562 -0.281250 -0.061723 135 170 199
-0.097656 -0.281250 -0.061141 142 175 202
-0.093750 -0.281250 -0.060463 140 174 202
-0.089844 -0.281250 -0.059386 140 174 202
-0.085938 -0.281250 -0.057866 143 177 204
-0.082031 -0.281250 -0.056355 143 176 204
-0.078125 -0.281250 -0.054622 139 174 203
-0.074219 -0.281250 -0.052337 144 177 205
-0.070312 -0.281250 -0.049370 145 176 205
-0.066406 -0.281250 -0.046409 141 173 202
-0.062500 -0.281250 -0.042905 146 177 205
-0.058594 -0.281250 -0.039156 145 176 204
-0.054688 -0.281250 -0.033455 145 178 205
-0.050781 -0.281250 -0.026086 154 186 210
-0.046875 -0.281250 -0.010535 166 196 216
0.089844 -0.281250 -0.029730 96 120 152
0.093750 -0.281250 -0.038340 101 126 161
0.097656 -0.281250 -0.044250 102 131 164
0.101562 -0.281250 -0.049103 95 121 154
0.105469 -0.281250 -0.053439 99 124 156
0.109375 -0.281250 -0.057200 101 130 160
0.113281 -0.281250 -0.059975 105 136 165
0.117188 -0.281250 -0.062242 104 139 167
0.121094 -0.281250 -0.064461 103 139 168
0.125000 -0.281250 -0.066576 108 144 174
0.128906 -0.281250 -0.068083 119 155 185
0.132812 -0.281250 -0.069092 125 163 194
0.136719 -0.281250 -0.070162 124 165 196
0.140625 -0.281250 -0.071130 123 164 196
0.144531 -0.281250 -0.071627 124 166 198
0.148438 -0.281250 -0.071774 124 166 198
0.152344 -0.281250 -0.071887 125 164 198
0.156250 -0.281250 -0.071777 134 170 202
0.160156 -0.281250 -0.071182 141 174 206
0.164062 -0.281250 -0.070009 145 177 208
0.167969 -0.281250 -0.068662 150 180 211
0.171875 -0.281250 -0.066972 150 181 212
0.175781 -0.281250 -0.064311 151 181 212
0.179688 -0.281250 -0.060659 156 184 213
0.183594 -0.281250 -0.056788 160 186 214
0.187500 -0.281250 -0.052406 165 189 215
0.191406 -0.281250 -0.047115 182 202 223
0.195312 -0.281250 -0.040788 187 205 225
0.199219 -0.281250 -0.033557 174 196 220
0.203125 -0.281250 -0.025375 166 191 216
0.207031 -0.281250 -0.017222 181 203 219
-0.160156 -0.285156 -0.025369 136 156 178
-0.156250 -0.285156 -0.033048 115 138 166
-0.152344 -0.285156 -0.038978 108 133 161
-0.148438 -0.285156 -0.043719 101 124 155
-0.144531 -0.285156 -0.047815 98 122 153
-0.140625 -0.285156 -0.051422 101 127 158
-0.136719 -0.285156 -0.054141 103 132 163
-0.132812 -0.285156 -0.056408 104 135 165
-0.128906 -0.285156 -0.058355 106 138 168
-0.125000 -0.285156 -0.060046 111 144 174
-0.121094 -0.285156 -0.061140 117 152 181
-0.117188 -0.285156 -0.061730 122 158 187
-0.113281 -0.285156 -0.062224 130 165 193
-0.109375 -0.285156 -0.062565 139 172 199
-0.105469 -0.285156 -0.062404 134 169 197
-0.101562 -0.285156 -0.061820 131 166 196
-0.097656 -0.285156 -0.061258 139 172 201
-0.093750 -0.285156 -0.060605 139 173 201
-0.089844 -0.285156 -0.059544 138 173 201
-0.085938 -0.285156 -0.058036 140 174 202
-0.082031 -0.285156 -0.056554 140 174 202
-0.078125 -0.285156 -0.054835 142 175 203
-0.074219 -0.285156 -0.052533 148 179 207
-0.070312 -0.285156 -0.049522 149 178 206
-0.066406 -0.285156 -0.046530 147 177 204
-0.062500 -0.285156 -0.042906 148 177 205
-0.058594 -0.285156 -0.039232 144 175 204
-0.054688 -0.285156 -0.033393 144 178 204
-0.050781 -0.285156 -0.025458 157 186 209
-0.046875 -0.285156 -0.004064 164 197 217
0.089844 -0.285156 -0.027932 112 138 167
0.093750 -0.285156 -0.037695 103 129 162
0.097656 -0.285156 -0.043795 101 132 164
0.101562 -0.285156 -0.048688 97 125 157
0.105469 -0.285156 -0.053173 99 124 155
0.109375 -0.285156 -0.056978 100 127 157
0.113281 -0.285156 -0.059815 105 135 164
0.117188 -0.285156 -0.062140 108 142 169
0.121094 -0.285156 -0.064392 105 140 169
0.125000 -0.285156 -0.066541 106 142 171
0.128906 -0.285156 -0.068086 116 151 181
0.132812 -0.285156 -0.069122 123 161 191
0.136719 -0.285156 -0.070220 123 163 195
0.140625 -0.285156 -0.071203 116 159 192
0.144531 -0.285156 -0.071734 116 159 194
0.148438 -0.285156 -0.071918 122 164 197
0.152344 -0.285156 -0.072068 126 166 199
0.156250 -0.285156 -0.072003 135 171 203
0.160156 -0.285156 -0.071458 140 173 205
0.164062 -0.285156 -0.070314 143 176 208
0.167969 -0.285156 -0.069018 149 180 211
0.171875 -0.285156 -0.067395 151 181 213
0.175781 -0.285156 -0.064756 151 181 213
0.179688 -0.285156 -0.061096 154 182 213
0.183594 -0.285156 -0.057255 158 184 213
0.187500 -0.285156 -0.052914 164 189 215
0.191406 -0.285156 -0.047801 175 197 220
0.195312 -0.285156 -0.041625 182 201 222
0.199219 -0.285156 -0.034523 182 200 223
0.203125 -0.285156 -0.025742 176 192 219
0.207031 -0.285156 -0.010496 146 166 195
-0.160156 -0.289062 -0.025604 126 147 170
-0.156250 -0.289062 -0.033327 112 136 164
-0.152344 -0.289062 -0.039267 111 137 164
-0.148438 -0.289062 -0.043997 107 132 162
-0.144531 -0.289062 -0.048073 105 130 160
-0.140625 -0.289062 -0.051653 103 130 161
-0.136719 -0.289062 -0.054346 103 131 162
-0.132812 -0.289062 -0.056585 105 134 165
-0.128906 -0.289062 -0.058500 109 139 170
-0.125000 -0.289062 -0.060162 110 143 173
-0.121094 -0.289062 -0.061235 117 150 180
-0.117188 -0.289062 -0.061824 128 162 190
-0.113281 -0.289062 -0.062314 134 168 196
-0.109375 -0.289062 -0.062650 141 174 201
-0.105469 -0.289062 -0.062510 138 172 200
-0.101562 -0.289062 -0.061950 133 168 198
-0.097656 -0.289062 -0.061395 140 173 201
-0.093750 -0.289062 -0.060753 142 175 203
-0.089844 -0.289062 -0.059712 140 174 202
-0.085938 -0.289062 -0.058220 137 172 201
-0.082031 -0.289062 -0.056761 137 171 200
-0.078125 -0.289062 -0.055056 143 176 204
-0.074219 -0.289062 -0.052753 151 181 208
-0.070312 -0.289062 -0.049715 152 180 207
-0.066406 -0.289062 -0.046701 151 179 205
-0.062500 -0.289062 -0.043038 145 175 203
-0.058594 -0.289062 -0.039316 144 176 204
-0.054688 -0.289062 -0.033407 147 183 207
-0.050781 -0.289062 -0.025174 161 188 211
0.089844 -0.289062 -0.027083 128 155 179
0.093750 -0.289062 -0.036916 95 124 157
0.097656 -0.289062 -0.043158 100 131 162
0.101562 -0.289062 -0.048360 102 129 160
0.105469 -0.289062 -0.052968 101 125 157
0.109375 -0.289062 -0.056811 101 127 158
0.113281 -0.289062 -0.059691 105 134 163
0.117188 -0.289062 -0.062058 109 140 168
0.121094 -0.289062 -0.064349 104 138 167
0.125000 -0.289062 -0.066532 105 139 168
0.128906 -0.289062 -0.068102 113 149 178
0.132812 -0.289062 -0.069164 121 159 188
0.136719 -0.289062 -0.070292 123 164 194
0.140625 -0.289062 -0.071290 118 161 193
0.144531 -0.289062 -0.071850 121 164 196
0.148438 -0.289062 -0.072070 129 170 201
0.152344 -0.289062 -0.072253 132 171 202
0.156250 -0.289062 -0.072220 139 175 205
0.160156 -0.289062 -0.071710 145 178 208
0.164062 -0.289062 -0.070608 148 180 210
0.167969 -0.289062 -0.069376 152 183 213
0.171875 -0.289062 -0.067815 155 184 214
0.175781 -0.289062 -0.065221 154 184 214
0.179688 -0.289062 -0.061610 154 183 213
0.183594 -0.289062 -0.057843 159 186 214
0.187500 -0.289062 -0.053581 166 191 217
0.191406 -0.289062 -0.048635 171 194 218
0.195312 -0.289062 -0.042598 177 198 220
0.199219 -0.289062 -0.035614 183 199 222
0.203125 -0.289062 -0.026352 187 198 223
-0.160156 -0.292969 -0.025932 119 141 165
-0.156250 -0.292969 -0.033614 113 138 165
-0.152344 -0.292969 -0.039562 115 141 168
-0.148438 -0.292969 -0.044339 110 136 165
-0.144531 -0.292969 -0.048416 108 134 164
-0.140625 -0.292969 -0.051960 107 133 164
-0.136719 -0.292969 -0.054615 104 131 163
-0.132812 -0.292969 -0.056804 103 132 163
-0.128906 -0.292969 -0.058683 110 140 171
-0.125000 -0.292969 -0.060321 112 145 175
-0.121094 -0.292969 -0.061371 119 152 182
-0.117188 -0.292969 -0.061949 132 165 192
-0.113281 -0.292969 -0.062440 134 168 196
-0.109375 -0.292969 -0.062781 139 173 200
-0.105469 -0.292969 -0.062647 140 174 201
-0.101562 -0.292969 -0.062110 136 171 200
-0.097656 -0.292969 -0.061570 139 173 201
-0.093750 -0.292969 -0.060930 140 173 201
-0.089844 -0.292969 -0.059915 141 175 202
-0.085938 -0.292969 -0.058442 138 172 201
-0.082031 -0.292969 -0.057001 136 170 200
-0.078125 -0.292969 -0.055294 145 177 205
-0.074219 -0.292969 -0.052990 154 184 209
-0.070312 -0.292969 -0.049937 157 184 209
-0.066406 -0.292969 -0.046824 159 185 209
-0.062500 -0.292969 -0.043114 155 183 208
-0.058594 -0.292969 -0.039457 159 189 211
-0.054688 -0.292969 -0.033342 155 188 209
-0.050781 -0.292969 -0.024939 150 178 205
0.089844 -0.292969 -0.026464 108 133 164
0.093750 -0.292969 -0.036113 94 123 155
0.097656 -0.292969 -0.042552 105 135 165
0.101562 -0.292969 -0.048042 108 133 164
0.105469 -0.292969 -0.052725 103 126 157
0.109375 -0.292969 -0.056646 101 125 156
0.113281 -0.292969 -0.059582 102 129 160
0.117188 -0.292969 -0.061991 105 136 165
0.121094 -0.292969 -0.064315 102 134 164
0.125000 -0.292969 -0.066535 106 139 168
0.128906 -0.292969 -0.068131 114 149 177
0.132812 -0.292969 -0.069211 118 156 185
0.136719 -0.292969 -0.070363 120 160 190
0.140625 -0.292969 -0.071388 117 159 192
0.144531 -0.292969 -0.071973 122 164 196
0.148438 -0.292969 -0.072207 128 169 200
