ply
    format ascii 1.0
    element vertex 73910
    property float x
    property float y
    property float z
    property uchar red
    property uchar green
    property uchar blue
    end_header
0.199219 0.375000 0.025939 74 104 240
0.203125 0.375000 -0.002162 59 94 224
0.207031 0.375000 -0.030100 75 112 239
0.210938 0.375000 -0.028140 64 103 228
0.214844 0.375000 -0.027293 83 121 245
0.218750 0.375000 -0.026888 72 112 235
0.222656 0.375000 -0.027533 64 105 229
0.226562 0.375000 -0.028941 64 108 232
0.230469 0.375000 -0.030509 68 113 239
0.234375 0.375000 -0.032211 73 118 246
0.238281 0.375000 -0.034651 76 124 252
0.242188 0.375000 -0.038085 82 129 254
0.246094 0.375000 -0.041626 80 117 249
0.250000 0.375000 -0.045991 84 121 251
0.253906 0.375000 -0.050042 74 110 235
0.257812 0.375000 -0.055940 69 96 205
0.261719 0.375000 -0.064666 96 106 160
-0.179688 0.371094 -0.015127 140 103 100
-0.175781 0.371094 -0.000149 200 148 115
-0.171875 0.371094 0.008603 202 130 93
-0.167969 0.371094 0.014042 215 140 97
-0.164062 0.371094 0.017325 220 145 101
-0.160156 0.371094 0.019950 223 148 104
-0.156250 0.371094 0.022475 226 153 109
-0.152344 0.371094 0.024007 229 158 114
-0.148438 0.371094 0.024500 231 163 119
-0.144531 0.371094 0.024761 234 168 124
-0.140625 0.371094 0.024984 234 171 128
-0.136719 0.371094 0.024985 234 172 130
-0.132812 0.371094 0.024712 232 171 131
-0.128906 0.371094 0.024373 227 165 126
-0.125000 0.371094 0.024608 221 158 122
-0.121094 0.371094 0.024181 213 154 124
-0.117188 0.371094 0.022073 195 142 120
-0.113281 0.371094 0.016843 162 122 111
-0.109375 0.371094 0.009079 132 104 105
-0.105469 0.371094 -0.001940 102 90 100
-0.101562 0.371094 -0.006597 79 83 96
-0.097656 0.371094 0.004506 116 122 134
-0.093750 0.371094 0.015801 161 167 189
-0.089844 0.371094 0.025703 112 121 181
-0.085938 0.371094 0.035419 138 148 239
-0.082031 0.371094 0.045066 136 150 240
-0.078125 0.371094 0.053444 82 101 224
-0.074219 0.371094 0.061432 83 110 232
-0.070312 0.371094 0.068908 117 146 248
-0.066406 0.371094 0.076656 130 142 240
-0.062500 0.371094 0.085173 125 138 242
-0.058594 0.371094 0.093455 101 111 226
-0.054688 0.371094 0.101448 70 81 206
-0.050781 0.371094 0.108212 75 85 218
-0.046875 0.371094 0.113102 103 115 252
-0.042969 0.371094 0.116235 106 122 253
-0.039062 0.371094 0.117880 88 107 234
-0.035156 0.371094 0.119475 105 126 246
-0.031250 0.371094 0.121295 129 153 253
-0.027344 0.371094 0.122848 121 148 253
-0.023438 0.371094 0.124152 87 116 234
-0.019531 0.371094 0.125257 64 93 221
-0.015625 0.371094 0.126205 49 76 217
-0.011719 0.371094 0.126786 53 80 233
-0.007812 0.371094 0.127055 78 104 254
-0.003906 0.371094 0.127105 76 116 248
0.000000 0.371094 0.126927 69 108 239
0.003906 0.371094 0.126945 68 106 233
0.007812 0.371094 0.127323 82 118 241
0.011719 0.371094 0.127758 102 134 254
0.015625 0.371094 0.128121 111 141 254
0.019531 0.371094 0.128177 110 138 254
0.023438 0.371094 0.127850 107 132 254
0.027344 0.371094 0.127374 105 129 254
0.031250 0.371094 0.126842 102 125 254
0.035156 0.371094 0.126407 95 120 254
0.039062 0.371094 0.126112 89 116 254
0.042969 0.371094 0.125826 84 113 251
0.046875 0.371094 0.125544 81 114 247
0.050781 0.371094 0.125290 81 116 244
0.054688 0.371094 0.125104 81 117 240
0.058594 0.371094 0.124882 90 119 247
0.062500 0.371094 0.124603 91 120 250
0.066406 0.371094 0.124159 91 119 254
0.070312 0.371094 0.123527 89 116 254
0.074219 0.371094 0.122886 87 114 254
0.078125 0.371094 0.122254 86 111 253
0.082031 0.371094 0.121816 86 112 251
0.085938 0.371094 0.121622 87 114 247
0.089844 0.371094 0.121424 83 108 235
0.093750 0.371094 0.121098 94 120 243
0.097656 0.371094 0.120573 103 129 248
0.101562 0.371094 0.119768 114 140 254
0.105469 0.371094 0.118803 118 142 254
0.109375 0.371094 0.117771 100 124 250
0.113281 0.371094 0.116585 85 108 238
0.117188 0.371094 0.115242 90 112 247
0.121094 0.371094 0.113644 107 137 227
0.125000 0.371094 0.111889 122 149 254
0.128906 0.371094 0.109615 111 134 254
0.132812 0.371094 0.106592 88 109 254
0.136719 0.371094 0.103446 89 109 254
0.140625 0.371094 0.100197 104 125 254
0.144531 0.371094 0.097442 111 137 254
0.148438 0.371094 0.095250 115 143 250
0.152344 0.371094 0.093061 105 134 234
0.156250 0.371094 0.090708 97 126 232
0.160156 0.371094 0.087493 85 114 236
0.164062 0.371094 0.083673 69 94 235
0.167969 0.371094 0.079647 53 76 231
0.171875 0.371094 0.075216 57 79 239
0.175781 0.371094 0.070584 66 88 248
0.179688 0.371094 0.064658 62 85 242
0.183594 0.371094 0.058195 70 96 254
0.187500 0.371094 0.051746 67 95 254
0.191406 0.371094 0.044320 70 97 251
0.195312 0.371094 0.033196 90 120 249
0.199219 0.371094 0.023750 114 146 243
0.203125 0.371094 -0.017836 81 114 180
0.207031 0.371094 -0.031791 144 178 221
0.210938 0.371094 -0.030559 122 148 188
0.214844 0.371094 -0.029346 94 116 170
0.218750 0.371094 -0.028759 93 110 198
0.222656 0.371094 -0.029475 85 106 230
0.226562 0.371094 -0.031062 71 100 252
0.230469 0.371094 -0.032887 58 102 254
0.234375 0.371094 -0.034945 53 113 254
0.238281 0.371094 -0.037619 56 133 254
0.242188 0.371094 -0.041482 60 147 253
0.246094 0.371094 -0.046015 55 119 245
0.250000 0.371094 -0.050523 90 125 205
0.253906 0.371094 -0.054420 125 135 159
0.257812 0.371094 -0.060052 120 122 129
0.261719 0.371094 -0.067700 112 107 114
-0.179688 0.367188 -0.014218 153 119 108
-0.175781 0.367188 0.000415 203 155 121
-0.171875 0.367188 0.009172 202 133 96
-0.167969 0.367188 0.014530 215 139 97
-0.164062 0.367188 0.017725 220 146 102
-0.160156 0.367188 0.020295 224 149 106
-0.156250 0.367188 0.022770 227 154 110
-0.152344 0.367188 0.024235 229 158 115
-0.148438 0.367188 0.024644 232 163 120
-0.144531 0.367188 0.024800 234 168 125
-0.140625 0.367188 0.024942 234 171 128
-0.136719 0.367188 0.024738 234 172 130
-0.132812 0.367188 0.024158 232 171 131
-0.128906 0.367188 0.023488 228 165 127
-0.125000 0.367188 0.023317 221 159 124
-0.121094 0.367188 0.022874 214 154 126
-0.117188 0.367188 0.021456 196 142 122
-0.113281 0.367188 0.017265 162 123 113
-0.109375 0.367188 0.010636 132 104 105
-0.105469 0.367188 -0.001436 101 89 100
-0.101562 0.367188 -0.008486 76 81 93
-0.097656 0.367188 0.002774 113 118 130
-0.093750 0.367188 0.014346 156 162 185
-0.089844 0.367188 0.024535 113 121 181
-0.085938 0.367188 0.034480 138 148 237
-0.082031 0.367188 0.044359 135 148 238
-0.078125 0.367188 0.052837 82 101 223
-0.074219 0.367188 0.060889 82 108 230
-0.070312 0.367188 0.068472 113 142 246
-0.066406 0.367188 0.076396 131 145 241
-0.062500 0.367188 0.084972 131 144 245
-0.058594 0.367188 0.093015 107 120 232
-0.054688 0.367188 0.100533 75 86 211
-0.050781 0.367188 0.106902 72 84 217
-0.046875 0.367188 0.111598 98 111 248
-0.042969 0.367188 0.114741 108 124 253
-0.039062 0.367188 0.116572 98 116 243
-0.035156 0.367188 0.118357 99 120 239
-0.031250 0.367188 0.120337 120 145 252
-0.027344 0.367188 0.121993 116 143 253
-0.023438 0.367188 0.123353 90 119 237
-0.019531 0.367188 0.124511 73 100 229
-0.015625 0.367188 0.125502 57 84 225
-0.011719 0.367188 0.126095 58 83 235
-0.007812 0.367188 0.126317 76 102 254
-0.003906 0.367188 0.126300 81 119 252
0.000000 0.367188 0.126068 75 114 245
0.003906 0.367188 0.126094 72 110 235
0.007812 0.367188 0.126549 79 115 237
0.011719 0.367188 0.127083 94 126 247
0.015625 0.367188 0.127546 106 136 254
0.019531 0.367188 0.127707 107 135 254
0.023438 0.367188 0.127495 104 129 254
0.027344 0.367188 0.127140 102 126 254
0.031250 0.367188 0.126725 99 122 254
0.035156 0.367188 0.126394 92 117 254
0.039062 0.367188 0.126176 87 114 254
0.042969 0.367188 0.125936 83 112 250
0.046875 0.367188 0.125671 81 114 247
0.050781 0.367188 0.125396 81 116 244
0.054688 0.367188 0.125154 82 117 243
0.058594 0.367188 0.124860 90 119 247
0.062500 0.367188 0.124507 91 120 250
0.066406 0.367188 0.124009 91 119 254
0.070312 0.367188 0.123343 89 116 254
0.074219 0.367188 0.122667 87 114 254
0.078125 0.367188 0.122001 86 111 253
0.082031 0.367188 0.121536 86 112 251
0.085938 0.367188 0.121322 87 114 247
0.089844 0.367188 0.121122 84 109 236
0.093750 0.367188 0.120807 94 120 243
0.097656 0.367188 0.120302 103 129 248
0.101562 0.367188 0.119522 114 140 254
0.105469 0.367188 0.118585 118 142 254
0.109375 0.367188 0.117579 100 124 250
0.113281 0.367188 0.116400 85 108 238
0.117188 0.367188 0.115052 90 112 247
0.121094 0.367188 0.113419 108 138 228
0.125000 0.367188 0.111600 121 148 253
0.128906 0.367188 0.109239 109 133 254
0.132812 0.367188 0.106076 87 108 253
0.136719 0.367188 0.102813 91 111 254
0.140625 0.367188 0.099538 106 127 254
0.144531 0.367188 0.096794 111 137 254
0.148438 0.367188 0.094570 112 141 245
0.152344 0.367188 0.092303 105 134 234
0.156250 0.367188 0.089832 101 130 236
0.160156 0.367188 0.086431 96 123 245
0.164062 0.367188 0.082462 76 102 243
0.167969 0.367188 0.078337 56 79 233
0.171875 0.367188 0.073799 60 82 242
0.175781 0.367188 0.069147 75 98 254
0.179688 0.367188 0.063070 77 100 254
0.183594 0.367188 0.056385 74 99 254
0.187500 0.367188 0.049885 79 106 254
0.191406 0.367188 0.041275 83 111 254
0.195312 0.367188 0.029784 99 127 253
0.199219 0.367188 0.015081 118 149 247
0.203125 0.367188 -0.034466 98 132 202
0.207031 0.367188 -0.034135 174 211 244
0.210938 0.367188 -0.033264 188 219 246
0.214844 0.367188 -0.031889 147 171 217
0.218750 0.367188 -0.031194 103 122 195
0.222656 0.367188 -0.032028 72 93 199
0.226562 0.367188 -0.033737 77 107 240
0.230469 0.367188 -0.035698 76 118 254
0.234375 0.367188 -0.038014 52 110 253
0.238281 0.367188 -0.040943 41 114 244
0.242188 0.367188 -0.044782 72 141 236
0.246094 0.367188 -0.048970 144 155 185
0.250000 0.367188 -0.053261 172 146 149
0.253906 0.367188 -0.057380 179 155 140
0.257812 0.367188 -0.063538 173 157 140
0.261719 0.367188 -0.071300 140 126 121
-0.179688 0.363281 -0.014168 145 111 97
-0.175781 0.363281 0.001059 193 142 109
-0.171875 0.363281 0.009937 200 131 95
-0.167969 0.363281 0.015202 215 140 99
-0.164062 0.363281 0.018192 221 147 104
-0.160156 0.363281 0.020610 224 151 107
-0.156250 0.363281 0.022990 227 155 112
-0.152344 0.363281 0.024374 230 159 116
-0.148438 0.363281 0.024714 232 164 121
-0.144531 0.363281 0.024796 234 169 126
-0.140625 0.363281 0.024874 234 171 129
-0.136719 0.363281 0.024538 234 172 131
-0.132812 0.363281 0.023691 232 171 132
-0.128906 0.363281 0.022750 228 166 129
-0.125000 0.363281 0.022238 222 160 125
-0.121094 0.363281 0.021626 214 155 127
-0.117188 0.363281 0.020596 197 143 123
-0.113281 0.363281 0.017433 163 123 114
-0.109375 0.363281 0.011986 131 103 106
-0.105469 0.363281 -0.001211 101 89 100
-0.101562 0.363281 -0.010576 75 79 91
-0.097656 0.363281 0.001593 108 113 125
-0.093750 0.363281 0.013249 147 154 180
-0.089844 0.363281 0.023776 111 119 179
-0.085938 0.363281 0.033917 137 146 235
-0.082031 0.363281 0.043974 129 144 236
-0.078125 0.363281 0.052511 81 99 221
-0.074219 0.363281 0.060591 75 102 223
-0.070312 0.363281 0.068278 103 132 245
-0.066406 0.363281 0.076328 132 147 239
-0.062500 0.363281 0.084816 135 149 246
-0.058594 0.363281 0.092479 114 129 240
-0.054688 0.363281 0.099450 79 93 214
-0.050781 0.363281 0.105416 67 81 210
-0.046875 0.363281 0.109933 88 102 236
-0.042969 0.363281 0.113109 106 122 252
-0.039062 0.363281 0.115169 109 128 252
-0.035156 0.363281 0.117171 100 122 241
-0.031250 0.363281 0.119294 119 142 252
-0.027344 0.363281 0.121036 117 143 252
-0.023438 0.363281 0.122460 102 128 246
-0.019531 0.363281 0.123665 86 114 240
-0.015625 0.363281 0.124706 71 97 236
-0.011719 0.363281 0.125325 63 87 239
-0.007812 0.363281 0.125512 71 94 252
-0.003906 0.363281 0.125432 81 120 251
0.000000 0.363281 0.125164 84 121 251
0.003906 0.363281 0.125211 83 118 244
0.007812 0.363281 0.125752 79 113 236
0.011719 0.363281 0.126394 85 117 236
0.015625 0.363281 0.126964 96 126 246
0.019531 0.363281 0.127239 101 129 254
0.023438 0.363281 0.127159 100 125 254
0.027344 0.363281 0.126937 97 121 254
0.031250 0.363281 0.126647 92 117 254
0.035156 0.363281 0.126421 89 114 254
0.039062 0.363281 0.126268 84 111 254
0.042969 0.363281 0.126064 82 111 251
0.046875 0.363281 0.125812 80 112 247
0.050781 0.363281 0.125513 81 116 246
0.054688 0.363281 0.125209 83 118 246
0.058594 0.363281 0.124834 90 119 247
0.062500 0.363281 0.124402 91 120 250
0.066406 0.363281 0.123849 91 119 254
0.070312 0.363281 0.123149 89 116 254
0.074219 0.363281 0.122442 87 114 254
0.078125 0.363281 0.121745 86 111 253
0.082031 0.363281 0.121253 86 112 251
0.085938 0.363281 0.121021 87 114 247
0.089844 0.363281 0.120818 84 109 236
0.093750 0.363281 0.120511 94 120 243
0.097656 0.363281 0.120020 102 128 247
0.101562 0.363281 0.119257 114 140 254
0.105469 0.363281 0.118341 119 143 254
0.109375 0.363281 0.117357 101 125 251
0.113281 0.363281 0.116193 85 108 238
0.117188 0.363281 0.114857 89 111 246
0.121094 0.363281 0.113220 109 139 229
0.125000 0.363281 0.111377 119 146 251
0.128906 0.363281 0.108977 106 130 254
0.132812 0.363281 0.105709 87 108 251
0.136719 0.363281 0.102373 93 113 254
0.140625 0.363281 0.099099 109 131 254
0.144531 0.363281 0.096362 110 136 254
0.148438 0.363281 0.094048 107 136 240
0.152344 0.363281 0.091658 102 132 230
0.156250 0.363281 0.089014 105 133 240
0.160156 0.363281 0.085424 108 134 254
0.164062 0.363281 0.081318 89 113 254
0.167969 0.363281 0.077103 63 84 238
0.171875 0.363281 0.072511 62 85 242
0.175781 0.363281 0.067830 83 106 254
0.179688 0.363281 0.061524 94 119 254
0.183594 0.363281 0.054694 76 103 243
0.187500 0.363281 0.048182 78 106 248
0.191406 0.363281 0.037692 77 103 244
0.195312 0.363281 0.026681 89 115 242
0.199219 0.363281 -0.010992 108 135 240
0.203125 0.363281 -0.040183 101 130 203
0.207031 0.363281 -0.037235 177 208 236
0.210938 0.363281 -0.036505 195 223 234
0.214844 0.363281 -0.035033 197 221 244
0.218750 0.363281 -0.034289 170 190 237
0.222656 0.363281 -0.035272 122 142 216
0.226562 0.363281 -0.036844 86 113 214
0.230469 0.363281 -0.038764 70 110 226
0.234375 0.363281 -0.041131 78 125 226
0.238281 0.363281 -0.044069 129 157 198
0.242188 0.363281 -0.047777 180 174 173
0.246094 0.363281 -0.051748 198 172 164
0.250000 0.363281 -0.055848 196 157 145
0.253906 0.363281 -0.060169 195 159 138
0.257812 0.363281 -0.066433 192 170 146
0.261719 0.363281 -0.073740 159 145 132
-0.179688 0.359375 -0.013658 161 124 104
-0.175781 0.359375 0.001914 188 132 101
-0.171875 0.359375 0.010766 199 130 94
-0.167969 0.359375 0.015908 214 141 100
-0.164062 0.359375 0.018596 221 148 105
-0.160156 0.359375 0.020861 225 152 109
-0.156250 0.359375 0.023132 228 156 114
-0.152344 0.359375 0.024418 230 160 118
-0.148438 0.359375 0.024705 232 165 122
-0.144531 0.359375 0.024743 234 169 127
-0.140625 0.359375 0.024763 234 171 130
-0.136719 0.359375 0.024321 234 172 132
-0.132812 0.359375 0.023262 232 171 133
-0.128906 0.359375 0.022078 228 166 130
-0.125000 0.359375 0.021265 222 160 127
-0.121094 0.359375 0.020540 215 156 128
-0.117188 0.359375 0.019800 198 144 125
-0.113281 0.359375 0.017340 163 125 116
-0.109375 0.359375 0.012923 131 104 107
-0.105469 0.359375 -0.001042 101 89 100
-0.101562 0.359375 -0.012149 73 77 89
-0.097656 0.359375 0.001038 103 109 120
-0.093750 0.359375 0.012919 138 144 172
-0.089844 0.359375 0.023543 107 116 175
-0.085938 0.359375 0.033815 133 142 234
-0.082031 0.359375 0.043979 122 136 234
-0.078125 0.359375 0.052516 78 97 217
-0.074219 0.359375 0.060604 67 92 215
-0.070312 0.359375 0.068372 91 120 239
-0.066406 0.359375 0.076445 127 147 235
-0.062500 0.359375 0.084750 134 153 241
-0.058594 0.359375 0.091979 121 138 244
-0.054688 0.359375 0.098353 83 99 217
-0.050781 0.359375 0.103897 60 76 205
-0.046875 0.359375 0.108231 74 90 223
-0.042969 0.359375 0.111456 100 117 247
-0.039062 0.359375 0.113748 116 134 251
-0.035156 0.359375 0.115936 115 136 250
-0.031250 0.359375 0.118182 123 145 251
-0.027344 0.359375 0.120009 122 148 252
-0.023438 0.359375 0.121494 115 139 253
-0.019531 0.359375 0.122754 102 125 253
-0.015625 0.359375 0.123852 84 107 247
-0.011719 0.359375 0.124509 71 92 243
-0.007812 0.359375 0.124692 67 87 244
-0.003906 0.359375 0.124597 75 112 242
0.000000 0.359375 0.124331 89 127 254
0.003906 0.359375 0.124402 95 131 254
0.007812 0.359375 0.125010 85 120 240
0.011719 0.359375 0.125743 80 113 229
0.015625 0.359375 0.126399 86 116 236
0.019531 0.359375 0.126780 93 121 244
0.023438 0.359375 0.126832 93 120 249
0.027344 0.359375 0.126744 92 115 253
0.031250 0.359375 0.126579 88 113 254
0.035156 0.359375 0.126450 85 110 254
0.039062 0.359375 0.126351 82 108 253
0.042969 0.359375 0.126179 80 108 251
0.046875 0.359375 0.125931 80 112 249
0.050781 0.359375 0.125603 82 116 249
0.054688 0.359375 0.125236 83 118 248
0.058594 0.359375 0.124781 91 120 248
0.062500 0.359375 0.124273 92 121 251
0.066406 0.359375 0.123665 92 120 254
0.070312 0.359375 0.122932 90 117 254
0.074219 0.359375 0.122196 86 113 254
0.078125 0.359375 0.121470 85 110 252
0.082031 0.359375 0.120954 85 111 250
0.085938 0.359375 0.120704 86 113 246
0.089844 0.359375 0.120496 85 110 237
0.093750 0.359375 0.120195 93 119 242
0.097656 0.359375 0.119711 101 127 246
0.101562 0.359375 0.118955 113 139 254
0.105469 0.359375 0.118049 119 143 254
0.109375 0.359375 0.117077 102 126 252
0.113281 0.359375 0.115931 85 108 238
0.117188 0.359375 0.114623 89 111 246
0.121094 0.359375 0.113017 109 138 230
0.125000 0.359375 0.111192 118 145 250
0.128906 0.359375 0.108801 104 128 254
0.132812 0.359375 0.105473 86 107 248
0.136719 0.359375 0.102090 96 117 254
0.140625 0.359375 0.098826 111 133 254
0.144531 0.359375 0.096087 109 134 252
0.148438 0.359375 0.093640 102 131 233
0.152344 0.359375 0.091103 97 127 225
0.156250 0.359375 0.088245 106 134 241
0.160156 0.359375 0.084457 117 143 254
0.164062 0.359375 0.080224 100 124 254
0.167969 0.359375 0.075946 67 89 241
0.171875 0.359375 0.071337 64 85 239
0.175781 0.359375 0.066650 88 109 254
0.179688 0.359375 0.060230 105 128 254
0.183594 0.359375 0.053283 95 125 241
0.187500 0.359375 0.045970 87 116 238
0.191406 0.359375 0.034367 76 102 230
0.195312 0.359375 0.022211 89 114 238
0.199219 0.359375 -0.039713 111 136 242
0.203125 0.359375 -0.042321 102 128 204
0.207031 0.359375 -0.041038 141 168 206
0.210938 0.359375 -0.039717 153 183 202
0.214844 0.359375 -0.038360 179 207 215
0.218750 0.359375 -0.037664 196 219 225
0.222656 0.359375 -0.038570 177 198 224
0.226562 0.359375 -0.039961 152 168 205
0.230469 0.359375 -0.041766 154 160 188
0.234375 0.359375 -0.044057 182 170 175
0.238281 0.359375 -0.046893 194 165 156
0.242188 0.359375 -0.050465 203 162 148
0.246094 0.359375 -0.054350 208 163 146
0.250000 0.359375 -0.058301 204 157 135
0.253906 0.359375 -0.062639 199 157 131
0.257812 0.359375 -0.068893 187 159 134
-0.179688 0.355469 -0.012761 176 136 114
-0.175781 0.355469 0.002851 190 131 100
-0.171875 0.355469 0.011479 200 129 94
-0.167969 0.355469 0.016543 215 142 101
-0.164062 0.355469 0.018998 222 149 107
-0.160156 0.355469 0.021086 226 153 111
-0.156250 0.355469 0.023255 229 158 115
-0.152344 0.355469 0.024430 231 162 119
-0.148438 0.355469 0.024648 233 166 124
-0.144531 0.355469 0.024633 235 170 128
-0.140625 0.355469 0.024591 235 172 132
-0.136719 0.355469 0.024048 234 173 133
-0.132812 0.355469 0.022831 232 172 134
-0.128906 0.355469 0.021471 228 167 131
-0.125000 0.355469 0.020443 222 161 128
-0.121094 0.355469 0.019605 215 156 129
-0.117188 0.355469 0.019021 198 145 126
-0.113281 0.355469 0.017018 163 125 116
-0.109375 0.355469 0.013304 129 103 106
-0.105469 0.355469 -0.001489 99 88 100
-0.101562 0.355469 -0.013290 71 76 87
-0.097656 0.355469 0.001044 101 107 118
-0.093750 0.355469 0.013115 131 137 165
-0.089844 0.355469 0.023715 106 113 175
-0.085938 0.355469 0.034040 130 141 234
-0.082031 0.355469 0.044277 118 132 233
-0.078125 0.355469 0.052818 77 97 218
-0.074219 0.355469 0.060883 65 89 211
-0.070312 0.355469 0.068675 84 113 232
-0.066406 0.355469 0.076683 124 146 230
-0.062500 0.355469 0.084725 132 153 235
-0.058594 0.355469 0.091495 124 144 239
-0.054688 0.355469 0.097300 91 109 224
-0.050781 0.355469 0.102445 61 80 205
-0.046875 0.355469 0.106624 66 83 215
-0.042969 0.355469 0.109898 95 114 243
-0.039062 0.355469 0.112375 118 137 250
-0.035156 0.355469 0.114702 125 146 250
-0.031250 0.355469 0.117038 121 144 250
-0.027344 0.355469 0.118939 122 145 251
-0.023438 0.355469 0.120470 120 141 253
-0.019531 0.355469 0.121772 108 129 253
-0.015625 0.355469 0.122919 94 113 252
-0.011719 0.355469 0.123623 81 98 248
-0.007812 0.355469 0.123825 69 85 242
-0.003906 0.355469 0.123745 67 102 230
0.000000 0.355469 0.123513 89 125 248
0.003906 0.355469 0.123613 105 139 254
0.007812 0.355469 0.124275 98 130 249
0.011719 0.355469 0.125086 84 115 232
0.015625 0.355469 0.125809 80 111 228
0.019531 0.355469 0.126281 85 113 236
0.023438 0.355469 0.126460 89 116 245
0.027344 0.355469 0.126506 86 112 249
0.031250 0.355469 0.126468 84 109 253
0.035156 0.355469 0.126433 81 107 254
0.039062 0.355469 0.126389 79 105 252
0.042969 0.355469 0.126250 79 107 251
0.046875 0.355469 0.126014 80 111 251
0.050781 0.355469 0.125665 83 115 250
0.054688 0.355469 0.125247 84 118 251
0.058594 0.355469 0.124729 91 120 248
0.062500 0.355469 0.124158 92 121 251
0.066406 0.355469 0.123503 92 120 254
0.070312 0.355469 0.122745 90 117 254
0.074219 0.355469 0.121984 86 113 254
0.078125 0.355469 0.121234 85 110 252
0.082031 0.355469 0.120696 85 111 250
0.085938 0.355469 0.120426 86 113 246
0.089844 0.355469 0.120210 86 111 238
0.093750 0.355469 0.119911 93 119 242
0.097656 0.355469 0.119431 101 127 246
0.101562 0.355469 0.118670 113 139 254
0.105469 0.355469 0.117761 120 144 254
0.109375 0.355469 0.116785 103 127 253
0.113281 0.355469 0.115653 86 109 239
0.117188 0.355469 0.114387 88 110 245
0.121094 0.355469 0.112842 108 137 229
0.125000 0.355469 0.111085 116 143 250
0.128906 0.355469 0.108755 103 127 251
0.132812 0.355469 0.105425 87 109 247
0.136719 0.355469 0.102017 97 118 254
0.140625 0.355469 0.098752 111 134 254
0.144531 0.355469 0.095965 107 132 248
0.148438 0.355469 0.093358 99 126 229
0.152344 0.355469 0.090646 92 120 219
0.156250 0.355469 0.087544 104 131 238
0.160156 0.355469 0.083558 119 143 254
0.164062 0.355469 0.079213 106 128 254
0.167969 0.355469 0.074877 73 94 244
0.171875 0.355469 0.070287 65 85 235
0.175781 0.355469 0.065614 85 108 253
0.179688 0.355469 0.058952 103 127 254
0.183594 0.355469 0.051970 99 128 224
0.187500 0.355469 0.043666 90 118 224
0.191406 0.355469 0.033420 77 101 218
0.195312 0.355469 0.005423 92 115 237
0.199219 0.355469 -0.050517 106 128 224
0.203125 0.355469 -0.044548 79 102 164
0.207031 0.355469 -0.044009 79 100 142
0.210938 0.355469 -0.042332 92 109 140
0.214844 0.355469 -0.041326 130 142 153
0.218750 0.355469 -0.040811 159 158 163
0.222656 0.355469 -0.041493 179 169 171
0.226562 0.355469 -0.042824 195 176 173
0.230469 0.355469 -0.044436 202 177 169
0.234375 0.355469 -0.046524 207 175 161
0.238281 0.355469 -0.049203 210 170 149
0.242188 0.355469 -0.052750 214 167 143
0.246094 0.355469 -0.056543 216 166 140
0.250000 0.355469 -0.060307 212 160 132
0.253906 0.355469 -0.064414 205 159 130
0.257812 0.355469 -0.070541 190 157 130
0.261719 0.355469 -0.077268 133 121 108
-0.179688 0.351562 -0.010184 166 121 100
-0.175781 0.351562 0.004610 187 124 94
-0.171875 0.351562 0.012522 199 127 92
-0.167969 0.351562 0.017236 215 143 103
-0.164062 0.351562 0.019402 222 150 109
-0.160156 0.351562 0.021287 226 155 113
-0.156250 0.351562 0.023340 229 159 117
-0.152344 0.351562 0.024407 231 163 121
-0.148438 0.351562 0.024538 233 166 125
-0.144531 0.351562 0.024438 235 171 130
-0.140625 0.351562 0.024323 235 173 133
-0.136719 0.351562 0.023688 234 173 134
-0.132812 0.351562 0.022366 232 172 135
-0.128906 0.351562 0.020877 228 168 133
-0.125000 0.351562 0.019703 222 162 129
-0.121094 0.351562 0.018782 214 156 130
-0.117188 0.351562 0.018283 198 146 127
-0.113281 0.351562 0.016566 164 126 118
-0.109375 0.351562 0.013378 129 103 108
-0.105469 0.351562 -0.002096 99 89 101
-0.101562 0.351562 -0.013652 71 76 87
-0.097656 0.351562 0.001594 102 108 118
-0.093750 0.351562 0.013809 126 133 160
-0.089844 0.351562 0.024362 105 114 175
-0.085938 0.351562 0.034556 129 140 233
-0.082031 0.351562 0.044763 117 130 231
-0.078125 0.351562 0.053242 82 101 221
-0.074219 0.351562 0.061257 67 93 214
-0.070312 0.351562 0.069046 85 113 231
-0.066406 0.351562 0.076923 122 146 225
-0.062500 0.351562 0.084675 130 153 228
-0.058594 0.351562 0.091016 126 148 231
-0.054688 0.351562 0.096307 98 119 228
-0.050781 0.351562 0.101114 67 87 210
-0.046875 0.351562 0.105158 65 84 212
-0.042969 0.351562 0.108461 92 110 239
-0.039062 0.351562 0.111079 117 136 250
-0.035156 0.351562 0.113505 125 145 250
-0.031250 0.351562 0.115898 111 132 245
-0.027344 0.351562 0.117864 111 133 243
-0.023438 0.351562 0.119443 113 133 250
-0.019531 0.351562 0.120800 103 123 247
-0.015625 0.351562 0.122009 96 114 252
-0.011719 0.351562 0.122776 90 106 254
-0.007812 0.351562 0.123024 78 93 248
-0.003906 0.351562 0.122996 64 98 222
0.000000 0.351562 0.122834 85 117 240
0.003906 0.351562 0.122978 104 136 254
0.007812 0.351562 0.123679 107 140 254
0.011719 0.351562 0.124534 95 126 242
0.015625 0.351562 0.125297 83 112 230
0.019531 0.351562 0.125843 81 109 232
0.023438 0.351562 0.126129 85 112 241
0.027344 0.351562 0.126292 84 110 247
0.031250 0.351562 0.126368 82 107 251
0.035156 0.351562 0.126415 79 105 252
0.039062 0.351562 0.126414 78 104 253
0.042969 0.351562 0.126304 78 106 252
0.046875 0.351562 0.126075 79 110 252
0.050781 0.351562 0.125713 83 115 252
0.054688 0.351562 0.125258 85 117 252
0.058594 0.351562 0.124693 92 121 249
0.062500 0.351562 0.124075 93 122 252
0.066406 0.351562 0.123387 92 120 254
0.070312 0.351562 0.122609 90 117 254
0.074219 0.351562 0.121825 86 113 254
0.078125 0.351562 0.121052 85 110 252
0.082031 0.351562 0.120490 84 110 249
0.085938 0.351562 0.120201 85 112 245
0.089844 0.351562 0.119974 87 112 239
0.093750 0.351562 0.119673 93 119 242
0.097656 0.351562 0.119192 100 126 245
0.101562 0.351562 0.118424 112 138 254
0.105469 0.351562 0.117505 120 144 254
0.109375 0.351562 0.116519 104 128 254
0.113281 0.351562 0.115407 86 109 239
0.117188 0.351562 0.114208 87 109 244
0.121094 0.351562 0.112764 105 134 228
0.125000 0.351562 0.111123 116 143 250
0.128906 0.351562 0.108887 104 128 252
0.132812 0.351562 0.105604 88 110 248
0.136719 0.351562 0.102144 98 119 254
0.140625 0.351562 0.098867 110 133 254
0.144531 0.351562 0.095970 105 131 244
0.148438 0.351562 0.093171 96 124 224
0.152344 0.351562 0.090244 92 120 219
0.156250 0.351562 0.086878 98 124 234
0.160156 0.351562 0.082702 112 136 254
0.164062 0.351562 0.078281 104 126 254
0.167969 0.351562 0.073918 76 97 245
0.171875 0.351562 0.069375 68 88 234
0.175781 0.351562 0.064663 86 108 248
0.179688 0.351562 0.057978 101 124 254
0.183594 0.351562 0.050925 93 120 204
0.187500 0.351562 0.041275 94 119 216
0.191406 0.351562 0.034530 83 107 218
0.195312 0.351562 -0.026772 94 120 229
0.199219 0.351562 -0.053255 90 117 190
0.203125 0.351562 -0.047925 95 112 147
0.207031 0.351562 -0.046224 126 127 150
0.210938 0.351562 -0.044518 146 133 146
0.214844 0.351562 -0.043829 173 154 149
0.218750 0.351562 -0.043288 188 160 151
0.222656 0.351562 -0.043807 201 168 157
0.226562 0.351562 -0.045125 210 175 160
0.230469 0.351562 -0.046639 211 171 155
0.234375 0.351562 -0.048561 215 172 152
0.238281 0.351562 -0.051100 219 175 149
0.242188 0.351562 -0.054548 221 173 143
0.246094 0.351562 -0.058162 223 173 141
0.250000 0.351562 -0.061650 221 169 135
0.253906 0.351562 -0.065429 213 165 131
0.257812 0.351562 -0.071206 194 160 129
0.261719 0.351562 -0.079002 130 120 104
-0.179688 0.347656 -0.005783 164 117 94
-0.175781 0.347656 0.006818 189 125 93
-0.171875 0.347656 0.013565 200 127 92
-0.167969 0.347656 0.017738 215 143 103
-0.164062 0.347656 0.019701 223 151 110
-0.160156 0.347656 0.021468 227 156 114
-0.156250 0.347656 0.023404 230 161 119
-0.152344 0.347656 0.024353 232 164 122
-0.148438 0.347656 0.024371 233 167 126
-0.144531 0.347656 0.024160 235 172 131
-0.140625 0.347656 0.023957 235 173 134
-0.136719 0.347656 0.023240 234 174 135
-0.132812 0.347656 0.021842 232 172 136
-0.128906 0.347656 0.020279 228 168 134
-0.125000 0.347656 0.019008 222 162 130
-0.121094 0.347656 0.018017 214 156 130
-0.117188 0.347656 0.017568 198 146 129
-0.113281 0.347656 0.015950 164 127 120
-0.109375 0.347656 0.013095 130 104 109
-0.105469 0.347656 -0.002927 99 89 102
-0.101562 0.347656 -0.013371 71 76 86
-0.097656 0.347656 0.002440 107 112 122
-0.093750 0.347656 0.014601 126 132 161
-0.089844 0.347656 0.025086 105 114 177
-0.085938 0.347656 0.035078 128 139 234
-0.082031 0.347656 0.045188 115 128 231
-0.078125 0.347656 0.053578 86 106 227
-0.074219 0.347656 0.061549 69 94 218
-0.070312 0.347656 0.069300 87 114 235
-0.066406 0.347656 0.077022 119 147 222
-0.062500 0.347656 0.084492 127 153 225
-0.058594 0.347656 0.090466 124 147 226
-0.054688 0.347656 0.095355 101 124 230
-0.050781 0.347656 0.099887 73 93 215
-0.046875 0.347656 0.103827 65 84 214
-0.042969 0.347656 0.107154 85 104 233
-0.039062 0.347656 0.109853 110 129 250
-0.035156 0.347656 0.112334 126 145 250
-0.031250 0.347656 0.114754 104 124 237
-0.027344 0.347656 0.116768 100 120 232
-0.023438 0.347656 0.118393 103 122 239
-0.019531 0.347656 0.119812 94 112 237
-0.015625 0.347656 0.121089 94 110 247
-0.011719 0.347656 0.121925 100 112 254
-0.007812 0.347656 0.122240 90 101 254
-0.003906 0.347656 0.122295 70 99 225
0.000000 0.347656 0.122230 76 106 228
0.003906 0.347656 0.122431 94 124 244
0.007812 0.347656 0.123159 110 141 254
0.011719 0.347656 0.124035 108 140 253
0.015625 0.347656 0.124820 92 121 238
0.019531 0.347656 0.125424 81 110 230
0.023438 0.347656 0.125801 81 108 237
0.027344 0.347656 0.126064 83 109 246
0.031250 0.347656 0.126240 81 108 251
0.035156 0.347656 0.126356 79 105 254
0.039062 0.347656 0.126393 77 104 253
0.042969 0.347656 0.126309 78 105 254
0.046875 0.347656 0.126091 81 109 253
0.050781 0.347656 0.125726 83 114 254
0.054688 0.347656 0.125255 85 117 254
0.058594 0.347656 0.124665 92 121 249
0.062500 0.347656 0.124021 93 122 252
0.066406 0.347656 0.123316 92 120 254
0.070312 0.347656 0.122528 90 117 254
0.074219 0.347656 0.121728 86 113 254
0.078125 0.347656 0.120934 85 110 252
0.082031 0.347656 0.120350 84 110 249
0.085938 0.347656 0.120039 85 112 245
0.089844 0.347656 0.119798 87 112 239
0.093750 0.347656 0.119488 93 119 242
0.097656 0.347656 0.118996 99 125 244
0.101562 0.347656 0.118215 112 138 254
0.105469 0.347656 0.117281 121 145 254
0.109375 0.347656 0.116282 104 128 254
0.113281 0.347656 0.115195 86 109 239
0.117188 0.347656 0.114085 86 108 243
0.121094 0.347656 0.112787 101 131 229
0.125000 0.347656 0.111312 114 142 251
0.128906 0.347656 0.109201 105 131 254
0.132812 0.347656 0.106020 90 112 249
0.136719 0.347656 0.102478 97 119 254
0.140625 0.347656 0.099146 108 131 254
0.144531 0.347656 0.096101 103 129 240
0.148438 0.347656 0.093114 95 124 223
0.152344 0.347656 0.089908 96 125 223
0.156250 0.347656 0.086278 94 121 230
0.160156 0.347656 0.081925 103 125 251
0.164062 0.347656 0.077433 100 120 254
0.167969 0.347656 0.073063 80 98 245
0.171875 0.347656 0.068576 77 95 238
0.175781 0.347656 0.063858 93 114 248
0.179688 0.347656 0.057241 105 127 254
0.183594 0.347656 0.050102 103 128 213
0.187500 0.347656 0.039827 110 134 229
0.191406 0.347656 0.032167 102 123 231
0.195312 0.347656 -0.053810 107 134 226
0.199219 0.347656 -0.053218 98 117 159
0.203125 0.347656 -0.050244 132 126 148
0.207031 0.347656 -0.048120 166 147 155
0.210938 0.347656 -0.046468 177 148 148
0.214844 0.347656 -0.045851 197 164 149
0.218750 0.347656 -0.045198 204 167 148
0.222656 0.347656 -0.045553 211 171 150
0.226562 0.347656 -0.046797 218 177 154
0.230469 0.347656 -0.048297 219 172 150
0.234375 0.347656 -0.050145 221 172 148
0.238281 0.347656 -0.052660 224 177 147
0.242188 0.347656 -0.055977 225 175 142
0.246094 0.347656 -0.059344 228 177 141
0.250000 0.347656 -0.062323 227 176 138
0.253906 0.347656 -0.065877 219 170 133
0.257812 0.347656 -0.071077 199 161 129
-0.179688 0.343750 -0.002252 157 104 85
-0.175781 0.343750 0.008447 191 127 94
-0.171875 0.343750 0.014234 202 129 93
-0.167969 0.343750 0.018058 216 144 105
-0.164062 0.343750 0.019957 223 152 111
-0.160156 0.343750 0.021578 227 157 116
-0.156250 0.343750 0.023406 230 163 121
-0.152344 0.343750 0.024244 232 164 123
-0.148438 0.343750 0.024146 233 168 127
-0.144531 0.343750 0.023825 235 172 132
-0.140625 0.343750 0.023535 235 174 135
-0.136719 0.343750 0.022744 234 174 136
-0.132812 0.343750 0.021295 232 173 137
-0.128906 0.343750 0.019701 228 169 135
-0.125000 0.343750 0.018376 222 163 132
-0.121094 0.343750 0.017303 214 157 132
-0.117188 0.343750 0.016826 198 147 130
-0.113281 0.343750 0.015187 165 128 121
-0.109375 0.343750 0.012398 130 105 110
-0.105469 0.343750 -0.004200 99 90 102
-0.101562 0.343750 -0.013041 71 77 86
-0.097656 0.343750 0.003393 113 120 129
-0.093750 0.343750 0.015432 129 135 164
-0.089844 0.343750 0.025838 104 112 176
-0.085938 0.343750 0.035595 126 137 235
-0.082031 0.343750 0.045521 111 127 232
-0.078125 0.343750 0.053803 86 105 229
-0.074219 0.343750 0.061706 70 95 221
-0.070312 0.343750 0.069387 84 114 235
-0.066406 0.343750 0.076945 116 145 219
-0.062500 0.343750 0.084154 123 150 225
-0.058594 0.343750 0.089838 121 146 224
-0.054688 0.343750 0.094428 100 124 229
-0.050781 0.343750 0.098757 73 96 215
-0.046875 0.343750 0.102627 62 84 212
-0.042969 0.343750 0.105961 80 99 229
-0.039062 0.343750 0.108697 102 123 248
-0.035156 0.343750 0.111203 130 149 250
-0.031250 0.343750 0.113628 103 122 235
-0.027344 0.343750 0.115675 96 116 228
-0.023438 0.343750 0.117344 100 116 234
-0.019531 0.343750 0.118831 90 105 231
-0.015625 0.343750 0.120178 94 107 245
-0.011719 0.343750 0.121083 104 114 254
-0.007812 0.343750 0.121470 96 105 254
-0.003906 0.343750 0.121610 76 104 229
0.000000 0.343750 0.121647 71 99 222
0.003906 0.343750 0.121916 84 113 231
0.007812 0.343750 0.122673 110 139 254
0.011719 0.343750 0.123560 118 148 254
0.015625 0.343750 0.124356 100 129 246
0.019531 0.343750 0.125007 83 112 232
0.023438 0.343750 0.125465 79 106 235
0.027344 0.343750 0.125820 82 110 246
0.031250 0.343750 0.126085 81 108 251
0.035156 0.343750 0.126267 79 105 254
0.039062 0.343750 0.126343 77 104 254
0.042969 0.343750 0.126285 78 105 254
0.046875 0.343750 0.126080 81 109 253
0.050781 0.343750 0.125724 85 113 254
0.054688 0.343750 0.125251 85 116 254
0.058594 0.343750 0.124652 92 121 249
0.062500 0.343750 0.123998 93 122 252
0.066406 0.343750 0.123286 93 121 254
0.070312 0.343750 0.122496 90 117 254
0.074219 0.343750 0.121687 86 113 254
0.078125 0.343750 0.120878 84 109 251
0.082031 0.343750 0.120276 84 110 249
0.085938 0.343750 0.119942 85 112 245
0.089844 0.343750 0.119679 87 112 239
0.093750 0.343750 0.119350 93 119 242
0.097656 0.343750 0.118835 99 125 244
0.101562 0.343750 0.118029 112 138 254
0.105469 0.343750 0.117070 121 145 254
0.109375 0.343750 0.116049 105 129 254
0.113281 0.343750 0.114991 86 109 239
0.117188 0.343750 0.113986 86 108 243
0.121094 0.343750 0.112864 99 128 228
0.125000 0.343750 0.111597 114 142 252
0.128906 0.343750 0.109639 106 131 254
0.132812 0.343750 0.106550 90 114 250
0.136719 0.343750 0.102986 97 120 254
0.140625 0.343750 0.099535 107 131 254
0.144531 0.343750 0.096331 102 128 239
0.148438 0.343750 0.093145 95 124 223
0.152344 0.343750 0.089626 102 127 228
0.156250 0.343750 0.085752 94 118 229
0.160156 0.343750 0.081260 96 118 245
0.164062 0.343750 0.076751 95 114 254
0.167969 0.343750 0.072389 81 99 246
0.171875 0.343750 0.067974 83 100 239
0.175781 0.343750 0.063168 99 119 247
0.179688 0.343750 0.056775 111 132 252
0.183594 0.343750 0.049186 99 120 214
0.187500 0.343750 0.039436 104 124 225
0.191406 0.343750 0.023013 94 116 223
0.195312 0.343750 -0.065054 110 140 203
0.199219 0.343750 -0.054467 124 127 147
0.203125 0.343750 -0.052024 158 135 145
0.207031 0.343750 -0.049775 181 148 144
0.210938 0.343750 -0.048221 185 146 137
0.214844 0.343750 -0.047616 202 162 141
0.218750 0.343750 -0.046932 208 165 141
0.222656 0.343750 -0.047154 214 169 143
0.226562 0.343750 -0.048284 222 178 149
0.230469 0.343750 -0.049683 226 180 151
0.234375 0.343750 -0.051394 228 181 151
0.238281 0.343750 -0.053804 230 183 150
0.242188 0.343750 -0.056959 231 181 147
0.246094 0.343750 -0.060160 232 182 146
0.250000 0.343750 -0.062704 231 180 142
0.253906 0.343750 -0.066391 224 174 137
0.257812 0.343750 -0.071435 206 166 133
-0.183594 0.339844 -0.015933 143 104 88
-0.179688 0.339844 0.000241 165 110 90
-0.175781 0.339844 0.009876 192 124 95
-0.171875 0.339844 0.015004 203 129 95
-0.167969 0.339844 0.018340 217 145 106
-0.164062 0.339844 0.020178 223 153 112
-0.160156 0.339844 0.021674 227 159 117
-0.156250 0.339844 0.023350 231 164 122
-0.152344 0.339844 0.024069 232 165 124
-0.148438 0.339844 0.023861 233 168 128
-0.144531 0.339844 0.023434 235 173 133
-0.140625 0.339844 0.023052 235 174 135
-0.136719 0.339844 0.022193 234 175 137
-0.132812 0.339844 0.020705 231 173 137
-0.128906 0.339844 0.019103 228 170 136
-0.125000 0.339844 0.017759 222 164 133
-0.121094 0.339844 0.016621 214 158 133
-0.117188 0.339844 0.016047 198 148 131
-0.113281 0.339844 0.014264 165 129 123
-0.109375 0.339844 0.011413 130 106 111
-0.105469 0.339844 -0.005661 99 89 102
-0.101562 0.339844 -0.012546 72 77 85
-0.097656 0.339844 0.004030 124 130 138
-0.093750 0.339844 0.016033 131 137 168
-0.089844 0.339844 0.026434 120 128 194
-0.085938 0.339844 0.036022 127 139 236
-0.082031 0.339844 0.045714 101 116 233
-0.078125 0.339844 0.053841 68 89 215
-0.074219 0.339844 0.061665 66 93 218
-0.070312 0.339844 0.069245 77 107 231
-0.066406 0.339844 0.076650 105 136 210
-0.062500 0.339844 0.083658 109 138 216
-0.058594 0.339844 0.089134 114 139 224
-0.054688 0.339844 0.093520 94 118 222
-0.050781 0.339844 0.097693 78 100 219
-0.046875 0.339844 0.101506 69 91 219
-0.042969 0.339844 0.104842 72 91 223
-0.039062 0.339844 0.107590 103 123 249
-0.035156 0.339844 0.110097 123 142 249
-0.031250 0.339844 0.112516 118 137 250
-0.027344 0.339844 0.114590 104 124 237
-0.023438 0.339844 0.116307 92 108 225
-0.019531 0.339844 0.117864 91 106 232
-0.015625 0.339844 0.119282 101 113 251
-0.011719 0.339844 0.120256 105 115 254
-0.007812 0.339844 0.120716 101 110 254
-0.003906 0.339844 0.120944 85 109 235
0.000000 0.339844 0.121086 74 100 223
0.003906 0.339844 0.121428 79 105 224
0.007812 0.339844 0.122210 103 130 247
0.011719 0.339844 0.123096 120 147 254
0.015625 0.339844 0.123896 111 140 254
0.019531 0.339844 0.124589 95 124 244
0.023438 0.339844 0.125120 84 113 241
0.027344 0.339844 0.125559 80 108 244
0.031250 0.339844 0.125909 83 110 253
0.035156 0.339844 0.126159 80 107 254
0.039062 0.339844 0.126284 74 101 252
0.042969 0.339844 0.126256 75 102 251
0.046875 0.339844 0.126069 84 112 254
0.050781 0.339844 0.125729 90 118 254
0.054688 0.339844 0.125266 91 120 254
0.058594 0.339844 0.124672 94 123 251
0.062500 0.339844 0.124021 93 122 252
0.066406 0.339844 0.123311 92 120 254
0.070312 0.339844 0.122526 89 116 254
0.074219 0.339844 0.121717 87 114 254
0.078125 0.339844 0.120903 85 110 252
0.082031 0.339844 0.120291 84 110 249
0.085938 0.339844 0.119936 83 110 243
0.089844 0.339844 0.119648 88 113 240
0.093750 0.339844 0.119291 95 121 244
0.097656 0.339844 0.118746 99 125 244
0.101562 0.339844 0.117904 109 135 254
0.105469 0.339844 0.116906 119 143 254
0.109375 0.339844 0.115852 107 131 254
0.113281 0.339844 0.114814 90 113 243
0.117188 0.339844 0.113910 88 110 245
0.121094 0.339844 0.112969 101 130 234
0.125000 0.339844 0.111918 110 137 250
0.128906 0.339844 0.110119 105 130 254
0.132812 0.339844 0.107100 89 114 249
0.136719 0.339844 0.103598 90 113 247
0.140625 0.339844 0.100048 105 130 253
0.144531 0.339844 0.096688 110 136 246
0.148438 0.339844 0.093212 103 129 229
0.152344 0.339844 0.089408 99 125 227
0.156250 0.339844 0.085298 94 118 233
0.160156 0.339844 0.080675 99 118 251
0.164062 0.339844 0.076150 95 112 254
0.167969 0.339844 0.071795 81 98 244
0.171875 0.339844 0.067463 86 104 241
0.175781 0.339844 0.062526 109 128 253
0.179688 0.339844 0.056470 124 145 254
0.183594 0.339844 0.048478 109 127 234
0.187500 0.339844 0.040210 104 121 233
0.191406 0.339844 0.008577 105 127 231
0.195312 0.339844 -0.068311 125 147 183
0.199219 0.339844 -0.056605 156 146 152
0.203125 0.339844 -0.053649 177 148 147
0.207031 0.339844 -0.051341 189 150 138
0.210938 0.339844 -0.049812 192 149 130
0.214844 0.339844 -0.049122 206 163 137
0.218750 0.339844 -0.048395 212 165 137
0.222656 0.339844 -0.048592 218 169 139
0.226562 0.339844 -0.049658 225 179 146
0.230469 0.339844 -0.050980 230 184 151
0.234375 0.339844 -0.052550 232 186 152
0.238281 0.339844 -0.054752 233 186 151
0.242188 0.339844 -0.057647 234 184 149
0.246094 0.339844 -0.060576 234 185 148
0.250000 0.339844 -0.062858 232 181 143
0.253906 0.339844 -0.066808 226 176 137
0.257812 0.339844 -0.072627 210 170 134
-0.183594 0.335938 -0.013197 200 173 147
-0.179688 0.335938 0.002509 179 125 98
-0.175781 0.335938 0.011174 194 125 95
-0.171875 0.335938 0.015820 205 130 97
-0.167969 0.335938 0.018677 218 146 108
-0.164062 0.335938 0.020398 224 154 114
-0.160156 0.335938 0.021790 228 160 118
-0.156250 0.335938 0.023284 231 165 123
-0.152344 0.335938 0.023867 232 166 125
-0.148438 0.335938 0.023543 233 169 129
-0.144531 0.335938 0.023013 235 173 133
-0.140625 0.335938 0.022543 235 175 136
-0.136719 0.335938 0.021622 234 175 138
-0.132812 0.335938 0.020098 231 173 138
-0.128906 0.335938 0.018502 228 170 136
-0.125000 0.335938 0.017161 222 165 133
-0.121094 0.335938 0.015953 214 159 135
-0.117188 0.335938 0.015196 198 149 133
-0.113281 0.335938 0.013178 166 131 124
-0.109375 0.335938 0.010106 132 107 113
-0.101562 0.335938 -0.012664 74 78 86
-0.097656 0.335938 0.004600 134 139 147
-0.093750 0.335938 0.016380 138 145 177
-0.089844 0.335938 0.026816 124 134 201
-0.085938 0.335938 0.036318 129 140 237
-0.082031 0.335938 0.045764 98 113 233
-0.078125 0.335938 0.053752 62 83 209
-0.074219 0.335938 0.061463 64 91 217
-0.070312 0.335938 0.068903 81 111 234
-0.066406 0.335938 0.076179 102 134 208
-0.062500 0.335938 0.083042 106 136 216
-0.058594 0.335938 0.088396 113 138 224
-0.054688 0.335938 0.092669 94 117 221
-0.050781 0.335938 0.096723 81 102 222
-0.046875 0.335938 0.100489 73 94 224
-0.042969 0.335938 0.103816 72 90 225
-0.039062 0.335938 0.106548 98 118 248
-0.035156 0.335938 0.109038 121 140 249
-0.031250 0.335938 0.111434 123 141 249
-0.027344 0.335938 0.113515 111 130 246
-0.023438 0.335938 0.115272 95 111 231
-0.019531 0.335938 0.116889 90 105 233
-0.015625 0.335938 0.118366 99 111 248
-0.011719 0.335938 0.119400 104 114 254
-0.007812 0.335938 0.119932 101 110 254
-0.003906 0.335938 0.120247 92 113 241
0.000000 0.335938 0.120492 84 105 230
0.003906 0.335938 0.120912 83 107 229
0.007812 0.335938 0.121723 101 126 244
0.011719 0.335938 0.122611 117 144 254
0.015625 0.335938 0.123415 115 144 254
0.019531 0.335938 0.124139 101 130 250
0.023438 0.335938 0.124733 88 117 245
0.027344 0.335938 0.125249 80 108 244
0.031250 0.335938 0.125670 82 110 253
0.035156 0.335938 0.125986 80 107 254
0.039062 0.335938 0.126170 75 102 251
0.042969 0.335938 0.126187 76 103 252
0.046875 0.335938 0.126032 84 112 254
0.050781 0.335938 0.125723 90 119 254
0.054688 0.335938 0.125288 91 120 254
0.058594 0.335938 0.124721 94 123 251
0.062500 0.335938 0.124095 93 122 252
0.066406 0.335938 0.123407 92 120 254
0.070312 0.335938 0.122639 89 116 254
0.074219 0.335938 0.121839 87 114 254
0.078125 0.335938 0.121030 85 110 252
0.082031 0.335938 0.120411 84 110 249
0.085938 0.335938 0.120035 83 110 243
0.089844 0.335938 0.119715 88 113 240
0.093750 0.335938 0.119321 95 121 244
0.097656 0.335938 0.118735 99 125 244
0.101562 0.335938 0.117848 109 135 254
0.105469 0.335938 0.116801 119 143 254
0.109375 0.335938 0.115703 107 131 254
0.113281 0.335938 0.114668 90 113 243
0.117188 0.335938 0.113846 88 110 245
0.121094 0.335938 0.113070 99 127 236
0.125000 0.335938 0.112218 109 136 253
0.128906 0.335938 0.110560 106 131 254
0.132812 0.335938 0.107589 91 116 251
0.136719 0.335938 0.104119 91 114 248
0.140625 0.335938 0.100544 106 131 252
0.144531 0.335938 0.097036 111 137 247
0.148438 0.335938 0.093314 105 130 233
0.152344 0.335938 0.089280 96 120 226
0.156250 0.335938 0.084959 92 113 233
0.160156 0.335938 0.080213 95 114 251
0.164062 0.335938 0.075637 92 107 254
0.167969 0.335938 0.071208 78 93 241
0.171875 0.335938 0.066973 84 100 236
0.175781 0.335938 0.061984 106 126 245
0.179688 0.335938 0.055983 120 142 250
0.183594 0.335938 0.047678 117 133 251
0.187500 0.335938 0.041018 111 127 246
0.191406 0.335938 -0.005510 108 131 230
0.195312 0.335938 -0.070121 136 149 171
0.199219 0.335938 -0.058813 163 147 146
0.203125 0.335938 -0.055115 175 143 136
0.207031 0.335938 -0.052762 185 141 124
0.210938 0.335938 -0.051260 191 144 122
0.214844 0.335938 -0.050518 207 160 131
0.218750 0.335938 -0.049727 214 164 133
0.222656 0.335938 -0.049858 220 171 138
0.226562 0.335938 -0.050847 228 180 146
0.230469 0.335938 -0.052056 232 186 151
0.234375 0.335938 -0.053458 234 188 152
0.238281 0.335938 -0.055439 235 188 151
0.242188 0.335938 -0.058129 235 185 147
0.246094 0.335938 -0.060979 236 186 146
0.250000 0.335938 -0.063175 234 184 142
0.253906 0.335938 -0.067374 228 178 138
0.257812 0.335938 -0.073226 214 175 139
-0.183594 0.332031 -0.008343 190 154 134
-0.179688 0.332031 0.005466 177 118 92
-0.175781 0.332031 0.012537 197 127 96
-0.171875 0.332031 0.016634 208 134 100
-0.167969 0.332031 0.019205 219 148 110
-0.164062 0.332031 0.020694 225 156 116
-0.160156 0.332031 0.021926 228 160 119
-0.156250 0.332031 0.023218 230 165 123
-0.152344 0.332031 0.023651 232 166 125
-0.148438 0.332031 0.023218 233 169 129
-0.144531 0.332031 0.022585 234 173 133
-0.140625 0.332031 0.022024 234 174 136
-0.136719 0.332031 0.021035 233 175 138
-0.132812 0.332031 0.019469 231 173 138
-0.128906 0.332031 0.017870 227 170 137
-0.125000 0.332031 0.016516 221 165 134
-0.121094 0.332031 0.015220 213 160 136
-0.117188 0.332031 0.014277 197 149 134
-0.113281 0.332031 0.011986 166 131 125
-0.109375 0.332031 0.008450 131 107 113
-0.097656 0.332031 0.005305 134 139 149
-0.093750 0.332031 0.016660 139 145 178
-0.089844 0.332031 0.027150 126 135 202
-0.085938 0.332031 0.036535 130 141 236
-0.082031 0.332031 0.045660 95 112 231
-0.078125 0.332031 0.053457 60 81 209
-0.074219 0.332031 0.061030 65 91 219
-0.070312 0.332031 0.068325 85 116 235
-0.066406 0.332031 0.075497 103 132 207
-0.062500 0.332031 0.082277 107 134 215
-0.058594 0.332031 0.087572 112 137 225
-0.054688 0.332031 0.091784 94 117 222
-0.050781 0.332031 0.095768 85 106 228
-0.046875 0.332031 0.099512 81 101 234
-0.042969 0.332031 0.102847 72 91 226
-0.039062 0.332031 0.105575 90 110 242
-0.035156 0.332031 0.108051 113 131 249
-0.031250 0.332031 0.110424 124 141 249
-0.027344 0.332031 0.112507 119 138 250
-0.023438 0.332031 0.114298 98 114 234
-0.019531 0.332031 0.115967 85 100 228
-0.015625 0.332031 0.117488 92 105 244
-0.011719 0.332031 0.118570 100 110 254
-0.007812 0.332031 0.119169 98 107 254
-0.003906 0.332031 0.119565 98 117 246
0.000000 0.332031 0.119906 94 113 241
0.003906 0.332031 0.120401 90 112 234
0.007812 0.332031 0.121240 98 120 240
0.011719 0.332031 0.122133 112 137 254
0.015625 0.332031 0.122940 118 147 254
0.019531 0.332031 0.123689 109 137 254
0.023438 0.332031 0.124341 93 122 250
0.027344 0.332031 0.124923 81 110 246
0.031250 0.332031 0.125407 82 110 253
0.035156 0.332031 0.125788 79 107 253
0.039062 0.332031 0.126035 76 103 252
0.042969 0.332031 0.126104 78 106 252
0.046875 0.332031 0.125987 85 113 254
0.050781 0.332031 0.125715 92 119 254
0.054688 0.332031 0.125322 93 121 254
0.058594 0.332031 0.124796 94 123 251
0.062500 0.332031 0.124209 93 122 252
0.066406 0.332031 0.123558 92 120 254
0.070312 0.332031 0.122818 89 116 254
0.074219 0.332031 0.122039 87 114 254
0.078125 0.332031 0.121243 85 110 252
0.082031 0.332031 0.120622 84 110 249
0.085938 0.332031 0.120228 83 110 243
0.089844 0.332031 0.119878 89 114 241
0.093750 0.332031 0.119446 95 121 244
0.097656 0.332031 0.118817 99 125 244
