ply
    format ascii 1.0
    element vertex 56558
    property float x
    property float y
    property float z
    property uchar red
    property uchar green
    property uchar blue
    end_header
-0.179688 0.167969 0.016032 236 173 134
-0.175781 0.167969 0.016748 237 176 137
-0.171875 0.167969 0.016801 236 175 135
-0.167969 0.167969 0.015915 234 172 131
-0.164062 0.167969 0.014745 229 164 122
-0.160156 0.167969 0.014281 217 151 109
-0.156250 0.167969 0.014784 205 149 110
-0.152344 0.167969 0.014579 178 128 103
-0.148438 0.167969 0.016686 147 116 96
-0.144531 0.167969 0.022227 150 145 113
-0.140625 0.167969 0.029263 74 75 67
-0.136719 0.167969 0.038595 46 47 60
-0.132812 0.167969 0.047379 106 103 118
-0.128906 0.167969 0.054409 118 116 122
-0.125000 0.167969 0.060412 98 97 101
-0.121094 0.167969 0.065488 105 105 106
-0.117188 0.167969 0.069676 123 124 121
-0.113281 0.167969 0.073644 133 133 128
-0.109375 0.167969 0.076749 136 137 133
-0.105469 0.167969 0.079161 133 136 135
-0.101562 0.167969 0.081347 131 135 139
-0.097656 0.167969 0.083488 144 148 163
-0.093750 0.167969 0.085701 119 127 173
-0.089844 0.167969 0.087422 115 127 200
-0.085938 0.167969 0.088524 122 136 233
-0.082031 0.167969 0.089414 101 121 236
-0.078125 0.167969 0.090332 87 111 238
-0.074219 0.167969 0.091222 73 99 235
-0.070312 0.167969 0.091780 68 94 232
-0.066406 0.167969 0.092046 92 111 227
-0.062500 0.167969 0.091947 92 113 195
-0.058594 0.167969 0.091310 92 112 165
-0.054688 0.167969 0.090289 86 102 156
-0.050781 0.167969 0.088845 70 83 157
-0.046875 0.167969 0.088008 51 63 171
-0.042969 0.167969 0.088073 51 65 184
-0.039062 0.167969 0.088671 67 86 193
-0.035156 0.167969 0.089460 85 109 204
-0.031250 0.167969 0.090275 81 104 211
-0.027344 0.167969 0.091318 80 101 234
-0.011719 0.167969 0.098401 63 86 232
-0.007812 0.167969 0.101644 64 87 241
-0.003906 0.167969 0.105096 71 97 251
0.000000 0.167969 0.107903 71 96 247
0.003906 0.167969 0.110034 72 99 241
0.007812 0.167969 0.111579 81 108 241
0.011719 0.167969 0.112842 100 125 251
0.015625 0.167969 0.113779 116 141 254
0.019531 0.167969 0.114523 116 141 254
0.023438 0.167969 0.115098 107 132 251
0.027344 0.167969 0.115484 98 122 248
0.031250 0.167969 0.115710 95 118 250
0.035156 0.167969 0.115604 90 112 250
0.039062 0.167969 0.115159 84 107 247
0.042969 0.167969 0.114417 79 104 246
0.046875 0.167969 0.113431 81 108 249
0.050781 0.167969 0.112178 87 114 253
0.054688 0.167969 0.110701 91 120 254
0.058594 0.167969 0.109118 95 127 250
0.062500 0.167969 0.107430 94 125 250
0.066406 0.167969 0.105645 93 124 251
0.070312 0.167969 0.103850 91 121 251
0.074219 0.167969 0.102105 89 119 253
0.078125 0.167969 0.100393 88 116 252
0.082031 0.167969 0.098798 87 114 253
0.085938 0.167969 0.097451 86 113 252
0.089844 0.167969 0.096137 87 114 253
0.093750 0.167969 0.094790 89 115 252
0.097656 0.167969 0.093422 91 118 251
0.101562 0.167969 0.091870 94 121 252
0.105469 0.167969 0.090326 98 126 252
0.109375 0.167969 0.088785 103 129 252
0.113281 0.167969 0.087297 105 131 252
0.117188 0.167969 0.085824 106 132 251
0.121094 0.167969 0.084240 102 123 248
0.125000 0.167969 0.082564 93 114 241
0.128906 0.167969 0.080404 88 109 237
0.132812 0.167969 0.077627 96 115 246
0.136719 0.167969 0.074531 103 121 254
0.140625 0.167969 0.071255 101 119 254
0.144531 0.167969 0.067960 92 110 248
0.148438 0.167969 0.064675 87 103 242
0.152344 0.167969 0.061177 101 117 254
0.156250 0.167969 0.057565 118 134 254
0.160156 0.167969 0.053216 120 134 253
0.164062 0.167969 0.047432 99 114 240
0.167969 0.167969 0.040938 90 106 226
0.171875 0.167969 0.033985 104 121 237
0.175781 0.167969 0.027403 118 134 247
0.179688 0.167969 0.017709 118 135 242
0.183594 0.167969 0.005835 84 104 216
0.187500 0.167969 -0.035124 79 97 198
0.191406 0.167969 -0.043783 134 128 146
0.195312 0.167969 -0.039037 173 133 132
0.199219 0.167969 -0.035292 195 149 136
0.203125 0.167969 -0.032782 209 162 143
0.207031 0.167969 -0.032199 219 171 145
0.210938 0.167969 -0.032607 225 177 151
0.214844 0.167969 -0.033073 227 177 151
0.218750 0.167969 -0.033764 227 175 148
0.222656 0.167969 -0.035296 224 168 141
0.226562 0.167969 -0.037639 219 161 134
0.230469 0.167969 -0.041146 211 155 127
0.234375 0.167969 -0.045155 200 145 115
0.238281 0.167969 -0.050521 170 133 113
-0.210938 0.164062 -0.006829 199 167 139
-0.207031 0.164062 0.011082 203 147 110
-0.203125 0.164062 0.019029 204 139 101
-0.199219 0.164062 0.021458 214 147 107
-0.195312 0.164062 0.019693 220 153 113
-0.191406 0.164062 0.016478 225 157 117
-0.187500 0.164062 0.014588 230 164 125
-0.183594 0.164062 0.013473 234 172 132
-0.179688 0.164062 0.014333 236 175 136
-0.175781 0.164062 0.015341 236 177 138
-0.171875 0.164062 0.015529 235 175 136
-0.167969 0.164062 0.014138 230 167 128
-0.164062 0.164062 0.012515 223 157 118
-0.160156 0.164062 0.012022 209 144 105
-0.156250 0.164062 0.012591 200 151 119
-0.152344 0.164062 0.014287 179 148 131
-0.148438 0.164062 0.018901 113 100 86
-0.144531 0.164062 0.024510 49 42 32
-0.140625 0.164062 0.029950 13 9 11
-0.136719 0.164062 0.036691 20 19 34
-0.132812 0.164062 0.044984 77 75 109
-0.128906 0.164062 0.051578 73 69 87
-0.125000 0.164062 0.057543 57 54 65
-0.121094 0.164062 0.062997 75 74 80
-0.117188 0.164062 0.067147 102 103 104
-0.113281 0.164062 0.070568 120 120 120
-0.109375 0.164062 0.073204 129 130 132
-0.105469 0.164062 0.075075 126 131 137
-0.101562 0.164062 0.077798 123 128 138
-0.097656 0.164062 0.081193 127 133 154
-0.093750 0.164062 0.083676 107 116 160
-0.089844 0.164062 0.085153 108 120 191
-0.085938 0.164062 0.085942 111 128 221
-0.082031 0.164062 0.086485 93 113 223
-0.078125 0.164062 0.087157 82 105 226
-0.074219 0.164062 0.087932 69 94 222
-0.070312 0.164062 0.088333 59 84 210
-0.066406 0.164062 0.088362 64 79 181
-0.062500 0.164062 0.087666 45 58 112
-0.058594 0.164062 0.085900 26 35 62
-0.054688 0.164062 0.084866 15 23 43
-0.050781 0.164062 0.085183 11 17 37
-0.046875 0.164062 0.085995 9 15 39
-0.042969 0.164062 0.086787 10 17 47
-0.039062 0.164062 0.087549 15 24 59
-0.035156 0.164062 0.088306 23 33 70
-0.007812 0.164062 0.099829 59 82 236
-0.003906 0.164062 0.103995 69 95 249
0.000000 0.164062 0.107582 73 98 249
0.003906 0.164062 0.110034 75 102 244
0.007812 0.164062 0.111630 80 107 240
0.011719 0.164062 0.112899 97 122 248
0.015625 0.164062 0.113870 114 139 254
0.019531 0.164062 0.114628 116 141 254
0.023438 0.164062 0.115209 108 133 252
0.027344 0.164062 0.115617 99 123 249
0.031250 0.164062 0.115899 96 119 251
0.035156 0.164062 0.115856 91 113 250
0.039062 0.164062 0.115508 84 107 247
0.042969 0.164062 0.114861 80 105 247
0.046875 0.164062 0.113968 81 108 249
0.050781 0.164062 0.112813 87 114 253
0.054688 0.164062 0.111369 90 119 254
0.058594 0.164062 0.109716 95 127 250
0.062500 0.164062 0.108017 94 125 250
0.066406 0.164062 0.106283 93 124 251
0.070312 0.164062 0.104473 91 121 251
0.074219 0.164062 0.102665 89 119 253
0.078125 0.164062 0.100902 88 116 252
0.082031 0.164062 0.099290 87 114 253
0.085938 0.164062 0.097935 86 113 252
0.089844 0.164062 0.096617 87 114 253
0.093750 0.164062 0.095262 89 115 252
0.097656 0.164062 0.093893 91 118 251
0.101562 0.164062 0.092342 94 121 252
0.105469 0.164062 0.090807 98 126 252
0.109375 0.164062 0.089280 103 129 252
0.113281 0.164062 0.087819 105 131 252
0.117188 0.164062 0.086387 106 132 251
0.121094 0.164062 0.084865 103 124 249
0.125000 0.164062 0.083283 93 114 241
0.128906 0.164062 0.081220 87 108 236
0.132812 0.164062 0.078550 95 114 245
0.136719 0.164062 0.075554 103 121 254
0.140625 0.164062 0.072325 102 120 254
0.144531 0.164062 0.069062 92 110 248
0.148438 0.164062 0.065830 86 102 241
0.152344 0.164062 0.062370 99 115 252
0.156250 0.164062 0.058753 117 133 254
0.160156 0.164062 0.054376 120 134 254
0.164062 0.164062 0.048673 99 114 240
0.167969 0.164062 0.042234 89 105 226
0.171875 0.164062 0.035382 105 122 239
0.175781 0.164062 0.028601 124 140 249
0.179688 0.164062 0.018797 128 145 245
0.183594 0.164062 0.007337 95 113 226
0.187500 0.164062 -0.025534 78 98 204
0.191406 0.164062 -0.042894 123 122 150
0.195312 0.164062 -0.038137 166 128 131
0.199219 0.164062 -0.034394 192 147 135
0.203125 0.164062 -0.031851 208 162 143
0.207031 0.164062 -0.031178 219 170 145
0.210938 0.164062 -0.031475 225 177 151
0.214844 0.164062 -0.031886 226 178 151
0.218750 0.164062 -0.032479 226 175 148
0.222656 0.164062 -0.034056 224 169 142
0.226562 0.164062 -0.036576 220 163 135
0.230469 0.164062 -0.040108 213 157 128
0.234375 0.164062 -0.044032 201 145 115
0.238281 0.164062 -0.049315 177 137 117
-0.210938 0.160156 -0.000925 196 158 127
-0.207031 0.160156 0.015267 204 146 107
-0.203125 0.160156 0.022459 207 141 102
-0.199219 0.160156 0.024637 216 149 109
-0.195312 0.160156 0.022182 222 156 116
-0.191406 0.160156 0.018093 226 160 120
-0.187500 0.160156 0.014808 231 167 128
-0.183594 0.160156 0.011989 235 174 135
-0.179688 0.160156 0.011085 236 177 137
-0.175781 0.160156 0.011649 235 177 138
-0.171875 0.160156 0.012318 232 174 136
-0.167969 0.160156 0.011247 224 163 125
-0.164062 0.160156 0.009866 215 153 116
-0.160156 0.160156 0.010776 196 135 108
-0.156250 0.160156 0.013698 186 146 127
-0.152344 0.160156 0.017200 164 150 135
-0.148438 0.160156 0.022266 39 36 31
-0.144531 0.160156 0.026826 2 1 1
-0.140625 0.160156 0.031761 0 0 0
-0.136719 0.160156 0.035415 4 3 9
-0.132812 0.160156 0.040036 37 37 75
-0.128906 0.160156 0.043318 32 28 64
-0.125000 0.160156 0.045675 36 32 60
-0.121094 0.160156 0.048069 54 53 74
-0.117188 0.160156 0.049773 72 73 88
-0.113281 0.160156 0.051499 86 88 103
-0.109375 0.160156 0.053774 92 97 115
-0.105469 0.160156 0.056602 84 91 116
-0.101562 0.160156 0.060658 63 72 100
-0.097656 0.160156 0.066188 42 49 72
-0.093750 0.160156 0.071113 25 30 47
-0.089844 0.160156 0.074521 24 28 46
-0.085938 0.160156 0.076632 22 26 47
-0.082031 0.160156 0.078046 15 19 39
-0.078125 0.160156 0.079536 12 16 35
-0.074219 0.160156 0.081074 10 13 32
-0.070312 0.160156 0.081939 9 14 33
-0.066406 0.160156 0.082178 10 17 37
-0.062500 0.160156 0.082284 10 20 39
-0.058594 0.160156 0.082884 8 18 33
-0.054688 0.160156 0.084043 6 14 25
-0.007812 0.160156 0.097990 62 82 231
-0.003906 0.160156 0.102305 63 89 243
0.000000 0.160156 0.106606 72 98 246
0.003906 0.160156 0.109660 77 104 244
0.007812 0.160156 0.111463 81 108 240
0.011719 0.160156 0.112739 95 121 244
0.015625 0.160156 0.113740 112 137 254
0.019531 0.160156 0.114534 117 142 254
0.023438 0.160156 0.115112 111 136 254
0.027344 0.160156 0.115528 100 124 248
0.031250 0.160156 0.115848 97 120 250
0.035156 0.160156 0.115858 91 113 250
0.039062 0.160156 0.115615 85 108 248
0.042969 0.160156 0.115075 80 105 247
0.046875 0.160156 0.114276 81 108 247
0.050781 0.160156 0.113213 87 114 253
0.054688 0.160156 0.111869 90 119 254
0.058594 0.160156 0.110315 95 127 250
0.062500 0.160156 0.108612 94 125 250
0.066406 0.160156 0.106847 93 124 251
0.070312 0.160156 0.105096 91 121 251
0.074219 0.160156 0.103293 89 119 253
0.078125 0.160156 0.101506 88 116 252
0.082031 0.160156 0.099868 87 114 253
0.085938 0.160156 0.098495 86 113 252
0.089844 0.160156 0.097163 87 114 253
0.093750 0.160156 0.095791 89 115 252
0.097656 0.160156 0.094408 91 118 251
0.101562 0.160156 0.092855 94 121 252
0.105469 0.160156 0.091333 98 126 252
0.109375 0.160156 0.089810 103 129 252
0.113281 0.160156 0.088356 105 131 252
0.117188 0.160156 0.086958 106 132 251
0.121094 0.160156 0.085492 106 127 252
0.125000 0.160156 0.083996 94 115 240
0.128906 0.160156 0.082029 88 109 236
0.132812 0.160156 0.079472 96 115 244
0.136719 0.160156 0.076585 105 123 254
0.140625 0.160156 0.073407 103 121 254
0.144531 0.160156 0.070168 93 111 247
0.148438 0.160156 0.066967 86 102 239
0.152344 0.160156 0.063518 97 113 250
0.156250 0.160156 0.059888 117 134 254
0.160156 0.160156 0.055488 122 136 254
0.164062 0.160156 0.049891 101 116 242
0.167969 0.160156 0.043550 90 106 227
0.171875 0.160156 0.036792 107 123 240
0.175781 0.160156 0.029721 127 143 251
0.179688 0.160156 0.019892 134 150 247
0.183594 0.160156 0.008561 104 122 235
0.187500 0.160156 -0.015830 77 96 208
0.191406 0.160156 -0.041315 109 113 162
0.195312 0.160156 -0.037181 164 128 136
0.199219 0.160156 -0.033550 191 146 139
0.203125 0.160156 -0.030964 207 161 144
0.207031 0.160156 -0.030159 218 170 145
0.210938 0.160156 -0.030361 224 177 151
0.214844 0.160156 -0.030749 226 178 152
0.218750 0.160156 -0.031235 226 176 149
0.222656 0.160156 -0.032624 224 170 142
0.226562 0.160156 -0.035289 222 164 136
0.230469 0.160156 -0.038804 215 158 128
0.234375 0.160156 -0.042186 202 145 115
0.238281 0.160156 -0.048953 179 137 117
-0.214844 0.156250 -0.013327 142 109 95
-0.210938 0.156250 0.003946 191 145 114
-0.207031 0.156250 0.018312 208 150 108
-0.203125 0.156250 0.025625 211 145 104
-0.199219 0.156250 0.027793 218 151 111
-0.195312 0.156250 0.025698 224 159 118
-0.191406 0.156250 0.021840 228 163 123
-0.187500 0.156250 0.017822 232 170 130
-0.183594 0.156250 0.013212 236 176 136
-0.179688 0.156250 0.009495 235 176 137
-0.175781 0.156250 0.006488 232 174 135
-0.171875 0.156250 0.005707 228 171 133
-0.167969 0.156250 0.005960 217 158 122
-0.164062 0.156250 0.006098 208 151 119
-0.160156 0.156250 0.010677 187 139 123
-0.156250 0.156250 0.017008 147 123 115
-0.152344 0.156250 0.020607 61 53 50
-0.148438 0.156250 0.025575 1 1 1
-0.144531 0.156250 0.029165 0 0 0
-0.140625 0.156250 0.033470 0 0 0
-0.136719 0.156250 0.036678 0 0 1
-0.132812 0.156250 0.040007 7 5 17
-0.128906 0.156250 0.042347 14 13 39
-0.125000 0.156250 0.043681 29 29 64
-0.121094 0.156250 0.045297 38 40 72
-0.117188 0.156250 0.046809 37 40 70
-0.113281 0.156250 0.048916 39 44 77
-0.109375 0.156250 0.051478 39 46 82
-0.105469 0.156250 0.054555 29 37 77
-0.101562 0.156250 0.058423 12 18 46
-0.097656 0.156250 0.062725 2 4 13
-0.093750 0.156250 0.066501 0 0 2
-0.089844 0.156250 0.069354 0 0 0
-0.003906 0.156250 0.100697 58 84 236
0.000000 0.156250 0.105495 70 96 244
0.003906 0.156250 0.109049 78 105 245
0.007812 0.156250 0.111085 81 108 238
0.011719 0.156250 0.112498 94 120 242
0.015625 0.156250 0.113530 112 137 254
0.019531 0.156250 0.114364 119 144 254
0.023438 0.156250 0.114937 115 140 254
0.027344 0.156250 0.115365 100 124 248
0.031250 0.156250 0.115720 97 120 250
0.035156 0.156250 0.115791 92 114 251
0.039062 0.156250 0.115662 85 108 248
0.042969 0.156250 0.115234 80 106 245
0.046875 0.156250 0.114536 81 108 247
0.050781 0.156250 0.113566 86 113 252
0.054688 0.156250 0.112301 90 119 254
0.058594 0.156250 0.110839 95 127 250
0.062500 0.156250 0.109238 94 125 250
0.066406 0.156250 0.107520 93 124 251
0.070312 0.156250 0.105720 91 121 251
0.074219 0.156250 0.103931 89 119 253
0.078125 0.156250 0.102140 88 116 252
0.082031 0.156250 0.100481 87 114 253
0.085938 0.156250 0.099088 86 113 252
0.089844 0.156250 0.097735 87 114 253
0.093750 0.156250 0.096352 89 115 252
0.097656 0.156250 0.094968 91 118 251
0.101562 0.156250 0.093420 94 121 252
0.105469 0.156250 0.091892 98 126 252
0.109375 0.156250 0.090356 103 129 252
0.113281 0.156250 0.088903 105 131 252
0.117188 0.156250 0.087532 106 132 251
0.121094 0.156250 0.086112 108 129 254
0.125000 0.156250 0.084687 96 117 242
0.128906 0.156250 0.082805 89 110 237
0.132812 0.156250 0.080351 97 116 245
0.136719 0.156250 0.077566 107 126 254
0.140625 0.156250 0.074440 105 123 254
0.144531 0.156250 0.071229 94 112 248
0.148438 0.156250 0.068051 87 103 240
0.152344 0.156250 0.064610 90 106 241
0.156250 0.156250 0.060971 111 128 254
0.160156 0.156250 0.056545 118 133 254
0.164062 0.156250 0.051046 98 113 238
0.167969 0.156250 0.044794 87 103 223
0.171875 0.156250 0.038248 101 118 233
0.175781 0.156250 0.030883 121 138 250
0.179688 0.156250 0.021205 129 147 250
0.183594 0.156250 0.010203 110 127 239
0.187500 0.156250 -0.007801 75 93 212
0.191406 0.156250 -0.038639 89 98 178
0.195312 0.156250 -0.036266 158 126 140
0.199219 0.156250 -0.032818 187 146 142
0.203125 0.156250 -0.030121 205 159 144
0.207031 0.156250 -0.029174 218 170 146
0.210938 0.156250 -0.029300 224 178 152
0.214844 0.156250 -0.029632 226 180 153
0.218750 0.156250 -0.030094 226 178 150
0.222656 0.156250 -0.031432 225 171 143
0.226562 0.156250 -0.034075 223 166 137
0.230469 0.156250 -0.037428 217 159 129
0.234375 0.156250 -0.040397 204 145 115
0.238281 0.156250 -0.046689 180 135 116
-0.214844 0.152344 -0.007699 153 116 102
-0.210938 0.152344 0.008116 183 129 102
-0.207031 0.152344 0.021007 207 145 105
-0.203125 0.152344 0.028437 214 147 105
-0.199219 0.152344 0.030589 221 154 112
-0.195312 0.152344 0.029475 226 162 120
-0.191406 0.152344 0.026689 230 166 125
-0.187500 0.152344 0.023454 234 172 131
-0.183594 0.152344 0.018038 236 177 136
-0.179688 0.152344 0.010804 234 175 135
-0.175781 0.152344 0.004437 228 168 129
-0.171875 0.152344 0.000837 222 163 126
-0.167969 0.152344 0.001086 207 148 115
-0.164062 0.152344 0.001645 200 148 124
-0.160156 0.152344 0.012321 190 160 150
-0.156250 0.152344 0.022703 117 115 105
-0.152344 0.152344 0.024676 12 10 10
-0.148438 0.152344 0.028444 0 0 0
-0.144531 0.152344 0.031551 0 0 0
-0.140625 0.152344 0.035407 0 0 0
-0.136719 0.152344 0.038144 0 0 0
-0.132812 0.152344 0.040921 3 2 7
-0.128906 0.152344 0.042639 11 11 29
-0.125000 0.152344 0.043734 23 25 52
-0.121094 0.152344 0.045231 18 21 46
-0.117188 0.152344 0.046833 12 16 40
-0.003906 0.152344 0.099039 61 87 238
0.000000 0.152344 0.104048 63 89 236
0.003906 0.152344 0.108030 70 97 237
0.007812 0.152344 0.110447 83 110 240
0.011719 0.152344 0.112122 98 124 246
0.015625 0.152344 0.113274 107 132 249
0.019531 0.152344 0.114119 112 137 253
0.023438 0.152344 0.114685 115 140 254
0.027344 0.152344 0.115132 104 128 252
0.031250 0.152344 0.115523 97 120 250
0.035156 0.152344 0.115658 91 113 248
0.039062 0.152344 0.115652 87 110 248
0.042969 0.152344 0.115347 82 108 247
0.046875 0.152344 0.114756 81 108 247
0.050781 0.152344 0.113890 88 116 252
0.054688 0.152344 0.112717 96 125 254
0.058594 0.152344 0.111341 96 128 251
0.062500 0.152344 0.109824 96 127 252
0.066406 0.152344 0.108190 94 125 252
0.070312 0.152344 0.106434 92 122 252
0.074219 0.152344 0.104614 90 120 254
0.078125 0.152344 0.102794 89 117 253
0.082031 0.152344 0.101115 87 114 253
0.085938 0.152344 0.099712 86 113 252
0.089844 0.152344 0.098357 88 115 254
0.093750 0.152344 0.096977 90 116 253
0.097656 0.152344 0.095582 92 119 252
0.101562 0.152344 0.094026 94 121 252
0.105469 0.152344 0.092502 95 123 249
0.109375 0.152344 0.090964 100 126 249
0.113281 0.152344 0.089514 105 131 252
0.117188 0.152344 0.088160 108 134 253
0.121094 0.152344 0.086769 109 131 253
0.125000 0.152344 0.085396 100 121 246
0.128906 0.152344 0.083591 91 112 239
0.132812 0.152344 0.081238 95 114 243
0.136719 0.152344 0.078554 105 124 254
0.140625 0.152344 0.075490 108 126 254
0.144531 0.152344 0.072313 97 115 251
0.148438 0.152344 0.069152 84 100 237
0.152344 0.152344 0.065718 85 101 236
0.156250 0.152344 0.062077 100 117 249
0.160156 0.152344 0.057661 114 129 254
0.164062 0.152344 0.052272 101 116 241
0.167969 0.152344 0.046116 84 100 220
0.171875 0.152344 0.039882 99 116 231
0.175781 0.152344 0.032185 125 142 252
0.179688 0.152344 0.022874 131 149 250
0.183594 0.152344 0.012572 102 118 232
0.187500 0.152344 -0.001491 76 90 215
0.191406 0.152344 -0.033959 77 88 190
0.195312 0.152344 -0.035659 148 120 141
0.199219 0.152344 -0.032061 181 142 142
0.203125 0.152344 -0.029302 202 157 144
0.207031 0.152344 -0.028305 217 168 146
0.210938 0.152344 -0.028364 224 179 153
0.214844 0.152344 -0.028601 226 181 154
0.218750 0.152344 -0.029010 226 178 150
0.222656 0.152344 -0.030332 225 172 144
0.226562 0.152344 -0.032866 223 168 139
0.230469 0.152344 -0.035988 218 160 131
0.234375 0.152344 -0.038951 206 147 117
0.238281 0.152344 -0.044814 183 138 119
-0.214844 0.148438 -0.002420 202 177 153
-0.210938 0.148438 0.012415 191 137 106
-0.207031 0.148438 0.023899 209 145 105
-0.203125 0.148438 0.030840 216 149 107
-0.199219 0.148438 0.032795 223 156 114
-0.195312 0.148438 0.032513 228 165 122
-0.191406 0.148438 0.031213 232 169 127
-0.187500 0.148438 0.029573 235 174 133
-0.183594 0.148438 0.024669 235 176 134
-0.179688 0.148438 0.014899 232 171 130
-0.175781 0.148438 0.005352 224 159 121
-0.171875 0.148438 -0.000972 213 152 116
-0.167969 0.148438 -0.001683 195 139 110
-0.164062 0.148438 -0.001146 188 149 131
-0.160156 0.148438 0.014650 185 168 160
-0.156250 0.148438 0.027374 82 77 68
-0.152344 0.148438 0.028685 3 2 2
-0.148438 0.148438 0.030863 0 0 0
-0.144531 0.148438 0.033928 0 0 0
0.000000 0.148438 0.102465 66 91 237
0.003906 0.148438 0.106908 67 93 231
0.007812 0.148438 0.109753 80 106 236
0.011719 0.148438 0.111755 99 124 244
0.015625 0.148438 0.113091 111 136 253
0.019531 0.148438 0.113988 113 138 254
0.023438 0.148438 0.114535 111 136 254
0.027344 0.148438 0.114986 105 129 251
0.031250 0.148438 0.115402 98 121 249
0.035156 0.148438 0.115596 91 113 248
0.039062 0.148438 0.115701 87 110 248
0.042969 0.148438 0.115508 82 108 247
0.046875 0.148438 0.115015 81 108 247
0.050781 0.148438 0.114241 87 115 251
0.054688 0.148438 0.113151 95 124 254
0.058594 0.148438 0.111856 97 129 252
0.062500 0.148438 0.110414 96 127 252
0.066406 0.148438 0.108840 95 126 253
0.070312 0.148438 0.107131 93 123 253
0.074219 0.148438 0.105332 90 120 254
0.078125 0.148438 0.103527 89 117 253
0.082031 0.148438 0.101843 88 115 254
0.085938 0.148438 0.100409 87 114 253
0.089844 0.148438 0.099029 88 115 254
0.093750 0.148438 0.097625 91 117 254
0.097656 0.148438 0.096213 92 119 252
0.101562 0.148438 0.094660 94 121 252
0.105469 0.148438 0.093135 95 123 249
0.109375 0.148438 0.091593 100 126 249
0.113281 0.148438 0.090142 105 131 252
0.117188 0.148438 0.088804 108 134 253
0.121094 0.148438 0.087444 110 132 254
0.125000 0.148438 0.086113 101 123 245
0.128906 0.148438 0.084368 92 113 238
0.132812 0.148438 0.082100 95 114 243
0.136719 0.148438 0.079501 104 123 254
0.140625 0.148438 0.076507 109 127 254
0.144531 0.148438 0.073377 98 116 250
0.148438 0.148438 0.070225 84 100 235
0.152344 0.148438 0.066791 86 102 237
0.156250 0.148438 0.063172 100 117 249
0.160156 0.148438 0.058808 115 130 254
0.164062 0.148438 0.053535 107 122 247
0.167969 0.148438 0.047528 94 110 230
0.171875 0.148438 0.041366 106 123 238
0.175781 0.148438 0.033587 126 144 252
0.179688 0.148438 0.024806 129 146 251
0.183594 0.148438 0.015102 100 115 227
0.187500 0.148438 0.002889 84 100 223
0.191406 0.148438 -0.025651 82 93 202
0.195312 0.148438 -0.034991 142 118 141
0.199219 0.148438 -0.031190 178 141 142
0.203125 0.148438 -0.028649 200 155 144
0.207031 0.148438 -0.027519 215 166 145
0.210938 0.148438 -0.027441 223 178 152
0.214844 0.148438 -0.027601 225 181 153
0.218750 0.148438 -0.027971 225 178 150
0.222656 0.148438 -0.029216 224 173 145
0.226562 0.148438 -0.031670 224 169 141
0.230469 0.148438 -0.034674 219 162 134
0.234375 0.148438 -0.037522 208 150 120
0.238281 0.148438 -0.042589 188 143 123
-0.214844 0.144531 0.002665 205 178 154
-0.210938 0.144531 0.017154 193 138 103
-0.207031 0.144531 0.026850 212 147 105
-0.203125 0.144531 0.032916 219 152 110
-0.199219 0.144531 0.034638 226 160 116
-0.195312 0.144531 0.034755 231 168 124
-0.191406 0.144531 0.034527 234 173 129
-0.187500 0.144531 0.034480 235 175 133
-0.183594 0.144531 0.031677 234 171 129
-0.179688 0.144531 0.021103 229 164 124
-0.175781 0.144531 0.008335 220 154 116
-0.171875 0.144531 -0.000333 210 153 117
-0.167969 0.144531 -0.002508 193 150 124
-0.164062 0.144531 -0.001298 177 156 140
-0.160156 0.144531 0.018098 157 149 138
0.000000 0.144531 0.101093 71 96 239
0.003906 0.144531 0.105874 66 93 230
0.007812 0.144531 0.109124 77 104 231
0.011719 0.144531 0.111485 98 124 243
0.015625 0.144531 0.113044 114 138 252
0.019531 0.144531 0.114038 114 139 253
0.023438 0.144531 0.114539 108 133 251
0.027344 0.144531 0.114974 105 129 251
0.031250 0.144531 0.115414 99 122 250
0.035156 0.144531 0.115673 92 114 249
0.039062 0.144531 0.115884 87 110 248
0.042969 0.144531 0.115791 82 108 245
0.046875 0.144531 0.115391 80 108 244
0.050781 0.144531 0.114703 86 114 250
0.054688 0.144531 0.113693 93 123 254
0.058594 0.144531 0.112478 97 129 252
0.062500 0.144531 0.111106 97 128 253
0.066406 0.144531 0.109589 95 126 253
0.070312 0.144531 0.107907 93 123 253
0.074219 0.144531 0.106120 91 121 254
0.078125 0.144531 0.104313 91 119 254
0.082031 0.144531 0.102619 89 116 254
0.085938 0.144531 0.101164 88 115 254
0.089844 0.144531 0.099752 88 115 254
0.093750 0.144531 0.098319 91 117 254
0.097656 0.144531 0.096880 93 120 253
0.101562 0.144531 0.095315 94 121 252
0.105469 0.144531 0.093773 95 123 249
0.109375 0.144531 0.092216 100 126 249
0.113281 0.144531 0.090755 104 130 251
0.117188 0.144531 0.089430 108 134 253
0.121094 0.144531 0.088109 110 132 254
0.125000 0.144531 0.086818 103 125 247
0.128906 0.144531 0.085125 95 116 241
0.132812 0.144531 0.082931 95 114 242
0.136719 0.144531 0.080415 104 123 252
0.140625 0.144531 0.077506 109 128 254
0.144531 0.144531 0.074445 99 117 251
0.148438 0.144531 0.071312 85 101 236
0.152344 0.144531 0.067892 88 105 237
0.156250 0.144531 0.064304 100 117 247
0.160156 0.144531 0.060006 117 132 254
0.164062 0.144531 0.054808 114 130 252
0.167969 0.144531 0.048955 103 120 237
0.171875 0.144531 0.042891 111 128 241
0.175781 0.144531 0.035526 127 145 252
0.179688 0.144531 0.027068 129 147 250
0.183594 0.144531 0.018053 102 117 230
0.187500 0.144531 0.006632 95 108 232
0.191406 0.144531 -0.015722 86 95 202
0.195312 0.144531 -0.034474 133 115 140
0.199219 0.144531 -0.030434 173 141 143
0.203125 0.144531 -0.028175 197 153 143
0.207031 0.144531 -0.026879 214 165 145
0.210938 0.144531 -0.026644 224 179 152
0.214844 0.144531 -0.026705 225 181 152
0.218750 0.144531 -0.027064 225 178 149
0.222656 0.144531 -0.028227 224 174 145
0.226562 0.144531 -0.030565 224 171 143
0.230469 0.144531 -0.033425 220 163 136
0.234375 0.144531 -0.036054 209 151 123
0.238281 0.144531 -0.040346 190 147 127
-0.214844 0.140625 0.007409 206 177 146
-0.210938 0.140625 0.021656 195 138 102
-0.207031 0.140625 0.029862 214 148 107
-0.203125 0.140625 0.035046 222 155 113
-0.199219 0.140625 0.036499 228 163 119
-0.195312 0.140625 0.036982 232 171 126
-0.191406 0.140625 0.037579 235 175 131
-0.187500 0.140625 0.038548 235 175 132
-0.183594 0.140625 0.036825 231 166 124
-0.179688 0.140625 0.025871 226 158 119
-0.175781 0.140625 0.011890 214 148 109
-0.171875 0.140625 0.002267 202 145 112
-0.167969 0.140625 -0.000523 182 141 127
0.000000 0.140625 0.099721 67 88 213
0.003906 0.140625 0.104538 71 97 231
0.007812 0.140625 0.108380 78 104 231
0.011719 0.140625 0.111159 96 121 240
0.015625 0.140625 0.112992 112 137 251
0.019531 0.140625 0.114097 114 140 252
0.023438 0.140625 0.114565 108 133 249
0.027344 0.140625 0.114970 105 129 251
0.031250 0.140625 0.115429 99 122 250
0.035156 0.140625 0.115747 93 115 250
0.039062 0.140625 0.116055 88 112 248
0.042969 0.140625 0.116058 82 108 245
0.046875 0.140625 0.115755 79 107 243
0.050781 0.140625 0.115156 84 112 247
0.054688 0.140625 0.114233 91 121 254
0.058594 0.140625 0.113106 98 130 253
0.062500 0.140625 0.111812 97 128 253
0.066406 0.140625 0.110353 96 127 254
0.070312 0.140625 0.108700 94 124 254
0.074219 0.140625 0.106930 92 122 254
0.078125 0.140625 0.105127 92 120 254
0.082031 0.140625 0.103423 90 117 254
0.085938 0.140625 0.101946 90 117 254
0.089844 0.140625 0.100507 89 116 254
0.093750 0.140625 0.099047 91 117 254
0.097656 0.140625 0.097583 93 120 253
0.101562 0.140625 0.096014 94 121 252
0.105469 0.140625 0.094466 95 123 249
0.109375 0.140625 0.092900 100 126 249
0.113281 0.140625 0.091434 104 130 251
0.117188 0.140625 0.090116 107 133 252
0.121094 0.140625 0.088818 111 133 253
0.125000 0.140625 0.087556 106 128 250
0.128906 0.140625 0.085905 98 119 244
0.132812 0.140625 0.083767 95 114 242
0.136719 0.140625 0.081317 103 122 251
0.140625 0.140625 0.078488 110 129 254
0.144531 0.140625 0.075499 101 119 253
0.148438 0.140625 0.072382 86 102 237
0.152344 0.140625 0.068967 90 107 239
0.156250 0.140625 0.065411 100 117 247
0.160156 0.140625 0.061206 118 133 254
0.164062 0.140625 0.056109 118 134 254
0.167969 0.140625 0.050440 103 120 237
0.171875 0.140625 0.044460 109 126 239
0.175781 0.140625 0.037695 127 145 252
0.179688 0.140625 0.029410 136 154 250
0.183594 0.140625 0.021093 117 129 242
0.187500 0.140625 0.010249 97 109 232
0.191406 0.140625 -0.006481 81 91 200
0.195312 0.140625 -0.032050 125 117 145
0.199219 0.140625 -0.030078 170 145 147
0.203125 0.140625 -0.027987 193 149 142
0.207031 0.140625 -0.026484 213 164 145
0.210938 0.140625 -0.025990 223 179 152
0.214844 0.140625 -0.025913 224 180 151
0.218750 0.140625 -0.026242 224 178 149
0.222656 0.140625 -0.027282 224 175 146
0.226562 0.140625 -0.029469 224 172 144
0.230469 0.140625 -0.032188 219 163 138
0.234375 0.140625 -0.034718 210 152 125
0.238281 0.140625 -0.038705 192 151 130
-0.218750 0.136719 -0.005432 108 82 94
-0.214844 0.136719 0.011683 203 169 134
-0.210938 0.136719 0.025555 197 138 101
-0.207031 0.136719 0.032903 216 149 107
-0.203125 0.136719 0.037339 224 158 115
-0.199219 0.136719 0.038492 230 165 121
-0.195312 0.136719 0.039380 233 172 127
-0.191406 0.136719 0.040898 235 175 131
-0.187500 0.136719 0.042485 234 173 130
-0.183594 0.136719 0.040317 227 159 118
-0.179688 0.136719 0.028987 219 149 112
-0.175781 0.136719 0.014723 202 131 98
-0.171875 0.136719 0.005889 180 117 98
-0.167969 0.136719 0.003462 164 121 123
0.000000 0.136719 0.098388 55 72 171
0.003906 0.136719 0.102839 78 104 236
0.007812 0.136719 0.107443 82 108 234
0.011719 0.136719 0.110745 92 118 236
0.015625 0.136719 0.112921 107 131 245
0.019531 0.136719 0.114147 112 138 250
0.023438 0.136719 0.114574 111 136 251
0.027344 0.136719 0.114962 104 128 250
0.031250 0.136719 0.115447 98 121 249
0.035156 0.136719 0.115821 92 115 247
0.039062 0.136719 0.116224 88 112 248
0.042969 0.136719 0.116322 82 108 245
0.046875 0.136719 0.116109 79 107 243
0.050781 0.136719 0.115600 84 112 247
0.054688 0.136719 0.114779 90 120 254
0.058594 0.136719 0.113753 97 129 252
0.062500 0.136719 0.112544 96 127 252
0.066406 0.136719 0.111151 95 126 253
0.070312 0.136719 0.109531 94 124 254
0.074219 0.136719 0.107778 92 122 254
0.078125 0.136719 0.105976 92 120 254
0.082031 0.136719 0.104260 91 118 254
0.085938 0.136719 0.102756 90 117 254
0.089844 0.136719 0.101280 90 117 254
0.093750 0.136719 0.099786 92 118 254
0.097656 0.136719 0.098300 93 120 253
0.101562 0.136719 0.096728 94 121 252
0.105469 0.136719 0.095177 95 123 249
0.109375 0.136719 0.093604 99 125 248
0.113281 0.136719 0.092133 103 129 250
0.117188 0.136719 0.090820 107 133 252
0.121094 0.136719 0.089537 112 134 254
0.125000 0.136719 0.088300 109 131 253
0.128906 0.136719 0.086703 101 122 247
0.132812 0.136719 0.084616 96 115 243
0.136719 0.136719 0.082210 102 121 250
0.140625 0.136719 0.079453 110 129 254
0.144531 0.136719 0.076543 102 120 254
0.148438 0.136719 0.073462 87 103 238
0.152344 0.136719 0.070064 91 108 240
0.156250 0.136719 0.066535 99 116 246
0.160156 0.136719 0.062399 118 133 254
0.164062 0.136719 0.057420 118 134 254
0.167969 0.136719 0.051916 101 118 235
0.171875 0.136719 0.046132 103 120 233
0.175781 0.136719 0.039650 126 144 252
0.179688 0.136719 0.031689 143 161 251
0.183594 0.136719 0.023827 128 140 249
0.187500 0.136719 0.013772 92 102 227
0.191406 0.136719 0.001367 72 82 201
0.195312 0.136719 -0.026463 109 113 157
0.199219 0.136719 -0.030238 164 144 148
0.203125 0.136719 -0.027940 188 145 140
0.207031 0.136719 -0.026166 210 160 142
0.210938 0.136719 -0.025349 222 177 151
0.214844 0.136719 -0.025163 223 179 149
0.218750 0.136719 -0.025425 223 177 148
0.222656 0.136719 -0.026320 224 175 146
0.226562 0.136719 -0.028389 224 172 145
0.230469 0.136719 -0.030929 219 164 140
0.234375 0.136719 -0.033404 210 153 127
0.238281 0.136719 -0.037312 193 154 133
-0.218750 0.132812 -0.000688 137 102 103
-0.214844 0.132812 0.016245 202 158 125
-0.210938 0.132812 0.029816 199 137 100
-0.207031 0.132812 0.036083 218 150 108
-0.203125 0.132812 0.039839 226 160 116
-0.199219 0.132812 0.040856 232 167 123
-0.195312 0.132812 0.042186 234 172 127
-0.191406 0.132812 0.044985 234 174 130
-0.187500 0.132812 0.047111 231 170 127
-0.183594 0.132812 0.044453 221 151 113
-0.179688 0.132812 0.032976 212 141 107
-0.175781 0.132812 0.017744 193 130 101
-0.171875 0.132812 0.010338 181 134 117
0.003906 0.132812 0.101091 84 110 238
0.007812 0.132812 0.106284 86 112 237
0.011719 0.132812 0.110220 92 117 232
0.015625 0.132812 0.112819 104 128 241
0.019531 0.132812 0.114227 112 138 249
0.023438 0.132812 0.114605 113 138 253
0.027344 0.132812 0.114968 102 127 246
0.031250 0.132812 0.115476 97 121 247
0.035156 0.132812 0.115901 92 115 247
0.039062 0.132812 0.116397 88 112 248
0.042969 0.132812 0.116582 83 109 246
0.046875 0.132812 0.116462 79 107 243
0.050781 0.132812 0.116042 84 112 247
0.054688 0.132812 0.115324 90 120 254
0.058594 0.132812 0.114400 96 128 251
0.062500 0.132812 0.113281 95 126 251
0.066406 0.132812 0.111956 94 125 252
0.070312 0.132812 0.110372 93 123 253
0.074219 0.132812 0.108640 92 122 254
0.078125 0.132812 0.106843 92 120 254
0.082031 0.132812 0.105120 91 118 254
0.085938 0.132812 0.103592 90 117 254
0.089844 0.132812 0.102080 90 117 254
0.093750 0.132812 0.100554 92 118 254
0.097656 0.132812 0.099041 94 121 254
0.101562 0.132812 0.097463 94 121 252
0.105469 0.132812 0.095906 95 123 249
0.109375 0.132812 0.094323 99 125 248
0.113281 0.132812 0.092845 103 129 250
0.117188 0.132812 0.091539 106 132 251
0.121094 0.132812 0.090271 112 134 254
0.125000 0.132812 0.089055 112 134 254
0.128906 0.132812 0.087493 104 126 248
0.132812 0.132812 0.085437 96 115 243
0.136719 0.132812 0.083058 101 120 249
0.140625 0.132812 0.080351 111 130 254
0.144531 0.132812 0.077506 104 123 254
0.148438 0.132812 0.074468 88 105 237
0.152344 0.132812 0.071116 89 106 238
0.156250 0.132812 0.067620 95 112 242
0.160156 0.132812 0.063561 115 130 254
0.164062 0.132812 0.058679 121 137 253
0.167969 0.132812 0.053296 104 121 238
0.171875 0.132812 0.047785 102 119 232
0.175781 0.132812 0.041644 123 141 250
0.179688 0.132812 0.034208 141 158 251
0.183594 0.132812 0.026805 128 139 249
0.187500 0.132812 0.017342 83 92 219
0.191406 0.132812 0.006788 62 72 202
0.195312 0.132812 -0.019309 84 95 180
0.199219 0.132812 -0.030777 146 131 146
0.203125 0.132812 -0.028033 184 140 140
0.207031 0.132812 -0.026097 208 158 141
0.210938 0.132812 -0.024889 220 176 149
0.214844 0.132812 -0.024484 222 178 148
0.218750 0.132812 -0.024677 222 177 148
0.222656 0.132812 -0.025417 223 175 146
0.226562 0.132812 -0.027381 223 171 145
0.230469 0.132812 -0.029772 220 164 142
0.234375 0.132812 -0.032163 210 153 129
0.238281 0.132812 -0.036024 193 155 135
-0.218750 0.128906 0.004840 186 152 130
-0.214844 0.128906 0.021925 210 166 128
-0.210938 0.128906 0.034466 205 141 103
-0.207031 0.128906 0.039470 221 152 109
-0.203125 0.128906 0.042547 228 162 118
-0.199219 0.128906 0.043751 232 168 124
-0.195312 0.128906 0.045713 233 171 126
-0.191406 0.128906 0.049502 232 169 126
-0.187500 0.128906 0.051978 227 163 121
-0.183594 0.128906 0.048906 211 139 104
-0.179688 0.128906 0.037572 197 128 100
-0.175781 0.128906 0.021773 175 120 101
-0.171875 0.128906 0.015634 150 121 109
0.003906 0.128906 0.099521 83 109 232
0.007812 0.128906 0.104946 87 113 236
0.011719 0.128906 0.109643 92 117 232
0.015625 0.128906 0.112729 104 128 240
0.019531 0.128906 0.114350 111 136 247
0.023438 0.128906 0.114683 110 135 250
0.027344 0.128906 0.115015 100 125 244
0.031250 0.128906 0.115551 95 119 245
0.035156 0.128906 0.116032 91 114 246
0.039062 0.128906 0.116617 88 112 248
0.042969 0.128906 0.116889 83 109 246
0.046875 0.128906 0.116861 80 108 243
0.050781 0.128906 0.116538 85 113 248
0.054688 0.128906 0.115922 90 120 254
0.058594 0.128906 0.115098 94 126 249
0.062500 0.128906 0.114060 94 125 250
0.066406 0.128906 0.112799 93 124 251
0.070312 0.128906 0.111253 92 122 252
0.074219 0.128906 0.109544 91 121 254
0.078125 0.128906 0.107758 91 119 254
0.082031 0.128906 0.106030 90 117 254
0.085938 0.128906 0.104478 90 117 254
0.089844 0.128906 0.102934 90 117 254
0.093750 0.128906 0.101377 93 119 254
0.097656 0.128906 0.099839 94 121 254
0.101562 0.128906 0.098258 94 121 252
0.105469 0.128906 0.096696 95 123 249
0.109375 0.128906 0.095104 99 125 248
0.113281 0.128906 0.093618 103 129 250
0.117188 0.128906 0.092320 106 132 251
0.121094 0.128906 0.091064 113 135 253
0.125000 0.128906 0.089862 114 136 253
0.128906 0.128906 0.088321 106 128 249
0.132812 0.128906 0.086273 96 116 241
0.136719 0.128906 0.083910 100 119 248
0.140625 0.128906 0.081252 111 130 254
0.144531 0.128906 0.078459 105 124 254
0.148438 0.128906 0.075477 89 106 238
0.152344 0.128906 0.072209 85 102 234
0.156250 0.128906 0.068770 88 106 234
0.160156 0.128906 0.064761 111 126 253
0.164062 0.128906 0.059974 127 143 253
0.167969 0.128906 0.054742 118 135 252
0.171875 0.128906 0.049414 110 126 240
0.175781 0.128906 0.043489 119 137 246
0.179688 0.128906 0.036703 128 146 252
0.183594 0.128906 0.029599 118 129 245
0.187500 0.128906 0.020913 81 91 219
0.191406 0.128906 0.010763 63 73 212
0.195312 0.128906 -0.010899 71 85 203
0.199219 0.128906 -0.031535 122 115 156
0.203125 0.128906 -0.028576 180 136 143
0.207031 0.128906 -0.026453 205 157 143
0.210938 0.128906 -0.024738 218 174 148
0.214844 0.128906 -0.023970 220 177 147
0.218750 0.128906 -0.023999 221 176 147
0.222656 0.128906 -0.024602 222 174 146
0.226562 0.128906 -0.026416 223 171 146
0.230469 0.128906 -0.028649 220 164 143
0.234375 0.128906 -0.030914 210 153 130
0.238281 0.128906 -0.034820 194 155 136
-0.218750 0.125000 0.010563 183 141 115
-0.214844 0.125000 0.028278 207 156 118
-0.210938 0.125000 0.038832 209 142 103
-0.207031 0.125000 0.042849 224 155 112
-0.203125 0.125000 0.045043 230 164 120
-0.199219 0.125000 0.046054 233 168 124
-0.195312 0.125000 0.048682 232 168 124
-0.191406 0.125000 0.053340 228 163 120
-0.187500 0.125000 0.056223 222 156 116
-0.183594 0.125000 0.053213 202 133 102
-0.179688 0.125000 0.042145 192 136 111
-0.175781 0.125000 0.027528 175 140 127
0.003906 0.125000 0.098281 81 106 228
0.007812 0.125000 0.103674 87 113 235
0.011719 0.125000 0.109074 94 119 232
0.015625 0.125000 0.112641 106 129 240
0.019531 0.125000 0.114483 111 136 245
0.023438 0.125000 0.114779 107 132 246
0.027344 0.125000 0.115090 99 124 242
0.031250 0.125000 0.115655 94 118 244
0.035156 0.125000 0.116185 90 113 245
0.039062 0.125000 0.116846 88 112 248
0.042969 0.125000 0.117196 83 109 246
0.046875 0.125000 0.117253 81 109 244
0.050781 0.125000 0.117026 85 113 248
0.054688 0.125000 0.116522 91 121 253
0.058594 0.125000 0.115797 94 126 249
0.062500 0.125000 0.114843 93 124 249
0.066406 0.125000 0.113645 92 123 250
0.070312 0.125000 0.112141 91 121 251
0.074219 0.125000 0.110468 90 120 254
0.078125 0.125000 0.108704 90 118 254
0.082031 0.125000 0.106977 90 117 254
0.085938 0.125000 0.105400 89 116 254
0.089844 0.125000 0.103823 91 118 254
0.093750 0.125000 0.102231 93 119 254
0.097656 0.125000 0.100664 94 121 254
0.101562 0.125000 0.099072 94 121 252
0.105469 0.125000 0.097497 95 123 249
0.109375 0.125000 0.095889 99 125 248
0.113281 0.125000 0.094394 102 128 249
0.117188 0.125000 0.093100 106 132 251
0.121094 0.125000 0.091853 113 135 253
0.125000 0.125000 0.090656 115 137 253
0.128906 0.125000 0.089123 107 129 250
0.132812 0.125000 0.087060 96 116 240
0.136719 0.125000 0.084689 100 119 247
0.140625 0.125000 0.082065 111 130 253
0.144531 0.125000 0.079311 106 125 254
0.148438 0.125000 0.076394 90 107 239
0.152344 0.125000 0.073221 82 99 231
0.156250 0.125000 0.069859 82 100 228
0.160156 0.125000 0.065941 108 123 250
0.164062 0.125000 0.061244 133 149 253
0.167969 0.125000 0.056132 129 146 252
0.171875 0.125000 0.050969 119 135 249
0.175781 0.125000 0.045274 117 135 244
0.179688 0.125000 0.038979 117 134 242
0.183594 0.125000 0.032024 108 119 236
0.187500 0.125000 0.024169 85 94 224
0.191406 0.125000 0.014312 71 81 224
0.195312 0.125000 -0.002309 67 81 217
0.199219 0.125000 -0.031104 99 99 168
0.203125 0.125000 -0.029365 172 130 141
0.207031 0.125000 -0.027121 202 155 142
0.210938 0.125000 -0.024784 215 171 147
0.214844 0.125000 -0.023591 218 175 146
0.218750 0.125000 -0.023274 219 175 147
0.222656 0.125000 -0.023763 221 172 145
0.226562 0.125000 -0.025461 222 170 146
0.230469 0.125000 -0.027584 220 164 144
0.234375 0.125000 -0.029704 210 153 130
0.238281 0.125000 -0.033570 194 155 136
-0.218750 0.121094 0.015263 185 137 111
-0.214844 0.121094 0.035294 207 147 112
-0.210938 0.121094 0.043663 213 143 106
-0.207031 0.121094 0.046355 227 158 116
-0.203125 0.121094 0.047475 232 166 123
-0.199219 0.121094 0.047719 232 166 123
-0.195312 0.121094 0.050838 230 163 121
-0.191406 0.121094 0.056311 224 154 113
-0.187500 0.121094 0.059663 217 151 113
-0.183594 0.121094 0.057201 194 131 106
-0.179688 0.121094 0.046569 183 139 123
0.003906 0.121094 0.097232 60 72 167
0.007812 0.121094 0.102430 90 106 222
0.011719 0.121094 0.108404 104 120 237
0.015625 0.121094 0.112497 104 120 236
0.019531 0.121094 0.114601 107 124 241
0.023438 0.121094 0.114897 114 131 249
0.027344 0.121094 0.115179 102 122 246
0.031250 0.121094 0.115755 98 119 247
0.035156 0.121094 0.116315 90 114 248
0.039062 0.121094 0.117031 82 108 245
0.042969 0.121094 0.117444 76 104 247
0.046875 0.121094 0.117580 76 106 254
0.050781 0.121094 0.117448 81 112 254
0.054688 0.121094 0.117061 87 118 254
0.058594 0.121094 0.116446 93 123 245
0.062500 0.121094 0.115585 94 124 248
0.066406 0.121094 0.114459 95 124 250
0.070312 0.121094 0.113010 96 125 254
0.074219 0.121094 0.111389 96 124 254
0.078125 0.121094 0.109665 94 122 254
0.082031 0.121094 0.107951 93 120 254
0.085938 0.121094 0.106347 92 119 254
0.089844 0.121094 0.104733 93 120 254
0.093750 0.121094 0.103098 91 119 254
0.097656 0.121094 0.101493 91 120 250
0.101562 0.121094 0.099886 94 123 249
0.105469 0.121094 0.098289 94 124 246
0.109375 0.121094 0.096662 94 125 241
0.113281 0.121094 0.095156 99 131 244
0.117188 0.121094 0.093861 106 138 248
0.121094 0.121094 0.092611 119 139 253
0.125000 0.121094 0.091402 115 134 252
0.128906 0.121094 0.089852 106 125 247
0.132812 0.121094 0.087753 100 119 246
0.136719 0.121094 0.085370 102 121 251
0.140625 0.121094 0.082756 104 124 253
0.144531 0.121094 0.080012 99 118 253
0.148438 0.121094 0.077162 91 110 248
0.152344 0.121094 0.074114 79 101 238
0.156250 0.121094 0.070849 84 106 243
0.160156 0.121094 0.067057 103 125 253
0.164062 0.121094 0.062448 125 148 253
0.167969 0.121094 0.057404 122 147 252
0.171875 0.121094 0.052300 104 130 252
0.175781 0.121094 0.046822 96 122 242
0.179688 0.121094 0.040966 102 128 246
0.183594 0.121094 0.034199 85 109 216
0.187500 0.121094 0.026978 82 100 235
0.191406 0.121094 0.017635 81 88 245
0.195312 0.121094 0.004956 74 79 237
0.199219 0.121094 -0.028910 90 89 187
0.203125 0.121094 -0.030527 165 125 139
0.207031 0.121094 -0.027950 200 154 143
0.210938 0.121094 -0.025072 214 169 147
0.214844 0.121094 -0.023455 217 172 145
0.218750 0.121094 -0.022739 219 174 146
0.222656 0.121094 -0.023079 221 172 144
0.226562 0.121094 -0.024650 223 170 145
0.230469 0.121094 -0.026681 220 165 144
0.234375 0.121094 -0.028669 210 153 131
0.238281 0.121094 -0.032441 195 156 138
-0.222656 0.117188 0.002211 216 197 170
-0.218750 0.117188 0.022553 197 148 117
-0.214844 0.117188 0.041736 210 146 111
-0.210938 0.117188 0.048271 219 148 110
-0.207031 0.117188 0.049024 230 161 119
-0.203125 0.117188 0.048200 233 166 124
-0.199219 0.117188 0.047360 231 164 122
-0.195312 0.117188 0.050778 228 158 118
-0.191406 0.117188 0.057849 217 143 108
-0.187500 0.117188 0.061834 210 145 112
-0.183594 0.117188 0.059653 181 119 105
-0.179688 0.117188 0.049848 127 87 90
0.003906 0.117188 0.096317 20 25 60
0.007812 0.117188 0.101335 70 85 186
0.011719 0.117188 0.107762 97 113 227
0.015625 0.117188 0.112377 106 122 231
0.019531 0.117188 0.114725 109 126 236
0.023438 0.117188 0.115030 110 129 246
0.027344 0.117188 0.115285 99 120 244
0.031250 0.117188 0.115861 95 119 245
0.035156 0.117188 0.116437 89 113 245
0.039062 0.117188 0.117192 82 108 244
0.042969 0.117188 0.117658 78 107 247
0.046875 0.117188 0.117859 77 108 251
0.050781 0.117188 0.117811 80 112 254
0.054688 0.117188 0.117525 83 114 254
0.058594 0.117188 0.117010 93 121 246
0.062500 0.117188 0.116232 94 122 247
0.066406 0.117188 0.115175 94 121 250
0.070312 0.117188 0.113779 95 122 253
0.074219 0.117188 0.112200 95 121 254
0.078125 0.117188 0.110503 93 119 254
0.082031 0.117188 0.108791 92 118 254
0.085938 0.117188 0.107144 91 116 254
0.089844 0.117188 0.105472 92 118 254
0.093750 0.117188 0.103778 90 116 253
0.097656 0.117188 0.102125 90 117 250
0.101562 0.117188 0.100496 93 120 249
0.105469 0.117188 0.098877 94 122 245
0.109375 0.117188 0.097228 93 122 240
0.113281 0.117188 0.095711 98 128 241
0.117188 0.117188 0.094414 105 135 248
0.121094 0.117188 0.093165 118 138 252
0.125000 0.117188 0.091948 114 134 252
0.128906 0.117188 0.090387 107 127 249
0.132812 0.117188 0.088268 100 119 246
0.136719 0.117188 0.085882 101 120 250
0.140625 0.117188 0.083293 103 122 252
0.144531 0.117188 0.080564 98 117 253
0.148438 0.117188 0.077779 90 109 246
0.152344 0.117188 0.074839 81 103 240
0.156250 0.117188 0.071663 86 108 245
0.160156 0.117188 0.067975 103 125 253
0.164062 0.117188 0.063487 121 144 253
0.167969 0.117188 0.058566 116 140 252
0.171875 0.117188 0.053534 100 126 248
0.175781 0.117188 0.048150 97 123 243
0.179688 0.117188 0.042555 107 133 253
0.183594 0.117188 0.036038 94 120 229
0.187500 0.117188 0.029290 90 109 245
0.191406 0.117188 0.020531 84 95 247
0.195312 0.117188 0.009845 75 82 239
0.199219 0.117188 -0.023921 82 85 193
0.203125 0.117188 -0.031740 156 118 137
0.207031 0.117188 -0.028846 198 151 145
0.210938 0.117188 -0.025666 212 165 145
0.214844 0.117188 -0.023590 215 169 142
0.218750 0.117188 -0.022413 218 173 146
0.222656 0.117188 -0.022561 221 171 144
0.226562 0.117188 -0.023994 223 170 145
0.230469 0.117188 -0.025862 220 164 144
0.234375 0.117188 -0.027778 211 154 132
0.238281 0.117188 -0.031484 196 157 140
-0.222656 0.113281 0.007903 212 185 159
-0.218750 0.113281 0.034557 198 142 108
-0.214844 0.113281 0.047289 216 149 110
-0.210938 0.113281 0.052451 225 155 114
-0.207031 0.113281 0.050867 232 164 122
-0.203125 0.113281 0.047446 233 165 123
-0.199219 0.113281 0.045457 229 157 117
-0.195312 0.113281 0.048184 224 151 114
-0.191406 0.113281 0.058479 208 132 101
-0.187500 0.113281 0.063194 200 137 114
-0.183594 0.113281 0.060284 181 133 125
0.003906 0.113281 0.095529 6 7 21
0.007812 0.113281 0.100393 51 64 150
0.011719 0.113281 0.107140 85 103 213
0.015625 0.113281 0.112198 104 121 224
0.019531 0.113281 0.114767 109 127 229
0.023438 0.113281 0.115082 108 127 242
0.027344 0.113281 0.115299 101 122 242
0.031250 0.113281 0.115853 95 119 242
0.035156 0.113281 0.116423 88 113 240
0.039062 0.113281 0.117183 82 109 240
0.042969 0.113281 0.117673 80 108 244
0.046875 0.113281 0.117917 81 110 250
0.050781 0.113281 0.117931 81 112 254
0.054688 0.113281 0.117731 82 113 254
0.058594 0.113281 0.117294 92 120 246
0.062500 0.113281 0.116583 92 120 245
0.066406 0.113281 0.115574 93 120 250
0.070312 0.113281 0.114217 93 120 252
0.074219 0.113281 0.112671 92 118 253
0.078125 0.113281 0.110996 91 117 254
0.082031 0.113281 0.109277 90 115 254
0.085938 0.113281 0.107576 89 114 254
0.089844 0.113281 0.105835 90 115 254
0.093750 0.113281 0.104067 88 114 253
0.097656 0.113281 0.102355 88 114 250
0.101562 0.113281 0.100703 91 118 249
0.105469 0.113281 0.099061 91 119 244
0.109375 0.113281 0.097391 91 120 240
0.113281 0.113281 0.095859 96 125 242
0.117188 0.113281 0.094551 102 131 247
0.121094 0.113281 0.093288 118 139 252
0.125000 0.113281 0.092045 116 136 252
0.128906 0.113281 0.090460 109 129 250
0.132812 0.113281 0.088303 102 121 247
0.136719 0.113281 0.085902 101 120 249
0.140625 0.113281 0.083344 100 120 252
0.144531 0.113281 0.080654 96 114 251
0.148438 0.113281 0.077951 89 108 245
0.152344 0.113281 0.075115 81 103 240
0.156250 0.113281 0.072051 87 109 246
0.160156 0.113281 0.068531 103 125 253
0.164062 0.113281 0.064202 115 138 253
0.167969 0.113281 0.059397 107 132 253
