ply
    format ascii 1.0
    element vertex 34866
    property float x
    property float y
    property float z
    property uchar red
    property uchar green
    property uchar blue
    end_header
0.035156 -0.613281 -0.095693 41 41 38
0.039062 -0.613281 -0.092930 44 44 40
0.042969 -0.613281 -0.090115 43 43 41
0.046875 -0.613281 -0.087294 43 41 40
0.050781 -0.613281 -0.081687 57 51 46
0.054688 -0.613281 -0.071354 43 43 41
-0.160156 -0.617188 -0.044058 22 18 16
-0.156250 -0.617188 -0.057629 30 26 25
-0.152344 -0.617188 -0.065909 32 31 30
-0.148438 -0.617188 -0.071962 35 33 32
-0.144531 -0.617188 -0.077571 38 35 34
-0.140625 -0.617188 -0.081847 38 36 35
-0.136719 -0.617188 -0.085191 37 36 35
-0.132812 -0.617188 -0.087129 35 35 34
-0.128906 -0.617188 -0.089008 35 35 34
-0.125000 -0.617188 -0.090311 34 34 33
-0.121094 -0.617188 -0.089583 34 33 32
-0.117188 -0.617188 -0.087501 34 32 30
-0.113281 -0.617188 -0.084276 33 32 31
-0.109375 -0.617188 -0.079823 36 34 34
-0.003906 -0.617188 -0.033232 40 39 35
0.000000 -0.617188 -0.075705 37 32 31
0.003906 -0.617188 -0.084119 47 46 42
0.007812 -0.617188 -0.087583 46 45 41
0.011719 -0.617188 -0.090959 41 40 37
0.015625 -0.617188 -0.093780 41 41 37
0.019531 -0.617188 -0.095358 42 42 39
0.023438 -0.617188 -0.095902 42 42 39
0.027344 -0.617188 -0.096521 45 44 41
0.031250 -0.617188 -0.096728 44 43 40
0.035156 -0.617188 -0.095716 42 42 38
0.039062 -0.617188 -0.092981 44 43 40
0.042969 -0.617188 -0.090158 42 41 39
0.046875 -0.617188 -0.087660 47 42 40
0.050781 -0.617188 -0.081586 66 49 44
0.054688 -0.617188 -0.073762 42 41 39
-0.160156 -0.621094 -0.045674 22 19 17
-0.156250 -0.621094 -0.058124 32 29 27
-0.152344 -0.621094 -0.066521 35 34 33
-0.148438 -0.621094 -0.072512 38 36 35
-0.144531 -0.621094 -0.077991 39 37 35
-0.140625 -0.621094 -0.082335 39 38 36
-0.136719 -0.621094 -0.085756 37 37 36
-0.132812 -0.621094 -0.087637 35 35 35
-0.128906 -0.621094 -0.089672 36 37 36
-0.125000 -0.621094 -0.090847 40 40 39
-0.121094 -0.621094 -0.090459 42 41 39
-0.117188 -0.621094 -0.087964 39 37 34
-0.113281 -0.621094 -0.084786 39 40 37
-0.109375 -0.621094 -0.054274 54 49 48
0.000000 -0.621094 -0.072659 28 24 25
0.003906 -0.621094 -0.083475 39 38 37
0.007812 -0.621094 -0.087409 38 37 35
0.011719 -0.621094 -0.090274 38 39 36
0.015625 -0.621094 -0.093474 41 42 39
0.019531 -0.621094 -0.094996 43 44 41
0.023438 -0.621094 -0.095662 44 45 41
0.027344 -0.621094 -0.096385 47 47 43
0.031250 -0.621094 -0.096656 49 49 44
0.035156 -0.621094 -0.095682 47 46 42
0.039062 -0.621094 -0.092998 47 46 42
0.042969 -0.621094 -0.090363 44 42 40
0.046875 -0.621094 -0.087774 54 47 43
0.050781 -0.621094 -0.081561 71 45 41
0.054688 -0.621094 -0.074410 13 12 12
-0.160156 -0.625000 -0.046954 20 17 16
-0.156250 -0.625000 -0.058699 32 29 27
-0.152344 -0.625000 -0.066875 37 35 34
-0.148438 -0.625000 -0.072842 42 40 38
-0.144531 -0.625000 -0.078351 43 40 39
-0.140625 -0.625000 -0.082868 44 43 42
-0.136719 -0.625000 -0.086382 46 46 45
-0.132812 -0.625000 -0.088171 45 45 45
-0.128906 -0.625000 -0.090276 43 44 43
-0.125000 -0.625000 -0.091350 44 44 43
-0.121094 -0.625000 -0.091463 43 40 39
-0.117188 -0.625000 -0.087174 37 33 31
-0.113281 -0.625000 -0.081288 18 19 21
0.000000 -0.625000 -0.074556 30 26 28
0.003906 -0.625000 -0.082346 39 37 37
0.007812 -0.625000 -0.087221 35 35 34
0.011719 -0.625000 -0.089749 42 42 39
0.015625 -0.625000 -0.093173 46 47 43
0.019531 -0.625000 -0.094767 46 47 44
0.023438 -0.625000 -0.095526 47 48 43
0.027344 -0.625000 -0.096294 49 49 45
0.031250 -0.625000 -0.096672 50 49 44
0.035156 -0.625000 -0.095749 47 46 42
0.039062 -0.625000 -0.093002 49 48 44
0.042969 -0.625000 -0.090481 47 46 41
0.046875 -0.625000 -0.087827 61 52 46
0.050781 -0.625000 -0.081723 62 41 37
0.054688 -0.625000 -0.073789 19 18 17
-0.160156 -0.628906 -0.047523 21 18 16
-0.156250 -0.628906 -0.058899 32 29 27
-0.152344 -0.628906 -0.067165 37 35 34
-0.148438 -0.628906 -0.073185 44 41 40
-0.144531 -0.628906 -0.078744 43 41 41
-0.140625 -0.628906 -0.083455 44 43 43
-0.136719 -0.628906 -0.087010 49 49 48
-0.132812 -0.628906 -0.088706 50 49 48
-0.128906 -0.628906 -0.090841 45 45 45
-0.125000 -0.628906 -0.091932 43 43 43
-0.121094 -0.628906 -0.092209 42 39 38
-0.117188 -0.628906 -0.086344 47 42 37
-0.113281 -0.628906 -0.082270 33 32 31
0.000000 -0.628906 -0.073642 37 32 31
0.003906 -0.628906 -0.082757 38 35 34
0.007812 -0.628906 -0.086881 33 32 31
0.011719 -0.628906 -0.089523 41 41 38
0.015625 -0.628906 -0.092749 44 45 42
0.019531 -0.628906 -0.094509 45 45 42
0.023438 -0.628906 -0.095391 46 47 42
0.027344 -0.628906 -0.096180 49 49 44
0.031250 -0.628906 -0.096631 48 48 43
0.035156 -0.628906 -0.095776 45 46 41
0.039062 -0.628906 -0.092918 51 50 45
0.042969 -0.628906 -0.090584 48 47 42
0.046875 -0.628906 -0.087886 60 54 47
0.050781 -0.628906 -0.081922 38 29 28
0.054688 -0.628906 -0.075938 10 10 11
0.058594 -0.628906 -0.041403 60 54 47
-0.160156 -0.632812 -0.047373 21 19 17
-0.156250 -0.632812 -0.058958 34 31 29
-0.152344 -0.632812 -0.067370 38 37 36
-0.148438 -0.632812 -0.073456 45 43 42
-0.144531 -0.632812 -0.079157 43 41 42
-0.140625 -0.632812 -0.084003 43 42 42
-0.136719 -0.632812 -0.087592 48 46 46
-0.132812 -0.632812 -0.089284 46 45 45
-0.128906 -0.632812 -0.091458 42 41 42
-0.125000 -0.632812 -0.092397 43 43 43
-0.121094 -0.632812 -0.092457 40 38 37
-0.117188 -0.632812 -0.087051 51 46 40
-0.113281 -0.632812 -0.080710 39 40 37
0.000000 -0.632812 -0.053730 28 24 25
0.003906 -0.632812 -0.082953 34 31 31
0.007812 -0.632812 -0.086048 32 29 29
0.011719 -0.632812 -0.089207 40 41 38
0.015625 -0.632812 -0.092348 44 46 41
0.019531 -0.632812 -0.094197 46 46 42
0.023438 -0.632812 -0.095225 48 49 43
0.027344 -0.632812 -0.096071 50 51 45
0.031250 -0.632812 -0.096542 48 48 43
0.035156 -0.632812 -0.095768 46 47 41
0.039062 -0.632812 -0.092966 54 53 46
0.042969 -0.632812 -0.090744 50 49 43
0.046875 -0.632812 -0.087724 63 58 50
0.050781 -0.632812 -0.082082 34 30 28
0.054688 -0.632812 -0.075427 13 12 12
-0.160156 -0.636719 -0.046422 23 20 18
-0.156250 -0.636719 -0.058691 40 37 34
-0.152344 -0.636719 -0.067375 42 40 39
-0.148438 -0.636719 -0.073604 46 43 43
-0.144531 -0.636719 -0.079623 44 42 43
-0.140625 -0.636719 -0.084571 44 42 43
-0.136719 -0.636719 -0.088163 47 45 46
-0.132812 -0.636719 -0.089933 47 45 45
-0.128906 -0.636719 -0.092144 46 44 44
-0.125000 -0.636719 -0.092927 50 48 47
-0.121094 -0.636719 -0.092633 41 39 36
-0.117188 -0.636719 -0.090884 43 39 34
-0.113281 -0.636719 -0.071840 18 19 21
0.000000 -0.636719 -0.029325 30 26 28
0.003906 -0.636719 -0.083195 42 41 39
0.007812 -0.636719 -0.085607 34 32 30
0.011719 -0.636719 -0.088676 43 43 39
0.015625 -0.636719 -0.091851 46 47 42
0.019531 -0.636719 -0.093919 47 47 42
0.023438 -0.636719 -0.095076 49 50 44
0.027344 -0.636719 -0.096000 52 52 46
0.031250 -0.636719 -0.096507 48 49 43
0.035156 -0.636719 -0.095806 45 47 41
0.039062 -0.636719 -0.092986 51 52 44
0.042969 -0.636719 -0.090632 46 47 41
0.046875 -0.636719 -0.087717 59 56 49
0.050781 -0.636719 -0.083759 37 34 32
0.054688 -0.636719 -0.069793 19 18 17
-0.160156 -0.640625 -0.044235 23 20 18
-0.156250 -0.640625 -0.057861 41 39 36
-0.152344 -0.640625 -0.067509 40 38 38
-0.148438 -0.640625 -0.073918 43 41 41
-0.144531 -0.640625 -0.080096 44 42 43
-0.140625 -0.640625 -0.085148 44 41 43
-0.136719 -0.640625 -0.088773 47 44 45
-0.132812 -0.640625 -0.090571 47 45 46
-0.128906 -0.640625 -0.092718 45 44 44
-0.125000 -0.640625 -0.093475 47 45 44
-0.121094 -0.640625 -0.093420 38 36 34
-0.117188 -0.640625 -0.092579 46 43 38
0.000000 -0.640625 -0.027106 41 42 38
0.003906 -0.640625 -0.082444 38 39 37
0.007812 -0.640625 -0.085162 31 29 27
0.011719 -0.640625 -0.088082 41 42 38
0.015625 -0.640625 -0.091282 45 47 42
0.019531 -0.640625 -0.093527 45 46 41
0.023438 -0.640625 -0.094747 47 48 42
0.027344 -0.640625 -0.095686 52 52 46
0.031250 -0.640625 -0.096204 49 49 43
0.035156 -0.640625 -0.095509 46 47 41
0.039062 -0.640625 -0.092769 48 49 42
0.042969 -0.640625 -0.090517 43 44 38
0.046875 -0.640625 -0.087578 49 48 43
0.050781 -0.640625 -0.083245 28 27 26
0.054688 -0.640625 -0.065063 10 10 11
-0.160156 -0.644531 -0.041132 21 18 17
-0.156250 -0.644531 -0.057250 39 37 34
-0.152344 -0.644531 -0.067512 37 36 37
-0.148438 -0.644531 -0.074158 40 38 39
-0.144531 -0.644531 -0.080636 43 40 41
-0.140625 -0.644531 -0.085868 43 40 42
-0.136719 -0.644531 -0.089530 49 45 47
-0.132812 -0.644531 -0.091287 51 48 49
-0.128906 -0.644531 -0.093325 47 44 45
-0.125000 -0.644531 -0.094143 46 44 43
-0.121094 -0.644531 -0.094731 38 36 35
-0.117188 -0.644531 -0.089894 50 44 42
0.000000 -0.644531 -0.047940 42 44 41
0.003906 -0.644531 -0.080876 37 38 34
0.007812 -0.644531 -0.084026 32 30 28
0.011719 -0.644531 -0.087470 42 44 41
0.015625 -0.644531 -0.090782 46 48 43
0.019531 -0.644531 -0.093144 45 46 41
0.023438 -0.644531 -0.094474 47 48 43
0.027344 -0.644531 -0.095441 51 51 45
0.031250 -0.644531 -0.096021 48 48 42
0.035156 -0.644531 -0.095350 47 47 42
0.039062 -0.644531 -0.092906 49 49 43
0.042969 -0.644531 -0.090802 48 47 41
0.046875 -0.644531 -0.087242 53 51 45
0.050781 -0.644531 -0.083074 32 31 30
0.054688 -0.644531 -0.066823 8 8 9
-0.160156 -0.648438 -0.036337 23 19 18
-0.156250 -0.648438 -0.057017 41 37 35
-0.152344 -0.648438 -0.067240 39 37 38
-0.148438 -0.648438 -0.074580 42 39 40
-0.144531 -0.648438 -0.081249 43 40 42
-0.140625 -0.648438 -0.086595 44 40 42
-0.136719 -0.648438 -0.090288 47 43 45
-0.132812 -0.648438 -0.092120 48 44 46
-0.128906 -0.648438 -0.094096 44 41 43
-0.125000 -0.648438 -0.095006 46 44 43
-0.121094 -0.648438 -0.094998 45 42 41
-0.117188 -0.648438 -0.088980 54 47 47
0.000000 -0.648438 -0.064612 44 45 42
0.003906 -0.648438 -0.079183 41 39 35
0.007812 -0.648438 -0.083246 34 31 29
0.011719 -0.648438 -0.086944 44 45 42
0.015625 -0.648438 -0.090125 44 46 43
0.019531 -0.648438 -0.092591 44 45 41
0.023438 -0.648438 -0.094054 49 49 44
0.027344 -0.648438 -0.094999 50 49 44
0.031250 -0.648438 -0.095527 44 44 40
0.035156 -0.648438 -0.094715 45 45 41
0.039062 -0.648438 -0.092331 48 47 42
0.042969 -0.648438 -0.090316 50 49 43
0.046875 -0.648438 -0.086986 53 51 45
0.050781 -0.648438 -0.083231 40 39 36
0.054688 -0.648438 -0.076510 17 15 16
0.058594 -0.648438 -0.005580 52 52 44
-0.160156 -0.652344 -0.029568 26 21 20
-0.156250 -0.652344 -0.056271 39 33 31
-0.152344 -0.652344 -0.066813 39 35 36
-0.148438 -0.652344 -0.075189 43 39 40
-0.144531 -0.652344 -0.082061 47 43 44
-0.140625 -0.652344 -0.087469 50 45 46
-0.136719 -0.652344 -0.091232 48 44 45
-0.132812 -0.652344 -0.093188 44 41 42
-0.128906 -0.652344 -0.095045 42 40 40
-0.125000 -0.652344 -0.096027 45 42 42
-0.121094 -0.652344 -0.094065 47 46 43
-0.117188 -0.652344 -0.090065 42 39 39
0.000000 -0.652344 -0.069848 40 40 39
0.003906 -0.652344 -0.077052 38 39 37
0.007812 -0.652344 -0.082383 24 21 21
0.011719 -0.652344 -0.086519 40 40 39
0.015625 -0.652344 -0.089666 43 45 42
0.019531 -0.652344 -0.091933 45 45 42
0.023438 -0.652344 -0.093555 50 50 45
0.027344 -0.652344 -0.094511 49 48 43
0.031250 -0.652344 -0.094969 45 44 40
0.035156 -0.652344 -0.094058 46 46 41
0.039062 -0.652344 -0.091754 46 45 41
0.042969 -0.652344 -0.089760 48 47 42
0.046875 -0.652344 -0.086885 47 46 41
0.050781 -0.652344 -0.082792 40 40 35
0.054688 -0.652344 -0.077169 32 30 27
0.058594 -0.652344 -0.074737 17 15 18
-0.160156 -0.656250 -0.024951 31 26 26
-0.156250 -0.656250 -0.053377 38 31 31
-0.152344 -0.656250 -0.066549 39 34 36
-0.148438 -0.656250 -0.075991 45 40 41
-0.144531 -0.656250 -0.083169 51 46 45
-0.140625 -0.656250 -0.088636 54 48 48
-0.136719 -0.656250 -0.092447 50 45 45
-0.132812 -0.656250 -0.094458 48 44 44
-0.128906 -0.656250 -0.096184 49 45 45
-0.125000 -0.656250 -0.097499 48 45 43
-0.121094 -0.656250 -0.094274 53 53 48
-0.117188 -0.656250 -0.090000 39 38 37
0.003906 -0.656250 -0.077215 37 38 34
0.007812 -0.656250 -0.081575 24 22 23
0.011719 -0.656250 -0.085540 40 39 39
0.015625 -0.656250 -0.088989 45 45 42
0.019531 -0.656250 -0.091189 45 46 42
0.023438 -0.656250 -0.092874 49 49 44
0.027344 -0.656250 -0.093918 47 47 42
0.031250 -0.656250 -0.094383 47 46 41
0.035156 -0.656250 -0.093471 51 51 45
0.039062 -0.656250 -0.091326 50 49 44
0.042969 -0.656250 -0.089207 50 50 43
0.046875 -0.656250 -0.086283 47 46 42
0.050781 -0.656250 -0.082741 44 43 38
0.054688 -0.656250 -0.076323 47 45 39
0.058594 -0.656250 -0.071562 43 44 41
0.062500 -0.656250 -0.059028 29 31 28
-0.164062 -0.660156 -0.000622 18 16 14
-0.160156 -0.660156 -0.022653 46 40 35
-0.156250 -0.660156 -0.048866 42 36 34
-0.152344 -0.660156 -0.066743 42 37 38
-0.148438 -0.660156 -0.077153 47 41 42
-0.144531 -0.660156 -0.084524 52 46 45
-0.140625 -0.660156 -0.090047 55 48 47
-0.136719 -0.660156 -0.093918 50 44 44
-0.132812 -0.660156 -0.095855 49 44 44
-0.128906 -0.660156 -0.097410 52 47 45
-0.125000 -0.660156 -0.098925 49 45 42
-0.121094 -0.660156 -0.094886 60 61 53
-0.117188 -0.660156 -0.089439 58 56 51
0.003906 -0.660156 -0.075196 41 39 35
0.007812 -0.660156 -0.081149 21 20 21
0.011719 -0.660156 -0.084787 37 35 35
0.015625 -0.660156 -0.088010 43 42 40
0.019531 -0.660156 -0.090519 45 45 41
0.023438 -0.660156 -0.092153 48 48 43
0.027344 -0.660156 -0.093192 45 44 40
0.031250 -0.660156 -0.093673 46 46 41
0.035156 -0.660156 -0.092696 55 54 48
0.039062 -0.660156 -0.090557 55 55 48
0.042969 -0.660156 -0.088422 53 52 45
0.046875 -0.660156 -0.085553 45 45 40
0.050781 -0.660156 -0.081887 41 41 37
0.054688 -0.660156 -0.077570 48 46 40
0.058594 -0.660156 -0.069201 52 52 44
0.062500 -0.660156 -0.066731 94 100 80
0.066406 -0.660156 -0.023786 31 33 29
-0.164062 -0.664062 -0.002118 12 12 11
-0.160156 -0.664062 -0.020051 47 41 33
-0.156250 -0.664062 -0.044476 43 37 35
-0.152344 -0.664062 -0.067167 43 38 39
-0.148438 -0.664062 -0.078602 47 40 41
-0.144531 -0.664062 -0.086290 50 43 42
-0.140625 -0.664062 -0.091872 53 45 44
-0.136719 -0.664062 -0.095685 50 43 42
-0.132812 -0.664062 -0.097512 49 44 43
-0.128906 -0.664062 -0.098826 51 46 44
-0.125000 -0.664062 -0.099926 50 46 42
-0.121094 -0.664062 -0.096336 55 54 48
-0.117188 -0.664062 -0.088259 43 38 39
0.003906 -0.664062 -0.075551 43 42 39
0.007812 -0.664062 -0.080796 17 15 17
0.011719 -0.664062 -0.084723 35 34 33
0.015625 -0.664062 -0.087548 43 42 39
0.019531 -0.664062 -0.090077 47 47 42
0.023438 -0.664062 -0.091470 50 49 44
0.027344 -0.664062 -0.092606 42 41 37
0.031250 -0.664062 -0.093204 40 40 36
0.035156 -0.664062 -0.092305 50 49 43
0.039062 -0.664062 -0.090236 53 51 45
0.042969 -0.664062 -0.088225 49 48 41
0.046875 -0.664062 -0.085341 41 41 36
0.050781 -0.664062 -0.081818 36 37 32
0.054688 -0.664062 -0.077558 39 38 32
0.058594 -0.664062 -0.071425 32 31 28
0.062500 -0.664062 -0.061131 46 46 40
0.066406 -0.664062 -0.057223 21 21 24
-0.167969 -0.667969 0.012682 6 6 6
-0.164062 -0.667969 -0.004197 18 15 14
-0.160156 -0.667969 -0.020956 36 32 26
-0.156250 -0.667969 -0.041330 40 37 33
-0.152344 -0.667969 -0.068102 42 38 37
-0.148438 -0.667969 -0.080495 47 40 39
-0.144531 -0.667969 -0.088194 48 40 39
-0.140625 -0.667969 -0.093724 46 38 37
-0.136719 -0.667969 -0.097559 46 38 37
-0.132812 -0.667969 -0.099304 47 40 39
-0.128906 -0.667969 -0.100436 50 45 43
-0.125000 -0.667969 -0.100901 53 48 45
-0.121094 -0.667969 -0.099736 54 52 48
-0.117188 -0.667969 -0.082971 43 36 38
0.003906 -0.667969 -0.061455 44 42 39
0.007812 -0.667969 -0.080657 24 22 23
0.011719 -0.667969 -0.084291 40 39 36
0.015625 -0.667969 -0.086784 44 42 39
0.019531 -0.667969 -0.089531 46 44 41
0.023438 -0.667969 -0.090733 46 44 40
0.027344 -0.667969 -0.091963 38 36 33
0.031250 -0.667969 -0.092755 37 35 32
0.035156 -0.667969 -0.091953 46 44 39
0.039062 -0.667969 -0.089962 47 46 40
0.042969 -0.667969 -0.087956 44 43 37
0.046875 -0.667969 -0.085015 38 38 34
0.050781 -0.667969 -0.082022 33 33 30
0.054688 -0.667969 -0.077632 34 33 30
0.058594 -0.667969 -0.072304 27 27 26
0.062500 -0.667969 -0.062806 29 31 28
0.066406 -0.667969 -0.057221 27 25 26
-0.171875 -0.671875 0.025371 14 12 11
-0.167969 -0.671875 0.008272 13 13 11
-0.164062 -0.671875 -0.005001 18 16 14
-0.160156 -0.671875 -0.022607 33 29 22
-0.156250 -0.671875 -0.040285 39 35 30
-0.152344 -0.671875 -0.068886 41 37 36
-0.148438 -0.671875 -0.082192 47 39 37
-0.144531 -0.671875 -0.090185 47 39 36
-0.140625 -0.671875 -0.095662 41 33 31
-0.136719 -0.671875 -0.099461 39 31 30
-0.132812 -0.671875 -0.101106 40 34 33
-0.128906 -0.671875 -0.102211 47 41 39
-0.125000 -0.671875 -0.101921 57 50 46
-0.121094 -0.671875 -0.102120 60 56 52
-0.117188 -0.671875 -0.072576 68 59 54
0.007812 -0.671875 -0.079374 21 20 21
0.011719 -0.671875 -0.084325 36 36 33
0.015625 -0.671875 -0.086604 40 38 35
0.019531 -0.671875 -0.089023 39 37 35
0.023438 -0.671875 -0.090379 36 35 32
0.027344 -0.671875 -0.091644 33 31 29
0.031250 -0.671875 -0.092624 35 33 31
0.035156 -0.671875 -0.091918 43 41 37
0.039062 -0.671875 -0.090066 45 43 38
0.042969 -0.671875 -0.088177 43 43 38
0.046875 -0.671875 -0.085357 41 40 37
0.050781 -0.671875 -0.082689 34 35 32
0.054688 -0.671875 -0.078204 33 34 30
0.058594 -0.671875 -0.072411 31 32 27
0.062500 -0.671875 -0.064219 34 37 29
0.066406 -0.671875 -0.058028 31 33 29
-0.171875 -0.675781 0.018986 23 21 19
-0.167969 -0.675781 0.005037 11 12 11
-0.164062 -0.675781 -0.009115 12 12 11
-0.160156 -0.675781 -0.024063 26 23 18
-0.156250 -0.675781 -0.040738 37 31 28
-0.152344 -0.675781 -0.070005 41 36 36
-0.148438 -0.675781 -0.084265 46 40 39
-0.144531 -0.675781 -0.092266 46 39 36
-0.140625 -0.675781 -0.097526 39 32 30
-0.136719 -0.675781 -0.101376 36 29 27
-0.132812 -0.675781 -0.103038 34 28 28
-0.128906 -0.675781 -0.104164 38 32 31
-0.125000 -0.675781 -0.102994 49 42 37
-0.121094 -0.675781 -0.104331 46 41 40
-0.117188 -0.675781 -0.059583 37 31 31
0.007812 -0.675781 -0.082107 17 15 17
0.011719 -0.675781 -0.083835 36 35 32
0.015625 -0.675781 -0.086735 40 37 33
0.019531 -0.675781 -0.088597 37 35 33
0.023438 -0.675781 -0.090182 31 29 28
0.027344 -0.675781 -0.091568 29 27 27
0.031250 -0.675781 -0.092667 30 28 28
0.035156 -0.675781 -0.092095 37 35 34
0.039062 -0.675781 -0.090463 44 42 39
0.042969 -0.675781 -0.088762 48 46 42
0.046875 -0.675781 -0.086096 46 45 40
0.050781 -0.675781 -0.083397 37 38 35
0.054688 -0.675781 -0.078841 33 35 31
0.058594 -0.675781 -0.072966 33 33 27
0.062500 -0.675781 -0.066841 35 34 29
0.066406 -0.675781 -0.052762 21 21 24
-0.175781 -0.679688 0.033904 29 24 20
-0.171875 -0.679688 0.015433 5 4 6
-0.167969 -0.679688 0.002101 6 6 6
-0.164062 -0.679688 -0.012367 9 10 9
-0.160156 -0.679688 -0.026467 22 22 18
-0.156250 -0.679688 -0.043523 38 35 30
-0.152344 -0.679688 -0.071643 44 41 39
-0.148438 -0.679688 -0.086055 46 41 41
-0.144531 -0.679688 -0.094047 41 37 36
-0.140625 -0.679688 -0.099173 35 29 27
-0.136719 -0.679688 -0.103041 35 28 25
-0.132812 -0.679688 -0.104740 33 27 26
-0.128906 -0.679688 -0.105901 33 27 26
-0.125000 -0.679688 -0.104631 43 35 32
-0.121094 -0.679688 -0.106146 47 43 41
-0.117188 -0.679688 -0.059979 38 34 32
0.007812 -0.679688 -0.082547 29 28 28
0.011719 -0.679688 -0.083350 30 28 27
0.015625 -0.679688 -0.086657 30 27 26
0.019531 -0.679688 -0.088583 29 28 28
0.023438 -0.679688 -0.090173 27 27 27
0.027344 -0.679688 -0.091573 28 27 27
0.031250 -0.679688 -0.092702 27 26 27
0.035156 -0.679688 -0.092174 35 33 34
0.039062 -0.679688 -0.090686 46 42 41
0.042969 -0.679688 -0.089013 52 48 45
0.046875 -0.679688 -0.086493 48 45 41
0.050781 -0.679688 -0.083965 36 36 33
0.054688 -0.679688 -0.079290 33 34 31
0.058594 -0.679688 -0.073347 35 36 30
0.062500 -0.679688 -0.066720 40 39 33
0.066406 -0.679688 -0.049517 27 25 26
-0.175781 -0.683594 0.026865 32 25 19
-0.171875 -0.683594 0.012107 14 12 11
-0.167969 -0.683594 -0.001023 13 13 11
-0.164062 -0.683594 -0.014978 15 16 14
-0.160156 -0.683594 -0.029376 26 25 20
-0.156250 -0.683594 -0.048765 37 35 30
-0.152344 -0.683594 -0.073595 40 40 39
-0.148438 -0.683594 -0.087432 42 41 42
-0.144531 -0.683594 -0.095632 39 38 38
-0.140625 -0.683594 -0.100682 32 29 28
-0.136719 -0.683594 -0.104489 31 25 24
-0.132812 -0.683594 -0.106299 30 24 24
-0.128906 -0.683594 -0.107459 30 24 24
-0.125000 -0.683594 -0.106523 39 30 28
-0.121094 -0.683594 -0.107235 53 46 44
-0.117188 -0.683594 -0.074198 45 40 36
0.007812 -0.683594 -0.080879 31 28 26
0.011719 -0.683594 -0.082908 22 19 20
0.015625 -0.683594 -0.086757 23 20 21
0.019531 -0.683594 -0.088853 27 25 27
0.023438 -0.683594 -0.090356 28 28 29
0.027344 -0.683594 -0.091860 29 29 30
0.031250 -0.683594 -0.093041 30 29 31
0.035156 -0.683594 -0.092563 41 37 39
0.039062 -0.683594 -0.091181 51 43 43
0.042969 -0.683594 -0.089529 57 46 45
0.046875 -0.683594 -0.087102 56 46 44
0.050781 -0.683594 -0.084345 46 42 39
0.054688 -0.683594 -0.079345 43 45 43
0.058594 -0.683594 -0.074044 43 49 42
0.062500 -0.683594 -0.067522 38 42 34
0.066406 -0.683594 -0.054349 18 17 18
-0.175781 -0.687500 0.022242 32 28 25
-0.171875 -0.687500 0.007880 23 21 19
-0.167969 -0.687500 -0.004509 23 23 20
-0.164062 -0.687500 -0.018291 26 27 23
-0.160156 -0.687500 -0.032967 35 34 27
-0.156250 -0.687500 -0.054647 43 41 35
-0.152344 -0.687500 -0.076071 41 41 40
-0.148438 -0.687500 -0.089020 46 46 48
-0.144531 -0.687500 -0.096876 56 55 55
-0.140625 -0.687500 -0.101850 53 48 46
-0.136719 -0.687500 -0.105692 41 35 33
-0.132812 -0.687500 -0.107561 29 24 24
-0.128906 -0.687500 -0.108732 23 18 18
-0.125000 -0.687500 -0.108200 24 19 19
-0.121094 -0.687500 -0.108295 24 20 23
-0.117188 -0.687500 -0.087477 7 5 7
0.007812 -0.687500 -0.079910 24 22 20
0.011719 -0.687500 -0.083713 22 21 19
0.015625 -0.687500 -0.086605 26 22 21
0.019531 -0.687500 -0.089106 29 25 26
0.023438 -0.687500 -0.090621 28 25 25
0.027344 -0.687500 -0.092293 30 27 29
0.031250 -0.687500 -0.093530 36 32 34
0.035156 -0.687500 -0.093124 53 43 43
0.039062 -0.687500 -0.091839 62 46 43
0.042969 -0.687500 -0.090253 68 46 44
0.046875 -0.687500 -0.087978 75 52 48
0.050781 -0.687500 -0.085054 75 60 52
0.054688 -0.687500 -0.080001 74 70 63
0.058594 -0.687500 -0.074745 66 71 61
0.062500 -0.687500 -0.067810 55 60 50
0.066406 -0.687500 -0.058472 31 33 32
0.070312 -0.687500 -0.009988 47 50 42
-0.179688 -0.691406 0.034353 32 21 17
-0.175781 -0.691406 0.017251 29 24 20
-0.171875 -0.691406 0.004199 24 20 17
-0.167969 -0.691406 -0.008472 34 30 25
-0.164062 -0.691406 -0.022121 42 39 31
-0.160156 -0.691406 -0.036467 42 40 31
-0.156250 -0.691406 -0.060814 45 43 34
-0.152344 -0.691406 -0.078676 41 38 36
-0.148438 -0.691406 -0.090144 45 42 44
-0.144531 -0.691406 -0.097713 64 58 59
-0.140625 -0.691406 -0.102695 79 68 61
-0.136719 -0.691406 -0.106398 71 59 50
-0.132812 -0.691406 -0.108300 45 36 32
-0.128906 -0.691406 -0.109723 27 22 21
-0.125000 -0.691406 -0.109871 27 24 23
-0.121094 -0.691406 -0.108162 31 27 29
-0.117188 -0.691406 -0.095956 5 3 4
0.003906 -0.691406 -0.045098 23 21 20
0.007812 -0.691406 -0.078587 25 23 23
0.011719 -0.691406 -0.084865 23 24 22
0.015625 -0.691406 -0.086180 23 21 20
0.019531 -0.691406 -0.089303 23 21 21
0.023438 -0.691406 -0.091002 22 19 20
0.027344 -0.691406 -0.092803 28 24 26
0.031250 -0.691406 -0.094035 37 31 34
0.035156 -0.691406 -0.093687 52 38 39
0.039062 -0.691406 -0.092507 63 41 39
0.042969 -0.691406 -0.090934 72 43 42
0.046875 -0.691406 -0.088665 79 50 47
0.050781 -0.691406 -0.085737 81 63 53
0.054688 -0.691406 -0.081102 78 73 61
0.058594 -0.691406 -0.075545 62 67 55
0.062500 -0.691406 -0.067765 55 60 48
0.066406 -0.691406 -0.058758 54 58 50
0.070312 -0.691406 -0.043306 36 39 35
-0.179688 -0.695312 0.027760 24 19 17
-0.175781 -0.695312 0.014707 32 25 19
-0.171875 -0.695312 0.001125 37 30 24
-0.167969 -0.695312 -0.011938 56 48 38
-0.164062 -0.695312 -0.025223 53 46 37
-0.160156 -0.695312 -0.042889 38 34 27
-0.156250 -0.695312 -0.065637 32 30 25
-0.152344 -0.695312 -0.081286 29 27 26
-0.148438 -0.695312 -0.091393 33 32 34
-0.144531 -0.695312 -0.098579 44 44 43
-0.140625 -0.695312 -0.103516 65 59 49
-0.136719 -0.695312 -0.107062 79 67 52
-0.132812 -0.695312 -0.108952 61 49 38
-0.128906 -0.695312 -0.110617 32 27 22
-0.125000 -0.695312 -0.111256 27 25 23
-0.121094 -0.695312 -0.108736 32 27 29
-0.117188 -0.695312 -0.099682 3 1 2
0.003906 -0.695312 -0.066155 37 39 38
0.007812 -0.695312 -0.077870 31 28 26
0.011719 -0.695312 -0.085628 24 24 22
0.015625 -0.695312 -0.086090 24 22 21
0.019531 -0.695312 -0.089545 24 21 22
0.023438 -0.695312 -0.091346 25 21 22
0.027344 -0.695312 -0.093233 33 28 28
0.031250 -0.695312 -0.094486 36 29 30
0.035156 -0.695312 -0.094288 45 32 31
0.039062 -0.695312 -0.093302 62 38 36
0.042969 -0.695312 -0.091824 75 43 41
0.046875 -0.695312 -0.089571 76 47 44
0.050781 -0.695312 -0.086479 68 50 45
0.054688 -0.695312 -0.081853 60 55 48
0.058594 -0.695312 -0.076279 48 51 43
0.062500 -0.695312 -0.069793 39 43 36
0.066406 -0.695312 -0.060431 37 38 34
0.070312 -0.695312 -0.045571 46 49 43
0.074219 -0.695312 -0.019922 48 49 44
-0.183594 -0.699219 0.048713 41 29 25
-0.179688 -0.699219 0.025981 31 22 17
-0.175781 -0.699219 0.011510 40 29 22
-0.171875 -0.699219 -0.001365 45 33 27
-0.167969 -0.699219 -0.014503 55 44 36
-0.164062 -0.699219 -0.027794 43 36 30
-0.160156 -0.699219 -0.049930 32 28 24
-0.156250 -0.699219 -0.069612 29 27 23
-0.152344 -0.699219 -0.083634 27 25 23
-0.148438 -0.699219 -0.092430 34 33 31
-0.144531 -0.699219 -0.099237 45 45 40
-0.140625 -0.699219 -0.104194 63 59 48
-0.136719 -0.699219 -0.107480 85 71 54
-0.132812 -0.699219 -0.109356 72 55 42
-0.128906 -0.699219 -0.111132 30 24 21
-0.125000 -0.699219 -0.111973 20 17 18
-0.121094 -0.699219 -0.109234 18 15 19
-0.117188 -0.699219 -0.101791 7 5 7
0.003906 -0.699219 -0.067453 18 19 22
0.007812 -0.699219 -0.077700 24 22 20
0.011719 -0.699219 -0.084576 27 26 22
0.015625 -0.699219 -0.086049 30 28 25
0.019531 -0.699219 -0.089381 28 25 25
0.023438 -0.699219 -0.091433 29 24 25
0.027344 -0.699219 -0.093392 34 28 28
0.031250 -0.699219 -0.094669 33 26 25
0.035156 -0.699219 -0.094548 46 31 30
0.039062 -0.699219 -0.093718 72 43 38
0.042969 -0.699219 -0.092408 83 48 42
0.046875 -0.699219 -0.090198 79 48 42
0.050781 -0.699219 -0.086948 65 46 41
0.054688 -0.699219 -0.082185 54 45 41
0.058594 -0.699219 -0.076761 48 47 42
0.062500 -0.699219 -0.070503 39 41 38
0.066406 -0.699219 -0.061837 35 36 34
0.070312 -0.699219 -0.047071 47 50 42
0.074219 -0.699219 -0.026475 53 51 45
0.078125 -0.699219 -0.007261 55 59 56
-0.183594 -0.703125 0.045683 38 29 24
-0.179688 -0.703125 0.023781 32 21 17
-0.175781 -0.703125 0.009875 41 28 23
-0.171875 -0.703125 -0.003141 38 27 23
-0.167969 -0.703125 -0.015995 36 28 24
-0.164062 -0.703125 -0.032555 28 24 20
-0.160156 -0.703125 -0.054369 27 24 20
-0.156250 -0.703125 -0.072441 28 25 22
-0.152344 -0.703125 -0.085398 26 24 21
-0.148438 -0.703125 -0.093239 32 30 27
-0.144531 -0.703125 -0.099643 45 43 38
-0.140625 -0.703125 -0.104485 64 60 51
-0.136719 -0.703125 -0.107700 91 79 64
-0.132812 -0.703125 -0.109508 82 66 54
-0.128906 -0.703125 -0.111287 33 27 25
-0.125000 -0.703125 -0.112287 28 24 25
-0.121094 -0.703125 -0.109608 37 31 35
-0.117188 -0.703125 -0.103531 5 3 4
0.003906 -0.703125 -0.066658 32 30 29
0.007812 -0.703125 -0.075675 25 23 23
0.011719 -0.703125 -0.083551 30 30 27
0.015625 -0.703125 -0.085620 32 30 29
0.019531 -0.703125 -0.089156 26 23 25
0.023438 -0.703125 -0.091660 26 22 24
0.027344 -0.703125 -0.093521 28 23 25
0.031250 -0.703125 -0.094663 32 24 25
0.035156 -0.703125 -0.094593 51 35 33
0.039062 -0.703125 -0.093858 71 44 40
0.042969 -0.703125 -0.092622 72 43 40
0.046875 -0.703125 -0.090487 70 44 40
0.050781 -0.703125 -0.087151 64 46 42
0.054688 -0.703125 -0.082375 55 46 42
0.058594 -0.703125 -0.077218 46 45 41
0.062500 -0.703125 -0.070901 36 38 36
0.066406 -0.703125 -0.061987 28 31 30
0.070312 -0.703125 -0.048222 36 39 35
0.074219 -0.703125 -0.027097 24 26 23
0.078125 -0.703125 -0.010299 39 40 35
-0.187500 -0.707031 0.064523 36 30 24
-0.183594 -0.707031 0.038645 36 26 20
-0.179688 -0.707031 0.023088 40 28 24
-0.175781 -0.707031 0.009334 45 31 28
-0.171875 -0.707031 -0.003545 38 27 25
-0.167969 -0.707031 -0.015382 35 27 24
-0.164062 -0.707031 -0.036604 31 24 22
-0.160156 -0.707031 -0.057449 30 26 24
-0.156250 -0.707031 -0.074378 30 28 26
-0.152344 -0.707031 -0.086309 28 26 26
-0.148438 -0.707031 -0.093572 30 29 28
-0.144531 -0.707031 -0.099801 36 37 35
-0.140625 -0.707031 -0.104510 50 51 45
-0.136719 -0.707031 -0.107837 75 71 60
-0.132812 -0.707031 -0.109645 75 65 54
-0.128906 -0.707031 -0.111492 30 25 24
-0.125000 -0.707031 -0.112475 29 24 24
-0.121094 -0.707031 -0.109109 45 34 36
-0.117188 -0.707031 -0.102875 3 1 2
0.003906 -0.707031 -0.063144 37 39 38
0.007812 -0.707031 -0.074522 21 21 22
0.011719 -0.707031 -0.082349 32 32 31
0.015625 -0.707031 -0.084325 34 34 33
0.019531 -0.707031 -0.087759 27 27 29
0.023438 -0.707031 -0.091082 28 26 29
0.027344 -0.707031 -0.093048 30 26 28
0.031250 -0.707031 -0.094245 35 28 29
0.035156 -0.707031 -0.094341 48 36 34
0.039062 -0.707031 -0.093676 55 38 35
0.042969 -0.707031 -0.092343 54 36 34
0.046875 -0.707031 -0.090244 57 40 38
0.050781 -0.707031 -0.086885 62 48 44
0.054688 -0.707031 -0.081920 61 52 48
0.058594 -0.707031 -0.076682 53 51 46
0.062500 -0.707031 -0.070716 44 47 43
0.066406 -0.707031 -0.063417 38 41 38
0.070312 -0.707031 -0.050956 45 46 40
0.074219 -0.707031 -0.024951 48 49 44
0.078125 -0.707031 -0.004485 46 52 43
-0.191406 -0.710938 0.075632 35 33 25
-0.187500 -0.710938 0.054583 35 33 27
-0.183594 -0.710938 0.038841 41 29 25
-0.179688 -0.710938 0.022909 43 31 28
-0.175781 -0.710938 0.008941 43 31 29
-0.171875 -0.710938 -0.002985 41 30 28
-0.167969 -0.710938 -0.016212 40 31 28
-0.164062 -0.710938 -0.040188 36 29 25
-0.160156 -0.710938 -0.060227 34 29 27
-0.156250 -0.710938 -0.075684 32 30 29
-0.152344 -0.710938 -0.086597 32 31 31
-0.148438 -0.710938 -0.093501 33 33 33
-0.144531 -0.710938 -0.099673 40 42 42
-0.140625 -0.710938 -0.104190 50 53 49
-0.136719 -0.710938 -0.107702 65 64 56
-0.132812 -0.710938 -0.109452 67 60 52
-0.128906 -0.710938 -0.111301 29 25 24
-0.125000 -0.710938 -0.112034 27 22 24
-0.121094 -0.710938 -0.109622 41 29 33
-0.117188 -0.710938 -0.104300 29 25 24
0.003906 -0.710938 -0.050960 18 19 22
0.007812 -0.710938 -0.072247 19 19 22
0.011719 -0.710938 -0.080490 32 33 33
0.015625 -0.710938 -0.083805 33 35 36
0.019531 -0.710938 -0.087016 27 29 31
0.023438 -0.710938 -0.090745 29 30 32
0.027344 -0.710938 -0.092493 30 28 29
0.031250 -0.710938 -0.093847 32 28 28
0.035156 -0.710938 -0.093983 39 31 31
0.039062 -0.710938 -0.093323 41 31 30
0.042969 -0.710938 -0.091864 43 33 31
0.046875 -0.710938 -0.089620 46 36 35
0.050781 -0.710938 -0.086217 49 41 39
0.054688 -0.710938 -0.081301 51 44 42
0.058594 -0.710938 -0.076275 48 45 42
0.062500 -0.710938 -0.070533 47 48 44
0.066406 -0.710938 -0.063467 47 49 44
0.070312 -0.710938 -0.052561 50 49 42
0.074219 -0.710938 -0.028432 53 51 45
0.078125 -0.710938 -0.003052 55 59 56
0.082031 -0.710938 0.015196 36 49 35
-0.191406 -0.714844 0.073525 49 51 41
-0.187500 -0.714844 0.051959 38 29 23
-0.183594 -0.714844 0.035856 38 29 24
-0.179688 -0.714844 0.022755 42 32 28
-0.175781 -0.714844 0.010583 40 30 28
-0.171875 -0.714844 -0.000059 40 30 28
-0.167969 -0.714844 -0.018475 40 31 27
-0.164062 -0.714844 -0.043296 37 29 26
-0.160156 -0.714844 -0.062553 33 28 25
-0.156250 -0.714844 -0.076225 31 28 27
-0.152344 -0.714844 -0.086325 30 30 29
-0.148438 -0.714844 -0.093078 31 33 33
-0.144531 -0.714844 -0.099049 44 49 47
-0.140625 -0.714844 -0.103358 55 60 55
-0.136719 -0.714844 -0.107365 59 61 54
-0.132812 -0.714844 -0.109123 63 59 52
-0.128906 -0.714844 -0.110829 32 29 28
-0.125000 -0.714844 -0.111125 30 26 27
-0.121094 -0.714844 -0.113985 48 35 39
-0.117188 -0.714844 -0.104555 32 29 28
0.003906 -0.714844 -0.035391 31 34 36
0.007812 -0.714844 -0.064367 28 29 32
0.011719 -0.714844 -0.081954 31 34 36
0.015625 -0.714844 -0.082572 31 34 36
0.019531 -0.714844 -0.085901 27 29 33
0.023438 -0.714844 -0.088986 30 32 36
0.027344 -0.714844 -0.090886 29 30 33
0.031250 -0.714844 -0.092696 30 29 30
0.035156 -0.714844 -0.093039 34 31 31
0.039062 -0.714844 -0.092542 35 30 30
0.042969 -0.714844 -0.091087 37 32 32
0.046875 -0.714844 -0.088747 38 34 35
0.050781 -0.714844 -0.085291 36 34 34
0.054688 -0.714844 -0.080344 34 33 33
0.058594 -0.714844 -0.075493 34 34 33
0.062500 -0.714844 -0.070108 37 39 36
0.066406 -0.714844 -0.062938 38 42 38
0.070312 -0.714844 -0.052976 34 37 34
0.074219 -0.714844 -0.035079 31 32 30
0.078125 -0.714844 -0.012301 39 40 35
0.082031 -0.714844 0.011715 41 57 37
0.085938 -0.714844 0.019796 44 59 38
-0.195312 -0.718750 0.087634 40 46 37
-0.191406 -0.718750 0.068175 44 50 40
-0.187500 -0.718750 0.052337 36 30 24
-0.183594 -0.718750 0.037579 37 30 25
-0.179688 -0.718750 0.025040 40 32 27
-0.175781 -0.718750 0.013414 40 31 27
-0.171875 -0.718750 0.001949 40 31 27
-0.167969 -0.718750 -0.022910 39 31 27
-0.164062 -0.718750 -0.046744 39 32 28
-0.160156 -0.718750 -0.064250 37 33 30
-0.156250 -0.718750 -0.076327 38 36 35
-0.152344 -0.718750 -0.085642 38 39 39
-0.148438 -0.718750 -0.092300 37 42 41
-0.144531 -0.718750 -0.098250 52 59 55
-0.140625 -0.718750 -0.102478 58 63 58
-0.136719 -0.718750 -0.106764 53 55 50
-0.132812 -0.718750 -0.108691 57 56 48
-0.128906 -0.718750 -0.110610 33 30 28
-0.125000 -0.718750 -0.109250 32 29 29
-0.121094 -0.718750 -0.116867 48 36 39
-0.117188 -0.718750 -0.076919 33 30 28
0.003906 -0.718750 -0.027636 37 39 38
0.007812 -0.718750 -0.036299 25 26 31
0.011719 -0.718750 -0.077276 29 34 39
0.015625 -0.718750 -0.083453 32 36 40
0.019531 -0.718750 -0.083506 31 33 38
0.023438 -0.718750 -0.087227 35 37 43
0.027344 -0.718750 -0.089477 32 33 39
0.031250 -0.718750 -0.091657 30 30 33
0.035156 -0.718750 -0.091841 33 31 34
0.039062 -0.718750 -0.091587 33 32 34
0.042969 -0.718750 -0.090319 37 37 39
0.046875 -0.718750 -0.087991 45 47 48
0.050781 -0.718750 -0.084574 42 46 46
0.054688 -0.718750 -0.079559 38 43 41
0.058594 -0.718750 -0.074468 40 45 41
0.062500 -0.718750 -0.069284 44 51 45
0.066406 -0.718750 -0.062693 48 57 49
0.070312 -0.718750 -0.053735 45 54 47
0.074219 -0.718750 -0.041135 42 50 43
0.078125 -0.718750 -0.024468 46 52 43
0.082031 -0.718750 -0.004017 51 56 47
0.085938 -0.718750 0.017641 59 77 48
-0.199219 -0.722656 0.107976 44 51 37
-0.195312 -0.722656 0.083594 38 44 35
-0.191406 -0.722656 0.066212 35 33 25
-0.187500 -0.722656 0.051423 35 33 27
-0.183594 -0.722656 0.039829 34 32 27
-0.179688 -0.722656 0.027407 36 33 27
-0.175781 -0.722656 0.017296 39 36 30
-0.171875 -0.722656 -0.001598 41 37 31
-0.167969 -0.722656 -0.028243 41 37 31
-0.164062 -0.722656 -0.049544 43 40 34
-0.160156 -0.722656 -0.064902 44 43 38
-0.156250 -0.722656 -0.075833 49 49 44
-0.152344 -0.722656 -0.084527 49 52 49
-0.148438 -0.722656 -0.091012 48 53 50
-0.144531 -0.722656 -0.097005 58 64 58
-0.140625 -0.722656 -0.101304 58 62 55
-0.136719 -0.722656 -0.105732 52 55 48
-0.132812 -0.722656 -0.107537 57 55 47
-0.128906 -0.722656 -0.110817 34 32 29
-0.125000 -0.722656 -0.106519 37 33 33
-0.121094 -0.722656 -0.112651 46 35 37
0.007812 -0.722656 -0.022219 25 29 34
0.011719 -0.722656 -0.033745 33 41 47
0.015625 -0.722656 -0.081797 31 35 40
0.019531 -0.722656 -0.088718 27 29 35
0.023438 -0.722656 -0.084055 30 32 38
0.027344 -0.722656 -0.085416 31 32 38
0.031250 -0.722656 -0.087342 31 32 37
0.035156 -0.722656 -0.088481 35 35 39
0.039062 -0.722656 -0.089459 37 40 43
0.042969 -0.722656 -0.088892 46 52 53
0.046875 -0.722656 -0.086867 61 68 68
0.050781 -0.722656 -0.083726 55 64 62
0.054688 -0.722656 -0.078905 45 54 51
0.058594 -0.722656 -0.073543 46 55 49
0.062500 -0.722656 -0.068034 51 63 53
0.066406 -0.722656 -0.061262 60 75 61
0.070312 -0.722656 -0.052875 59 73 59
0.074219 -0.722656 -0.043620 55 72 56
0.078125 -0.722656 -0.030739 47 63 47
0.082031 -0.722656 -0.019742 36 49 35
0.085938 -0.722656 0.006685 51 70 47
0.089844 -0.722656 0.032805 42 50 34
-0.203125 -0.726562 0.119519 34 36 29
-0.199219 -0.726562 0.105162 37 44 32
-0.195312 -0.726562 0.085998 36 40 34
-0.191406 -0.726562 0.067664 49 51 41
-0.187500 -0.726562 0.053739 47 49 40
-0.183594 -0.726562 0.042152 43 46 38
-0.179688 -0.726562 0.029950 45 48 38
-0.175781 -0.726562 0.021847 51 53 41
-0.171875 -0.726562 -0.007790 50 52 40
-0.167969 -0.726562 -0.032557 49 51 39
-0.164062 -0.726562 -0.051005 52 54 43
-0.160156 -0.726562 -0.064789 52 54 44
-0.156250 -0.726562 -0.075002 50 51 43
-0.152344 -0.726562 -0.083196 47 49 42
-0.148438 -0.726562 -0.089614 45 48 43
-0.144531 -0.726562 -0.095707 49 53 46
-0.140625 -0.726562 -0.100049 47 52 45
-0.136719 -0.726562 -0.104639 48 51 44
-0.132812 -0.726562 -0.106850 54 52 44
-0.128906 -0.726562 -0.110101 35 32 28
-0.125000 -0.726562 -0.104618 45 41 38
-0.121094 -0.726562 -0.106122 54 41 39
0.011719 -0.726562 -0.009893 38 46 54
0.015625 -0.726562 -0.039363 31 35 40
0.019531 -0.726562 -0.085069 25 28 33
0.023438 -0.726562 -0.086245 28 31 36
0.027344 -0.726562 -0.081580 35 37 42
0.031250 -0.726562 -0.084693 39 41 46
0.035156 -0.726562 -0.085694 43 46 50
0.039062 -0.726562 -0.087373 48 53 56
0.042969 -0.726562 -0.087164 54 60 62
0.046875 -0.726562 -0.085330 55 61 60
0.050781 -0.726562 -0.082223 43 50 49
0.054688 -0.726562 -0.077669 37 46 42
0.058594 -0.726562 -0.072230 42 54 46
0.062500 -0.726562 -0.066642 55 71 56
0.066406 -0.726562 -0.060229 71 89 68
0.070312 -0.726562 -0.052726 69 87 66
0.074219 -0.726562 -0.044653 66 87 63
0.078125 -0.726562 -0.035053 57 77 53
0.082031 -0.726562 -0.026718 41 57 37
0.085938 -0.726562 -0.011957 44 59 38
0.089844 -0.726562 0.024777 29 36 28
0.093750 -0.726562 0.038323 71 76 51
-0.203125 -0.730469 0.128288 33 33 25
-0.199219 -0.730469 0.104612 42 48 36
-0.195312 -0.730469 0.085832 40 46 37
-0.191406 -0.730469 0.069972 44 50 40
-0.187500 -0.730469 0.056192 43 50 40
-0.183594 -0.730469 0.044670 45 53 41
-0.179688 -0.730469 0.034809 53 62 46
-0.175781 -0.730469 0.020751 59 69 49
-0.171875 -0.730469 -0.014216 55 65 46
-0.167969 -0.730469 -0.035936 56 65 46
-0.164062 -0.730469 -0.051402 65 73 52
-0.160156 -0.730469 -0.063811 65 70 52
-0.156250 -0.730469 -0.073485 54 57 43
-0.152344 -0.730469 -0.081370 46 49 38
-0.148438 -0.730469 -0.087804 43 45 36
-0.144531 -0.730469 -0.094063 44 46 38
-0.140625 -0.730469 -0.098521 46 49 40
-0.136719 -0.730469 -0.103232 50 51 43
-0.132812 -0.730469 -0.105288 50 48 39
-0.128906 -0.730469 -0.107820 31 29 25
-0.125000 -0.730469 -0.102524 33 30 30
-0.121094 -0.730469 -0.098553 19 13 15
0.019531 -0.730469 -0.010870 26 29 34
0.023438 -0.730469 -0.076833 29 31 36
0.027344 -0.730469 -0.088567 36 38 43
0.031250 -0.730469 -0.086664 40 43 47
0.035156 -0.730469 -0.083072 42 46 49
0.039062 -0.730469 -0.081274 49 53 55
0.042969 -0.730469 -0.081599 46 52 52
0.046875 -0.730469 -0.081550 38 44 42
0.050781 -0.730469 -0.079048 33 39 36
0.054688 -0.730469 -0.075648 38 47 40
0.058594 -0.730469 -0.070756 54 68 54
0.062500 -0.730469 -0.065467 75 93 71
0.066406 -0.730469 -0.059440 86 106 78
0.070312 -0.730469 -0.052689 73 94 67
0.074219 -0.730469 -0.045685 70 92 64
0.078125 -0.730469 -0.038092 65 85 59
0.082031 -0.730469 -0.029499 56 76 50
0.085938 -0.730469 -0.017123 59 77 48
0.089844 -0.730469 0.000136 41 51 37
0.093750 -0.730469 0.030690 38 44 35
0.097656 -0.730469 0.043526 58 52 38
-0.203125 -0.734375 0.115229 39 37 27
-0.199219 -0.734375 0.105127 44 51 37
-0.195312 -0.734375 0.090331 38 44 35
-0.191406 -0.734375 0.074194 38 45 36
-0.187500 -0.734375 0.060550 39 48 37
-0.183594 -0.734375 0.048076 45 54 40
-0.179688 -0.734375 0.040515 55 66 46
-0.175781 -0.734375 0.011366 59 73 49
-0.171875 -0.734375 -0.018279 57 71 47
-0.167969 -0.734375 -0.038072 64 76 50
-0.164062 -0.734375 -0.051214 82 91 60
-0.160156 -0.734375 -0.062416 87 93 62
-0.156250 -0.734375 -0.071788 74 79 54
-0.152344 -0.734375 -0.079693 61 65 46
-0.148438 -0.734375 -0.085997 48 51 37
-0.144531 -0.734375 -0.092211 43 44 34
-0.140625 -0.734375 -0.096908 48 48 38
-0.136719 -0.734375 -0.102070 52 51 40
-0.132812 -0.734375 -0.103872 49 47 36
-0.128906 -0.734375 -0.106256 35 34 29
-0.125000 -0.734375 -0.102269 30 29 32
-0.121094 -0.734375 -0.094393 46 35 37
0.023438 -0.734375 0.006311 24 26 32
0.027344 -0.734375 -0.060677 32 36 41
0.031250 -0.734375 -0.087715 36 40 43
0.035156 -0.734375 -0.088523 36 40 42
0.039062 -0.734375 -0.082232 41 44 45
0.042969 -0.734375 -0.078923 36 40 39
0.046875 -0.734375 -0.078150 32 38 35
0.050781 -0.734375 -0.075577 36 45 37
0.054688 -0.734375 -0.072247 49 61 47
0.058594 -0.734375 -0.068204 66 82 62
0.062500 -0.734375 -0.063420 83 102 75
0.066406 -0.734375 -0.057823 84 105 75
0.070312 -0.734375 -0.051730 68 89 63
0.074219 -0.734375 -0.045673 65 87 60
0.078125 -0.734375 -0.039486 63 83 57
0.082031 -0.734375 -0.032028 61 79 53
0.085938 -0.734375 -0.021751 58 73 47
0.089844 -0.734375 -0.011773 42 50 34
0.093750 -0.734375 0.011117 46 52 38
0.097656 -0.734375 0.039865 62 63 46
0.101562 -0.734375 0.040968 73 68 53
-0.207031 -0.738281 0.155986 35 41 32
-0.203125 -0.738281 0.110009 34 36 29
-0.199219 -0.738281 0.104404 37 44 32
-0.195312 -0.738281 0.092770 35 41 32
-0.191406 -0.738281 0.078534 39 45 35
-0.187500 -0.738281 0.065852 43 51 38
-0.183594 -0.738281 0.052939 47 57 40
-0.179688 -0.738281 0.040859 53 64 43
-0.175781 -0.738281 0.000191 56 70 45
-0.171875 -0.738281 -0.020999 56 70 44
-0.167969 -0.738281 -0.038218 62 75 47
-0.164062 -0.738281 -0.049651 80 91 56
-0.160156 -0.738281 -0.059759 93 100 64
-0.156250 -0.738281 -0.069598 92 97 63
-0.152344 -0.738281 -0.077430 84 90 59
-0.148438 -0.738281 -0.084130 63 67 46
-0.144531 -0.738281 -0.090350 46 49 35
-0.140625 -0.738281 -0.094444 45 46 35
-0.136719 -0.738281 -0.099980 46 45 36
-0.132812 -0.738281 -0.102998 48 45 36
-0.128906 -0.738281 -0.105687 49 49 41
-0.125000 -0.738281 -0.100867 47 46 44
-0.121094 -0.738281 -0.092240 54 41 39
0.023438 -0.738281 0.038437 28 32 36
0.027344 -0.738281 0.029299 40 47 49
0.031250 -0.738281 0.013251 39 44 46
0.035156 -0.738281 -0.040119 35 39 40
0.039062 -0.738281 -0.075606 38 41 41
0.042969 -0.738281 -0.081850 34 37 35
0.046875 -0.738281 -0.078547 36 41 36
0.050781 -0.738281 -0.072982 46 55 43
0.054688 -0.738281 -0.067095 58 71 52
0.058594 -0.738281 -0.063224 63 81 58
0.062500 -0.738281 -0.060436 69 89 62
0.066406 -0.738281 -0.055944 71 91 63
0.070312 -0.738281 -0.050839 65 85 58
0.074219 -0.738281 -0.045789 65 85 57
0.078125 -0.738281 -0.040929 62 81 55
0.082031 -0.738281 -0.034873 61 79 54
0.085938 -0.738281 -0.027362 59 73 50
0.089844 -0.738281 -0.016220 56 66 46
0.093750 -0.738281 -0.002532 71 76 51
0.097656 -0.738281 0.014708 64 58 39
0.101562 -0.738281 0.037144 58 54 48
0.105469 -0.738281 0.037355 71 76 51
-0.207031 -0.742188 0.163536 33 33 24
-0.203125 -0.742188 0.117177 33 33 25
-0.199219 -0.742188 0.106187 32 36 27
-0.195312 -0.742188 0.094878 34 38 30
-0.191406 -0.742188 0.082770 40 45 35
-0.187500 -0.742188 0.069713 44 52 37
-0.183594 -0.742188 0.058482 46 56 38
-0.179688 -0.742188 0.029968 49 61 40
-0.175781 -0.742188 -0.005813 52 66 42
-0.171875 -0.742188 -0.022696 54 70 43
-0.167969 -0.742188 -0.037683 58 73 45
-0.164062 -0.742188 -0.047260 72 86 52
-0.160156 -0.742188 -0.057170 87 98 60
-0.156250 -0.742188 -0.066434 91 99 62
-0.152344 -0.742188 -0.074158 90 96 61
-0.148438 -0.742188 -0.081203 73 76 51
-0.144531 -0.742188 -0.087358 51 53 37
-0.140625 -0.742188 -0.091408 44 44 33
-0.136719 -0.742188 -0.096856 44 42 32
-0.132812 -0.742188 -0.100988 47 44 34
-0.128906 -0.742188 -0.104915 29 28 28
-0.125000 -0.742188 -0.099186 33 30 30
-0.121094 -0.742188 -0.078996 19 13 15
0.027344 -0.742188 0.037933 46 52 54
0.031250 -0.742188 0.037130 42 47 47
0.035156 -0.742188 0.033575 38 43 42
0.039062 -0.742188 0.014325 42 46 43
0.042969 -0.742188 -0.034016 40 44 39
0.046875 -0.742188 -0.067259 46 52 42
0.050781 -0.742188 -0.066754 57 67 50
0.054688 -0.742188 -0.061529 63 78 55
0.058594 -0.742188 -0.060210 61 80 55
0.062500 -0.742188 -0.056812 63 84 57
0.066406 -0.742188 -0.053342 66 86 58
0.070312 -0.742188 -0.049177 64 84 57
0.074219 -0.742188 -0.044709 65 83 56
0.078125 -0.742188 -0.040664 62 79 54
0.082031 -0.742188 -0.035635 61 77 54
0.085938 -0.742188 -0.029272 57 70 50
0.089844 -0.742188 -0.019093 62 72 52
0.093750 -0.742188 -0.004930 76 78 56
0.097656 -0.742188 0.002228 58 52 38
0.101562 -0.742188 0.023588 44 37 32
0.105469 -0.742188 0.050570 76 78 56
0.109375 -0.742188 0.015971 58 52 38
-0.203125 -0.746094 0.123273 39 37 27
-0.199219 -0.746094 0.108966 36 37 28
-0.195312 -0.746094 0.096201 39 41 31
-0.191406 -0.746094 0.086330 42 47 35
-0.187500 -0.746094 0.073829 44 51 36
-0.183594 -0.746094 0.062508 46 54 37
-0.179688 -0.746094 0.013455 50 60 40
-0.175781 -0.746094 -0.009052 53 66 43
-0.171875 -0.746094 -0.022512 59 73 48
-0.167969 -0.746094 -0.034829 70 84 55
-0.164062 -0.746094 -0.044051 85 98 62
-0.160156 -0.746094 -0.053734 96 106 67
-0.156250 -0.746094 -0.062558 94 101 63
-0.152344 -0.746094 -0.070467 86 91 58
-0.148438 -0.746094 -0.075978 72 75 50
-0.144531 -0.746094 -0.081749 51 54 37
-0.140625 -0.746094 -0.087212 45 47 34
-0.136719 -0.746094 -0.093041 49 49 35
-0.132812 -0.746094 -0.095424 52 46 38
-0.128906 -0.746094 -0.105972 35 34 29
-0.125000 -0.746094 -0.097576 30 29 32
0.031250 -0.746094 0.037612 47 49 48
0.035156 -0.746094 0.031764 44 48 47
0.039062 -0.746094 0.029408 44 48 44
0.042969 -0.746094 0.032745 42 46 39
0.046875 -0.746094 0.012408 49 56 43
0.050781 -0.746094 -0.041194 57 67 49
0.054688 -0.746094 -0.054915 64 78 55
0.058594 -0.746094 -0.056031 66 84 58
0.062500 -0.746094 -0.053937 73 91 63
0.066406 -0.746094 -0.049341 72 91 63
0.070312 -0.746094 -0.045344 64 81 56
0.074219 -0.746094 -0.041844 62 77 53
0.078125 -0.746094 -0.039184 61 75 52
0.082031 -0.746094 -0.035107 59 73 51
0.085938 -0.746094 -0.030244 54 66 47
0.089844 -0.746094 -0.022122 65 75 54
0.093750 -0.746094 -0.009882 76 80 59
0.097656 -0.746094 -0.001452 62 63 46
0.101562 -0.746094 0.009681 73 68 53
0.105469 -0.746094 0.042926 10 5 7
0.109375 -0.746094 0.036975 62 63 46
-0.203125 -0.750000 0.137151 48 47 37
-0.199219 -0.750000 0.117030 40 40 31
-0.195312 -0.750000 0.098918 38 39 30
-0.191406 -0.750000 0.089961 41 43 32
-0.187500 -0.750000 0.076973 42 45 33
-0.183594 -0.750000 0.063515 43 49 34
-0.179688 -0.750000 0.009242 47 54 37
-0.175781 -0.750000 -0.007165 49 57 39
-0.171875 -0.750000 -0.021129 55 65 45
-0.167969 -0.750000 -0.031131 70 80 55
-0.164062 -0.750000 -0.039196 86 94 63
-0.160156 -0.750000 -0.047855 90 96 63
-0.156250 -0.750000 -0.056596 83 88 57
-0.152344 -0.750000 -0.064422 76 81 52
-0.148438 -0.750000 -0.069861 69 72 49
-0.144531 -0.750000 -0.077651 53 56 40
-0.140625 -0.750000 -0.085394 50 54 39
-0.136719 -0.750000 -0.090536 50 53 40
-0.132812 -0.750000 -0.093386 48 45 36
-0.128906 -0.750000 -0.105726 49 49 41
0.031250 -0.750000 0.052151 38 40 42
0.035156 -0.750000 0.038720 49 52 53
0.039062 -0.750000 0.038803 44 48 43
0.042969 -0.750000 0.035536 45 49 40
0.046875 -0.750000 0.037279 52 57 44
0.050781 -0.750000 0.028189 53 60 45
0.054688 -0.750000 -0.031541 59 70 51
0.058594 -0.750000 -0.044620 62 75 54
0.062500 -0.750000 -0.044405 67 81 58
0.066406 -0.750000 -0.044060 63 77 55
0.070312 -0.750000 -0.041798 52 64 46
0.074219 -0.750000 -0.038616 49 59 43
0.078125 -0.750000 -0.035902 49 57 43
0.082031 -0.750000 -0.032588 47 55 42
0.085938 -0.750000 -0.028907 45 53 41
0.089844 -0.750000 -0.022784 61 70 53
0.093750 -0.750000 -0.013272 75 82 61
0.097656 -0.750000 -0.004703 60 64 49
0.101562 -0.750000 0.008307 58 54 48
0.105469 -0.750000 0.043076 75 82 61
0.109375 -0.750000 0.039990 60 64 49
-0.203125 -0.753906 0.147670 33 33 25
-0.199219 -0.753906 0.126488 39 39 31
-0.195312 -0.753906 0.111170 35 35 27
-0.191406 -0.753906 0.096478 36 37 28
-0.187500 -0.753906 0.083754 37 39 28
-0.183594 -0.753906 0.063673 40 44 31
-0.179688 -0.753906 0.002670 43 47 33
-0.175781 -0.753906 -0.012079 43 49 34
-0.171875 -0.753906 -0.025454 46 52 38
-0.167969 -0.753906 -0.034520 54 60 44
-0.164062 -0.753906 -0.039930 64 70 48
-0.160156 -0.753906 -0.045286 68 73 49
-0.156250 -0.753906 -0.052075 68 72 47
-0.152344 -0.753906 -0.060172 64 69 46
-0.148438 -0.753906 -0.069164 60 63 44
-0.144531 -0.753906 -0.078321 47 50 37
-0.140625 -0.753906 -0.086752 47 49 38
-0.136719 -0.753906 -0.089230 44 42 32
-0.132812 -0.753906 -0.093341 47 44 34
0.035156 -0.753906 0.058376 44 44 46
0.039062 -0.753906 0.045770 33 34 31
0.042969 -0.753906 0.042080 37 40 32
0.046875 -0.753906 0.039347 45 50 38
