ply
    format ascii 1.0
    element vertex 85052
    property float x
    property float y
    property float z
    property uchar red
    property uchar green
    property uchar blue
    end_header
0.226562 -0.039062 0.063297 115 109 107
0.230469 -0.039062 0.059962 101 97 94
0.234375 -0.039062 0.056622 105 104 97
0.238281 -0.039062 0.053208 139 132 126
0.242188 -0.039062 0.049565 180 168 162
0.246094 -0.039062 0.044504 195 186 175
0.250000 -0.039062 0.036007 162 148 130
0.253906 -0.039062 0.025360 130 108 97
0.257812 -0.039062 0.009951 176 134 132
-0.179688 -0.042969 0.016426 224 232 220
-0.175781 -0.042969 0.028605 173 183 169
-0.171875 -0.042969 0.037451 208 205 196
-0.167969 -0.042969 0.045207 218 214 211
-0.164062 -0.042969 0.051581 215 212 212
-0.160156 -0.042969 0.056915 206 203 204
-0.156250 -0.042969 0.062547 205 202 204
-0.152344 -0.042969 0.069344 227 223 223
-0.148438 -0.042969 0.076365 237 234 233
-0.144531 -0.042969 0.081935 222 221 221
-0.140625 -0.042969 0.086350 205 206 206
-0.136719 -0.042969 0.089457 213 214 213
-0.132812 -0.042969 0.091027 212 211 212
-0.128906 -0.042969 0.092208 212 211 212
-0.125000 -0.042969 0.093484 214 214 215
-0.121094 -0.042969 0.094774 210 211 212
-0.117188 -0.042969 0.096199 212 212 213
-0.113281 -0.042969 0.097666 213 213 214
-0.109375 -0.042969 0.099047 210 210 211
-0.105469 -0.042969 0.100344 211 211 211
-0.101562 -0.042969 0.101527 210 209 210
-0.097656 -0.042969 0.102555 208 206 207
-0.093750 -0.042969 0.103461 206 204 204
-0.089844 -0.042969 0.104243 202 201 200
-0.085938 -0.042969 0.104880 196 196 196
-0.082031 -0.042969 0.105495 197 196 196
-0.078125 -0.042969 0.106056 201 199 199
-0.074219 -0.042969 0.106534 203 200 200
-0.070312 -0.042969 0.106872 203 200 200
-0.066406 -0.042969 0.107135 202 199 200
-0.062500 -0.042969 0.107341 204 202 203
-0.058594 -0.042969 0.107448 204 203 204
-0.054688 -0.042969 0.107460 201 200 201
-0.050781 -0.042969 0.107320 197 196 198
-0.046875 -0.042969 0.106981 196 194 195
-0.042969 -0.042969 0.106338 191 189 189
-0.039062 -0.042969 0.105381 184 181 181
-0.035156 -0.042969 0.104140 180 176 175
-0.031250 -0.042969 0.102657 168 163 163
-0.027344 -0.042969 0.100842 150 143 144
-0.023438 -0.042969 0.098754 142 134 136
-0.019531 -0.042969 0.096586 140 131 132
-0.015625 -0.042969 0.094417 136 127 128
-0.011719 -0.042969 0.092135 129 121 120
-0.007812 -0.042969 0.089729 116 108 107
-0.003906 -0.042969 0.087357 108 100 99
0.000000 -0.042969 0.085104 105 97 95
0.003906 -0.042969 0.083063 104 95 94
0.007812 -0.042969 0.081389 108 98 95
0.011719 -0.042969 0.079964 111 101 98
0.015625 -0.042969 0.078617 113 104 100
0.019531 -0.042969 0.077283 113 104 100
0.023438 -0.042969 0.075722 111 103 100
0.027344 -0.042969 0.073867 107 100 97
0.031250 -0.042969 0.071852 103 96 94
0.035156 -0.042969 0.070327 108 100 99
0.039062 -0.042969 0.069786 116 108 107
0.042969 -0.042969 0.069863 123 114 116
0.046875 -0.042969 0.070133 131 124 124
0.050781 -0.042969 0.069581 139 134 132
0.054688 -0.042969 0.065079 121 114 114
0.058594 -0.042969 0.054322 57 54 55
0.062500 -0.042969 0.047246 27 26 26
0.066406 -0.042969 0.051557 32 30 30
0.070312 -0.042969 0.065914 84 81 80
0.074219 -0.042969 0.081079 168 164 160
0.078125 -0.042969 0.086424 162 154 154
0.082031 -0.042969 0.085224 121 115 118
0.085938 -0.042969 0.082084 123 118 120
0.089844 -0.042969 0.081808 154 149 150
0.093750 -0.042969 0.082424 185 180 179
0.097656 -0.042969 0.083384 188 184 184
0.101562 -0.042969 0.084566 189 185 186
0.105469 -0.042969 0.085732 197 195 195
0.109375 -0.042969 0.086582 199 198 199
0.113281 -0.042969 0.087665 204 202 204
0.117188 -0.042969 0.088822 211 209 210
0.121094 -0.042969 0.090012 213 211 212
0.125000 -0.042969 0.091055 211 208 210
0.128906 -0.042969 0.091562 208 205 207
0.132812 -0.042969 0.091428 204 200 202
0.136719 -0.042969 0.090970 195 192 193
0.140625 -0.042969 0.090511 189 186 187
0.144531 -0.042969 0.090179 189 186 187
0.148438 -0.042969 0.090123 188 185 187
0.152344 -0.042969 0.090141 187 184 184
0.156250 -0.042969 0.090114 188 184 184
0.160156 -0.042969 0.090193 182 180 179
0.164062 -0.042969 0.090405 179 177 176
0.167969 -0.042969 0.090583 185 182 180
0.171875 -0.042969 0.090522 189 185 183
0.175781 -0.042969 0.090089 182 179 177
0.179688 -0.042969 0.089243 169 167 165
0.183594 -0.042969 0.088119 163 160 159
0.187500 -0.042969 0.086822 178 173 171
0.191406 -0.042969 0.085324 185 179 175
0.195312 -0.042969 0.083565 168 162 157
0.199219 -0.042969 0.081706 152 146 140
0.203125 -0.042969 0.080023 139 132 128
0.207031 -0.042969 0.078283 139 131 125
0.210938 -0.042969 0.076086 128 119 114
0.214844 -0.042969 0.073725 111 101 99
0.218750 -0.042969 0.071370 96 91 88
0.222656 -0.042969 0.068681 96 93 92
0.226562 -0.042969 0.065518 113 109 107
0.230469 -0.042969 0.062219 121 117 111
0.234375 -0.042969 0.058986 155 147 135
0.238281 -0.042969 0.055701 183 170 159
0.242188 -0.042969 0.051545 185 170 161
0.246094 -0.042969 0.045514 153 143 134
0.250000 -0.042969 0.036600 110 100 90
0.253906 -0.042969 0.026683 137 114 105
-0.179688 -0.046875 0.016262 145 165 145
-0.175781 -0.046875 0.028266 171 178 160
-0.171875 -0.046875 0.037569 213 212 201
-0.167969 -0.046875 0.045130 212 211 206
-0.164062 -0.046875 0.051406 216 215 214
-0.160156 -0.046875 0.056800 214 212 212
-0.156250 -0.046875 0.062416 217 214 215
-0.152344 -0.046875 0.069365 229 224 225
-0.148438 -0.046875 0.076499 235 233 232
-0.144531 -0.046875 0.082051 220 219 218
-0.140625 -0.046875 0.086455 204 204 204
-0.136719 -0.046875 0.089551 216 216 215
-0.132812 -0.046875 0.091056 212 211 212
-0.128906 -0.046875 0.092112 211 210 211
-0.125000 -0.046875 0.093288 215 215 215
-0.121094 -0.046875 0.094505 212 212 213
-0.117188 -0.046875 0.095846 214 214 215
-0.113281 -0.046875 0.097232 214 214 215
-0.109375 -0.046875 0.098548 212 212 213
-0.105469 -0.046875 0.099788 214 213 214
-0.101562 -0.046875 0.100891 211 210 211
-0.097656 -0.046875 0.101832 205 204 204
-0.093750 -0.046875 0.102679 201 199 200
-0.089844 -0.046875 0.103437 199 198 198
-0.085938 -0.046875 0.104096 198 197 198
-0.082031 -0.046875 0.104746 200 199 199
-0.078125 -0.046875 0.105311 200 199 199
-0.074219 -0.046875 0.105767 198 196 196
-0.070312 -0.046875 0.106061 196 194 194
-0.066406 -0.046875 0.106281 197 194 194
-0.062500 -0.046875 0.106474 201 199 199
-0.058594 -0.046875 0.106583 202 200 201
-0.054688 -0.046875 0.106598 196 195 196
-0.050781 -0.046875 0.106471 190 189 191
-0.046875 -0.046875 0.106140 190 189 190
-0.042969 -0.046875 0.105507 188 186 186
-0.039062 -0.046875 0.104535 182 180 179
-0.035156 -0.046875 0.103259 176 172 171
-0.031250 -0.046875 0.101759 162 157 157
-0.027344 -0.046875 0.099951 147 141 142
-0.023438 -0.046875 0.097898 140 132 134
-0.019531 -0.046875 0.095753 135 126 128
-0.015625 -0.046875 0.093623 134 125 126
-0.011719 -0.046875 0.091401 132 124 122
-0.007812 -0.046875 0.089034 118 110 107
-0.003906 -0.046875 0.086720 110 101 99
0.000000 -0.046875 0.084558 112 102 100
0.003906 -0.046875 0.082554 112 102 100
0.007812 -0.046875 0.080815 112 101 98
0.011719 -0.046875 0.079267 112 102 98
0.015625 -0.046875 0.077783 111 102 97
0.019531 -0.046875 0.076300 112 103 99
0.023438 -0.046875 0.074603 114 105 101
0.027344 -0.046875 0.072640 111 102 99
0.031250 -0.046875 0.070532 105 96 95
0.035156 -0.046875 0.068925 106 98 97
0.039062 -0.046875 0.068441 113 105 104
0.042969 -0.046875 0.068718 122 112 114
0.046875 -0.046875 0.069258 130 122 122
0.050781 -0.046875 0.068949 139 133 130
0.054688 -0.046875 0.064452 120 111 112
0.058594 -0.046875 0.053836 49 45 49
0.062500 -0.046875 0.047460 23 23 24
0.066406 -0.046875 0.053906 44 42 43
0.070312 -0.046875 0.067909 118 114 111
0.074219 -0.046875 0.079454 166 162 158
0.078125 -0.046875 0.083762 146 140 143
0.082031 -0.046875 0.083411 127 122 126
0.085938 -0.046875 0.082216 143 138 140
0.089844 -0.046875 0.082603 169 165 165
0.093750 -0.046875 0.083265 188 184 184
0.097656 -0.046875 0.083971 189 185 186
0.101562 -0.046875 0.085024 190 187 188
0.105469 -0.046875 0.086038 198 195 196
0.109375 -0.046875 0.086879 201 199 201
0.113281 -0.046875 0.087947 206 204 207
0.117188 -0.046875 0.089023 212 210 212
0.121094 -0.046875 0.090062 211 209 211
0.125000 -0.046875 0.090951 207 204 206
0.128906 -0.046875 0.091398 203 200 202
0.132812 -0.046875 0.091329 199 196 198
0.136719 -0.046875 0.091026 193 190 192
0.140625 -0.046875 0.090762 191 189 190
0.144531 -0.046875 0.090620 194 192 193
0.148438 -0.046875 0.090688 195 192 192
0.152344 -0.046875 0.090772 191 188 188
0.156250 -0.046875 0.090830 189 187 186
0.160156 -0.046875 0.090973 188 185 184
0.164062 -0.046875 0.091173 187 184 183
0.167969 -0.046875 0.091266 188 185 183
0.171875 -0.046875 0.091107 187 183 181
0.175781 -0.046875 0.090666 178 175 174
0.179688 -0.046875 0.089909 167 166 165
0.183594 -0.046875 0.088967 171 169 166
0.187500 -0.046875 0.087843 183 178 174
0.191406 -0.046875 0.086513 174 168 163
0.195312 -0.046875 0.084975 151 144 138
0.199219 -0.046875 0.083357 146 137 131
0.203125 -0.046875 0.081832 139 128 124
0.207031 -0.046875 0.080118 131 120 116
0.210938 -0.046875 0.077917 114 105 105
0.214844 -0.046875 0.075604 100 94 96
0.218750 -0.046875 0.073550 100 98 100
0.222656 -0.046875 0.071184 118 116 117
0.226562 -0.046875 0.068106 161 155 148
0.230469 -0.046875 0.064733 186 177 161
0.234375 -0.046875 0.061134 186 172 154
0.238281 -0.046875 0.057332 163 144 130
0.242188 -0.046875 0.052781 143 123 115
0.246094 -0.046875 0.046925 130 118 109
0.250000 -0.046875 0.038434 134 128 112
0.253906 -0.046875 0.028075 147 138 119
-0.179688 -0.050781 0.015220 58 65 56
-0.175781 -0.050781 0.028226 161 164 142
-0.171875 -0.050781 0.037694 222 221 211
-0.167969 -0.050781 0.044595 218 217 213
-0.164062 -0.050781 0.050347 225 224 222
-0.160156 -0.050781 0.055844 229 227 226
-0.156250 -0.050781 0.061825 232 229 228
-0.152344 -0.050781 0.069283 233 229 229
-0.148438 -0.050781 0.076700 234 231 230
-0.144531 -0.050781 0.082216 212 211 210
-0.140625 -0.050781 0.086535 196 197 196
-0.136719 -0.050781 0.089587 217 217 216
-0.132812 -0.050781 0.090996 209 208 209
-0.128906 -0.050781 0.091851 202 201 203
-0.125000 -0.050781 0.092866 209 209 210
-0.121094 -0.050781 0.094012 209 209 211
-0.117188 -0.050781 0.095316 214 214 215
-0.113281 -0.050781 0.096665 213 213 214
-0.109375 -0.050781 0.097925 209 209 210
-0.105469 -0.050781 0.099115 211 211 211
-0.101562 -0.050781 0.100181 209 208 209
-0.097656 -0.050781 0.101070 202 202 203
-0.093750 -0.050781 0.101868 199 199 199
-0.089844 -0.050781 0.102622 201 201 202
-0.085938 -0.050781 0.103301 204 203 204
-0.082031 -0.050781 0.103964 204 204 204
-0.078125 -0.050781 0.104551 202 202 202
-0.074219 -0.050781 0.105016 197 197 197
-0.070312 -0.050781 0.105291 193 192 193
-0.066406 -0.050781 0.105500 194 193 193
-0.062500 -0.050781 0.105688 200 198 198
-0.058594 -0.050781 0.105792 202 200 200
-0.054688 -0.050781 0.105815 196 194 195
-0.050781 -0.050781 0.105699 189 187 189
-0.046875 -0.050781 0.105362 184 183 185
-0.042969 -0.050781 0.104721 179 177 179
-0.039062 -0.050781 0.103734 173 170 171
-0.035156 -0.050781 0.102455 167 163 163
-0.031250 -0.050781 0.100981 157 152 152
-0.027344 -0.050781 0.099210 150 144 144
-0.023438 -0.050781 0.097170 145 138 138
-0.019531 -0.050781 0.095011 137 128 129
-0.015625 -0.050781 0.092894 134 124 125
-0.011719 -0.050781 0.090721 130 121 120
-0.007812 -0.050781 0.088411 116 108 107
-0.003906 -0.050781 0.086162 107 99 98
0.000000 -0.050781 0.084060 108 98 97
0.003906 -0.050781 0.082075 108 98 96
0.007812 -0.050781 0.080285 109 98 95
0.011719 -0.050781 0.078617 106 96 93
0.015625 -0.050781 0.076978 104 95 92
0.019531 -0.050781 0.075330 109 99 96
0.023438 -0.050781 0.073498 113 103 100
0.027344 -0.050781 0.071449 110 100 98
0.031250 -0.050781 0.069284 104 95 94
0.035156 -0.050781 0.067608 106 97 96
0.039062 -0.050781 0.067107 112 103 102
0.042969 -0.050781 0.067502 119 109 110
0.046875 -0.050781 0.068258 123 115 115
0.050781 -0.050781 0.068203 132 126 124
0.054688 -0.050781 0.063805 114 104 105
0.058594 -0.050781 0.053361 41 37 42
0.062500 -0.050781 0.048006 21 21 23
0.066406 -0.050781 0.056029 60 58 58
0.070312 -0.050781 0.068199 143 139 134
0.074219 -0.050781 0.077356 161 159 155
0.078125 -0.050781 0.081248 141 138 140
0.082031 -0.050781 0.082191 144 139 143
0.085938 -0.050781 0.082198 165 161 162
0.089844 -0.050781 0.082697 179 176 176
0.093750 -0.050781 0.083337 188 185 186
0.097656 -0.050781 0.084058 189 186 187
0.101562 -0.050781 0.085088 189 187 189
0.105469 -0.050781 0.086131 195 193 195
0.109375 -0.050781 0.087102 201 200 203
0.113281 -0.050781 0.088193 208 207 210
0.117188 -0.050781 0.089210 212 210 212
0.121094 -0.050781 0.090157 210 208 210
0.125000 -0.050781 0.090971 207 204 207
0.128906 -0.050781 0.091426 203 200 203
0.132812 -0.050781 0.091513 201 198 200
0.136719 -0.050781 0.091428 199 197 198
0.140625 -0.050781 0.091350 199 197 198
0.144531 -0.050781 0.091328 200 198 198
0.148438 -0.050781 0.091463 197 195 194
0.152344 -0.050781 0.091594 189 187 187
0.156250 -0.050781 0.091714 185 183 184
0.160156 -0.050781 0.091896 186 184 183
0.164062 -0.050781 0.092040 185 183 181
0.167969 -0.050781 0.092004 179 177 176
0.171875 -0.050781 0.091739 176 174 172
0.175781 -0.050781 0.091260 180 178 175
0.179688 -0.050781 0.090544 179 177 174
0.183594 -0.050781 0.089681 184 180 176
0.187500 -0.050781 0.088639 188 181 176
0.191406 -0.050781 0.087428 167 158 152
0.195312 -0.050781 0.086086 142 131 126
0.199219 -0.050781 0.084767 138 126 122
0.203125 -0.050781 0.083494 126 115 114
0.207031 -0.050781 0.081971 115 106 109
0.210938 -0.050781 0.080034 116 112 117
0.214844 -0.050781 0.077968 136 135 137
0.218750 -0.050781 0.076134 171 168 168
0.222656 -0.050781 0.073795 197 193 187
0.226562 -0.050781 0.070402 210 202 188
0.230469 -0.050781 0.066580 196 183 163
0.234375 -0.050781 0.062617 142 126 106
0.238281 -0.050781 0.058633 96 82 70
0.242188 -0.050781 0.054240 102 86 75
0.246094 -0.050781 0.049240 158 141 122
0.250000 -0.050781 0.041508 216 205 186
0.253906 -0.050781 0.029925 187 173 152
-0.179688 -0.054688 0.015557 102 105 87
-0.175781 -0.054688 0.028702 193 192 173
-0.171875 -0.054688 0.037148 229 226 218
-0.167969 -0.054688 0.042702 221 215 210
-0.164062 -0.054688 0.047412 222 216 213
-0.160156 -0.054688 0.052902 226 221 218
-0.156250 -0.054688 0.059846 227 222 220
-0.152344 -0.054688 0.068542 231 226 225
-0.148438 -0.054688 0.076799 235 232 230
-0.144531 -0.054688 0.082514 205 205 203
-0.140625 -0.054688 0.086673 185 187 186
-0.136719 -0.054688 0.089635 219 217 216
-0.132812 -0.054688 0.090947 213 211 212
-0.128906 -0.054688 0.091617 202 202 204
-0.125000 -0.054688 0.092462 209 209 210
-0.121094 -0.054688 0.093489 207 207 208
-0.117188 -0.054688 0.094727 210 209 210
-0.113281 -0.054688 0.096037 207 207 208
-0.109375 -0.054688 0.097270 204 204 205
-0.105469 -0.054688 0.098434 207 206 207
-0.101562 -0.054688 0.099481 206 206 206
-0.097656 -0.054688 0.100366 203 203 203
-0.093750 -0.054688 0.101160 202 202 203
-0.089844 -0.054688 0.101918 205 205 205
-0.085938 -0.054688 0.102606 205 205 206
-0.082031 -0.054688 0.103297 204 205 205
-0.078125 -0.054688 0.103935 204 204 205
-0.074219 -0.054688 0.104421 199 199 200
-0.070312 -0.054688 0.104681 193 192 193
-0.066406 -0.054688 0.104863 191 190 191
-0.062500 -0.054688 0.105006 196 194 195
-0.058594 -0.054688 0.105063 197 195 195
-0.054688 -0.054688 0.105069 192 190 191
-0.050781 -0.054688 0.104957 186 185 186
-0.046875 -0.054688 0.104629 180 180 181
-0.042969 -0.054688 0.104013 171 171 173
-0.039062 -0.054688 0.103057 165 163 165
-0.035156 -0.054688 0.101794 161 158 158
-0.031250 -0.054688 0.100317 154 148 149
-0.027344 -0.054688 0.098537 150 143 144
-0.023438 -0.054688 0.096502 146 138 139
-0.019531 -0.054688 0.094354 138 130 131
-0.015625 -0.054688 0.092242 136 127 127
-0.011719 -0.054688 0.090088 131 123 122
-0.007812 -0.054688 0.087834 122 113 112
-0.003906 -0.054688 0.085657 114 106 105
0.000000 -0.054688 0.083600 109 101 99
0.003906 -0.054688 0.081612 105 95 94
0.007812 -0.054688 0.079797 107 97 95
0.011719 -0.054688 0.078065 110 99 97
0.015625 -0.054688 0.076292 109 99 96
0.019531 -0.054688 0.074461 110 101 98
0.023438 -0.054688 0.072478 108 98 96
0.027344 -0.054688 0.070353 104 95 94
0.031250 -0.054688 0.068192 106 97 96
0.035156 -0.054688 0.066422 107 97 97
0.039062 -0.054688 0.065764 107 98 98
0.042969 -0.054688 0.066246 111 101 103
0.046875 -0.054688 0.067235 111 105 106
0.050781 -0.054688 0.067276 122 117 114
0.054688 -0.054688 0.062589 101 91 93
0.058594 -0.054688 0.051934 34 30 34
0.062500 -0.054688 0.047614 22 21 24
0.066406 -0.054688 0.056296 76 72 71
0.070312 -0.054688 0.067159 154 150 144
0.074219 -0.054688 0.075136 159 157 155
0.078125 -0.054688 0.078884 143 141 144
0.082031 -0.054688 0.080529 153 149 152
0.085938 -0.054688 0.081254 173 168 169
0.089844 -0.054688 0.082151 183 180 180
0.093750 -0.054688 0.083052 190 186 187
0.097656 -0.054688 0.083951 192 189 189
0.101562 -0.054688 0.085038 191 189 191
0.105469 -0.054688 0.086149 195 193 196
0.109375 -0.054688 0.087216 203 202 205
0.113281 -0.054688 0.088277 210 209 211
0.117188 -0.054688 0.089202 210 208 211
0.121094 -0.054688 0.090068 208 206 209
0.125000 -0.054688 0.090804 207 204 206
0.128906 -0.054688 0.091284 202 200 201
0.132812 -0.054688 0.091531 200 197 199
0.136719 -0.054688 0.091633 199 197 198
0.140625 -0.054688 0.091734 196 194 195
0.144531 -0.054688 0.091837 192 191 192
0.148438 -0.054688 0.092111 189 188 189
0.152344 -0.054688 0.092409 185 184 186
0.156250 -0.054688 0.092632 186 184 185
0.160156 -0.054688 0.092845 189 186 186
0.164062 -0.054688 0.092940 188 186 184
0.167969 -0.054688 0.092863 183 180 178
0.171875 -0.054688 0.092531 178 175 172
0.175781 -0.054688 0.092013 184 180 175
0.179688 -0.054688 0.091280 180 176 171
0.183594 -0.054688 0.090350 176 171 165
0.187500 -0.054688 0.089284 170 162 157
0.191406 -0.054688 0.088101 142 133 130
0.195312 -0.054688 0.086911 124 115 114
0.199219 -0.054688 0.085804 121 113 115
0.203125 -0.054688 0.084893 129 122 127
0.207031 -0.054688 0.083823 152 145 151
0.210938 -0.054688 0.082255 185 180 180
0.214844 -0.054688 0.080482 213 208 205
0.218750 -0.054688 0.078593 220 213 210
0.222656 -0.054688 0.075917 211 203 194
0.226562 -0.054688 0.072096 176 165 147
0.230469 -0.054688 0.067953 126 107 92
0.234375 -0.054688 0.064014 93 75 62
0.238281 -0.054688 0.060224 93 74 60
0.242188 -0.054688 0.056000 106 87 71
0.246094 -0.054688 0.051197 138 118 99
0.250000 -0.054688 0.044026 176 154 137
0.253906 -0.054688 0.032851 83 62 63
-0.179688 -0.058594 0.015287 187 188 178
-0.175781 -0.058594 0.028574 216 214 206
-0.171875 -0.058594 0.035955 213 203 199
-0.167969 -0.058594 0.039831 172 156 154
-0.164062 -0.058594 0.043293 158 142 137
-0.160156 -0.058594 0.048879 177 162 158
-0.156250 -0.058594 0.057341 189 175 173
-0.152344 -0.058594 0.067705 217 205 205
-0.148438 -0.058594 0.076891 236 231 229
-0.144531 -0.058594 0.082820 205 204 201
-0.140625 -0.058594 0.086767 174 174 175
-0.136719 -0.058594 0.089658 215 213 211
-0.132812 -0.058594 0.090908 216 215 214
-0.128906 -0.058594 0.091379 209 208 209
-0.125000 -0.058594 0.092017 213 213 213
-0.121094 -0.058594 0.092887 208 207 209
-0.117188 -0.058594 0.094019 207 206 208
-0.113281 -0.058594 0.095246 207 206 207
-0.109375 -0.058594 0.096454 207 206 207
-0.105469 -0.058594 0.097607 208 207 207
-0.101562 -0.058594 0.098655 205 205 205
-0.097656 -0.058594 0.099589 203 203 203
-0.093750 -0.058594 0.100446 204 204 204
-0.089844 -0.058594 0.101243 205 205 206
-0.085938 -0.058594 0.101978 204 205 205
-0.082031 -0.058594 0.102760 204 205 205
-0.078125 -0.058594 0.103494 205 205 205
-0.074219 -0.058594 0.104029 199 198 200
-0.070312 -0.058594 0.104303 192 192 193
-0.066406 -0.058594 0.104485 190 189 190
-0.062500 -0.058594 0.104582 190 188 190
-0.058594 -0.058594 0.104578 186 185 186
-0.054688 -0.058594 0.104571 182 181 183
-0.050781 -0.058594 0.104471 184 182 184
-0.046875 -0.058594 0.104142 183 182 183
-0.042969 -0.058594 0.103527 177 176 178
-0.039062 -0.058594 0.102567 171 168 170
-0.035156 -0.058594 0.101282 160 157 158
-0.031250 -0.058594 0.099787 147 142 144
-0.027344 -0.058594 0.098019 143 137 139
-0.023438 -0.058594 0.096027 142 134 136
-0.019531 -0.058594 0.093924 137 129 131
-0.015625 -0.058594 0.091838 137 129 129
-0.011719 -0.058594 0.089709 133 125 124
-0.007812 -0.058594 0.087471 126 118 116
-0.003906 -0.058594 0.085306 124 115 113
0.000000 -0.058594 0.083267 119 111 108
0.003906 -0.058594 0.081278 111 102 100
0.007812 -0.058594 0.079427 112 102 99
0.011719 -0.058594 0.077644 118 107 104
0.015625 -0.058594 0.075790 118 107 104
0.019531 -0.058594 0.073820 116 107 103
0.023438 -0.058594 0.071741 110 102 99
0.027344 -0.058594 0.069579 109 101 99
0.031250 -0.058594 0.067433 116 106 104
0.035156 -0.058594 0.065547 108 99 98
0.039062 -0.058594 0.064731 101 94 93
0.042969 -0.058594 0.065217 107 99 99
0.046875 -0.058594 0.066293 112 106 106
0.050781 -0.058594 0.066289 124 119 114
0.054688 -0.058594 0.060929 91 82 82
0.058594 -0.058594 0.049452 28 24 27
0.062500 -0.058594 0.046048 22 20 23
0.066406 -0.058594 0.054970 79 74 73
0.070312 -0.058594 0.065144 154 149 145
0.074219 -0.058594 0.072655 164 162 160
0.078125 -0.058594 0.076559 154 152 154
0.082031 -0.058594 0.078634 157 154 157
0.085938 -0.058594 0.079753 169 166 167
0.089844 -0.058594 0.080992 179 176 176
0.093750 -0.058594 0.082284 184 181 182
0.097656 -0.058594 0.083532 186 184 185
0.101562 -0.058594 0.084834 189 188 190
0.105469 -0.058594 0.086069 195 194 197
0.109375 -0.058594 0.087172 205 204 207
0.113281 -0.058594 0.088091 209 208 211
0.117188 -0.058594 0.088781 206 204 208
0.121094 -0.058594 0.089328 206 204 206
0.125000 -0.058594 0.089726 203 201 202
0.128906 -0.058594 0.090006 195 193 194
0.132812 -0.058594 0.090294 192 189 191
0.136719 -0.058594 0.090609 192 189 189
0.140625 -0.058594 0.091006 188 186 186
0.144531 -0.058594 0.091461 187 186 185
0.148438 -0.058594 0.092100 191 189 188
0.152344 -0.058594 0.092775 194 192 191
0.156250 -0.058594 0.093261 193 190 188
0.160156 -0.058594 0.093591 189 184 183
0.164062 -0.058594 0.093791 186 181 179
0.167969 -0.058594 0.093810 178 173 172
0.171875 -0.058594 0.093519 163 157 156
0.175781 -0.058594 0.093072 159 152 152
0.179688 -0.058594 0.092411 152 146 147
0.183594 -0.058594 0.091512 148 143 142
0.187500 -0.058594 0.090481 151 145 143
0.191406 -0.058594 0.089410 149 143 140
0.195312 -0.058594 0.088464 164 158 155
0.199219 -0.058594 0.087504 179 175 173
0.203125 -0.058594 0.086626 199 194 195
0.207031 -0.058594 0.085560 217 211 211
0.210938 -0.058594 0.083858 222 215 212
0.214844 -0.058594 0.081924 220 210 206
0.218750 -0.058594 0.079907 189 172 173
0.222656 -0.058594 0.077193 135 118 114
0.226562 -0.058594 0.073508 91 78 70
0.230469 -0.058594 0.069641 84 66 57
0.234375 -0.058594 0.065880 107 80 65
0.238281 -0.058594 0.062050 132 99 80
0.242188 -0.058594 0.057819 132 102 85
0.246094 -0.058594 0.053003 111 90 76
0.250000 -0.058594 0.046168 105 90 80
0.253906 -0.058594 0.036273 78 64 62
-0.179688 -0.062500 0.013974 223 227 220
-0.175781 -0.062500 0.027654 228 229 223
-0.171875 -0.062500 0.034709 200 190 189
-0.167969 -0.062500 0.037694 134 117 120
-0.164062 -0.062500 0.040067 110 94 92
-0.160156 -0.062500 0.045812 162 141 134
-0.156250 -0.062500 0.055651 182 159 153
-0.152344 -0.062500 0.067268 211 190 188
-0.148438 -0.062500 0.077005 237 229 226
-0.144531 -0.062500 0.083149 210 206 203
-0.140625 -0.062500 0.086985 166 165 167
-0.136719 -0.062500 0.089731 204 202 201
-0.132812 -0.062500 0.090876 214 212 212
-0.128906 -0.062500 0.091168 211 211 211
-0.125000 -0.062500 0.091595 214 214 214
-0.121094 -0.062500 0.092288 207 208 209
-0.117188 -0.062500 0.093305 207 206 207
-0.113281 -0.062500 0.094430 209 208 208
-0.109375 -0.062500 0.095584 211 210 209
-0.105469 -0.062500 0.096722 210 209 209
-0.101562 -0.062500 0.097804 207 206 206
-0.097656 -0.062500 0.098828 207 206 206
-0.093750 -0.062500 0.099787 208 208 207
-0.089844 -0.062500 0.100677 207 207 207
-0.085938 -0.062500 0.101518 206 206 206
-0.082031 -0.062500 0.102421 207 207 208
-0.078125 -0.062500 0.103259 207 207 208
-0.074219 -0.062500 0.103859 201 200 202
-0.070312 -0.062500 0.104175 196 195 197
-0.066406 -0.062500 0.104381 193 193 194
-0.062500 -0.062500 0.104462 186 186 188
-0.058594 -0.062500 0.104432 178 178 181
-0.054688 -0.062500 0.104406 175 176 178
-0.050781 -0.062500 0.104267 181 179 182
-0.046875 -0.062500 0.103870 181 180 182
-0.042969 -0.062500 0.103199 178 175 177
-0.039062 -0.062500 0.102194 173 170 172
-0.035156 -0.062500 0.100880 160 157 159
-0.031250 -0.062500 0.099406 147 142 145
-0.027344 -0.062500 0.097673 144 139 141
-0.023438 -0.062500 0.095684 140 134 136
-0.019531 -0.062500 0.093586 136 129 131
-0.015625 -0.062500 0.091518 140 132 132
-0.011719 -0.062500 0.089385 136 128 127
-0.007812 -0.062500 0.087096 123 115 114
-0.003906 -0.062500 0.084872 118 110 108
0.000000 -0.062500 0.082813 116 108 106
0.003906 -0.062500 0.080815 109 101 100
0.007812 -0.062500 0.078923 107 97 96
0.011719 -0.062500 0.077085 110 99 98
0.015625 -0.062500 0.075205 111 101 99
0.019531 -0.062500 0.073204 115 105 103
0.023438 -0.062500 0.071074 115 106 103
0.027344 -0.062500 0.068830 115 107 104
0.031250 -0.062500 0.066612 118 108 105
0.035156 -0.062500 0.064662 104 96 95
0.039062 -0.062500 0.063832 97 90 89
0.042969 -0.062500 0.064329 104 96 96
0.046875 -0.062500 0.065544 112 105 104
0.050781 -0.062500 0.065286 121 116 109
0.054688 -0.062500 0.058740 78 69 68
0.058594 -0.062500 0.046225 25 20 23
0.062500 -0.062500 0.043938 25 22 24
0.066406 -0.062500 0.052939 80 74 73
0.070312 -0.062500 0.062728 153 148 144
0.074219 -0.062500 0.070060 171 168 167
0.078125 -0.062500 0.074266 163 161 162
0.082031 -0.062500 0.076742 157 156 158
0.085938 -0.062500 0.078160 159 157 159
0.089844 -0.062500 0.079740 167 165 166
0.093750 -0.062500 0.081436 172 171 173
0.097656 -0.062500 0.083027 179 179 181
0.101562 -0.062500 0.084569 192 192 194
0.105469 -0.062500 0.085927 201 201 203
0.109375 -0.062500 0.087004 209 208 210
0.113281 -0.062500 0.087670 210 209 211
0.117188 -0.062500 0.087932 205 204 206
0.121094 -0.062500 0.087893 205 203 204
0.125000 -0.062500 0.087783 200 196 196
0.128906 -0.062500 0.087772 188 185 186
0.132812 -0.062500 0.088043 183 179 180
0.136719 -0.062500 0.088539 178 173 173
0.140625 -0.062500 0.089249 176 172 171
0.144531 -0.062500 0.090175 180 176 174
0.148438 -0.062500 0.091251 185 180 177
0.152344 -0.062500 0.092392 185 180 177
0.156250 -0.062500 0.093306 173 167 166
0.160156 -0.062500 0.093999 161 153 156
0.164062 -0.062500 0.094594 159 151 155
0.167969 -0.062500 0.094972 151 145 149
0.171875 -0.062500 0.095037 136 132 136
0.175781 -0.062500 0.094836 140 136 141
0.179688 -0.062500 0.094386 154 150 156
0.183594 -0.062500 0.093596 167 164 165
0.187500 -0.062500 0.092510 186 183 181
0.191406 -0.062500 0.091453 205 199 196
0.195312 -0.062500 0.090500 222 216 212
0.199219 -0.062500 0.089403 229 223 219
0.203125 -0.062500 0.088131 226 217 215
0.207031 -0.062500 0.086633 216 204 202
0.210938 -0.062500 0.084606 190 172 168
0.214844 -0.062500 0.082459 154 130 129
0.218750 -0.062500 0.080555 113 89 92
0.222656 -0.062500 0.078119 93 69 66
0.226562 -0.062500 0.074789 94 71 62
0.230469 -0.062500 0.071190 109 82 68
0.234375 -0.062500 0.067482 127 96 76
0.238281 -0.062500 0.063736 137 103 82
0.242188 -0.062500 0.059597 140 107 87
0.246094 -0.062500 0.054863 118 95 80
0.250000 -0.062500 0.048537 138 126 108
0.253906 -0.062500 0.039621 208 203 182
-0.179688 -0.066406 0.012908 224 229 222
-0.175781 -0.066406 0.026292 232 233 229
-0.171875 -0.066406 0.033864 216 208 206
-0.167969 -0.066406 0.037058 171 149 146
-0.164062 -0.066406 0.038292 148 123 114
-0.160156 -0.066406 0.044037 206 183 169
-0.156250 -0.066406 0.054576 213 187 176
-0.152344 -0.066406 0.066538 215 188 183
-0.148438 -0.066406 0.076664 233 223 219
-0.144531 -0.066406 0.083210 212 206 203
-0.140625 -0.066406 0.087247 171 169 170
-0.136719 -0.066406 0.089922 201 199 198
-0.132812 -0.066406 0.090861 216 215 214
-0.128906 -0.066406 0.090988 214 215 214
-0.125000 -0.066406 0.091215 214 215 215
-0.121094 -0.066406 0.091696 207 208 209
-0.117188 -0.066406 0.092587 204 204 205
-0.113281 -0.066406 0.093575 205 204 205
-0.109375 -0.066406 0.094618 206 205 205
-0.105469 -0.066406 0.095731 205 204 204
-0.101562 -0.066406 0.096883 202 202 202
-0.097656 -0.066406 0.098035 205 205 204
-0.093750 -0.066406 0.099122 207 206 205
-0.089844 -0.066406 0.100145 205 205 205
-0.085938 -0.066406 0.101133 206 206 206
-0.082031 -0.066406 0.102163 208 207 208
-0.078125 -0.066406 0.103117 207 207 208
-0.074219 -0.066406 0.103806 203 203 204
-0.070312 -0.066406 0.104181 200 200 201
-0.066406 -0.066406 0.104412 199 198 199
-0.062500 -0.066406 0.104502 194 193 195
-0.058594 -0.066406 0.104474 189 188 190
-0.054688 -0.066406 0.104406 187 186 188
-0.050781 -0.066406 0.104178 185 183 185
-0.046875 -0.066406 0.103673 179 177 179
-0.042969 -0.066406 0.102931 173 171 173
-0.039062 -0.066406 0.101901 170 167 169
-0.035156 -0.066406 0.100605 163 159 161
-0.031250 -0.066406 0.099170 157 152 154
-0.027344 -0.066406 0.097452 152 147 149
-0.023438 -0.066406 0.095448 140 135 137
-0.019531 -0.066406 0.093354 133 127 129
-0.015625 -0.066406 0.091290 138 130 131
-0.011719 -0.066406 0.089086 132 124 124
-0.007812 -0.066406 0.086718 117 110 109
-0.003906 -0.066406 0.084452 110 103 102
0.000000 -0.066406 0.082361 111 103 102
0.003906 -0.066406 0.080334 109 101 100
0.007812 -0.066406 0.078413 106 96 95
0.011719 -0.066406 0.076536 104 95 94
0.015625 -0.066406 0.074604 107 98 96
0.019531 -0.066406 0.072529 115 105 102
0.023438 -0.066406 0.070306 115 106 103
0.027344 -0.066406 0.067920 112 103 100
0.031250 -0.066406 0.065666 109 101 98
0.035156 -0.066406 0.063711 97 90 89
0.039062 -0.066406 0.062876 95 89 87
0.042969 -0.066406 0.063343 99 92 91
0.046875 -0.066406 0.064812 106 100 98
0.050781 -0.066406 0.064264 113 108 101
0.054688 -0.066406 0.056258 64 56 55
0.058594 -0.066406 0.042552 24 19 21
0.062500 -0.066406 0.041767 29 25 26
0.066406 -0.066406 0.050232 75 69 69
0.070312 -0.066406 0.059891 140 134 133
0.074219 -0.066406 0.067416 165 162 162
0.078125 -0.066406 0.071999 161 159 161
0.082031 -0.066406 0.074773 156 155 157
0.085938 -0.066406 0.076475 154 154 155
0.089844 -0.066406 0.078468 163 162 163
0.093750 -0.066406 0.080565 175 174 176
0.097656 -0.066406 0.082435 188 188 189
0.101562 -0.066406 0.084109 202 202 203
0.105469 -0.066406 0.085471 206 206 207
0.109375 -0.066406 0.086388 209 208 210
0.113281 -0.066406 0.086677 208 206 208
0.117188 -0.066406 0.086393 198 195 198
0.121094 -0.066406 0.085709 192 188 190
0.125000 -0.066406 0.085221 184 181 181
0.128906 -0.066406 0.085121 179 175 176
0.132812 -0.066406 0.085405 177 172 172
0.136719 -0.066406 0.085961 169 164 163
0.140625 -0.066406 0.086858 168 161 161
0.144531 -0.066406 0.088145 167 159 158
0.148438 -0.066406 0.089743 158 151 151
0.152344 -0.066406 0.091631 152 146 148
0.156250 -0.066406 0.093352 143 138 144
0.160156 -0.066406 0.094876 146 139 148
0.164062 -0.066406 0.096195 160 153 161
0.167969 -0.066406 0.097173 166 160 167
0.171875 -0.066406 0.097748 169 165 170
0.175781 -0.066406 0.097764 187 184 187
0.179688 -0.066406 0.097337 208 205 206
0.183594 -0.066406 0.096276 219 216 214
0.187500 -0.066406 0.094640 226 222 219
0.191406 -0.066406 0.093067 229 223 219
0.195312 -0.066406 0.091610 229 221 216
0.199219 -0.066406 0.090063 221 207 202
0.203125 -0.066406 0.088480 189 166 162
0.207031 -0.066406 0.086887 144 117 115
0.210938 -0.066406 0.085009 111 85 81
0.214844 -0.066406 0.083128 102 74 69
0.218750 -0.066406 0.081488 114 80 72
0.222656 -0.066406 0.079218 129 89 75
0.226562 -0.066406 0.076022 135 96 79
0.230469 -0.066406 0.072495 133 98 80
0.234375 -0.066406 0.068822 129 98 78
0.238281 -0.066406 0.065230 128 97 76
0.242188 -0.066406 0.061237 138 105 82
0.246094 -0.066406 0.056634 127 100 83
0.250000 -0.066406 0.050529 134 121 103
0.253906 -0.066406 0.042150 188 181 165
-0.179688 -0.070312 0.010748 214 216 214
-0.175781 -0.070312 0.024424 229 229 228
-0.171875 -0.070312 0.032947 221 213 212
-0.167969 -0.070312 0.035396 171 146 140
-0.164062 -0.070312 0.036071 150 119 108
-0.160156 -0.070312 0.040807 212 186 170
-0.156250 -0.070312 0.052880 217 188 172
-0.152344 -0.070312 0.065769 210 176 166
-0.148438 -0.070312 0.076235 227 211 204
-0.144531 -0.070312 0.083199 213 205 201
-0.140625 -0.070312 0.087527 176 173 171
-0.136719 -0.070312 0.090073 196 193 190
-0.132812 -0.070312 0.090752 215 214 213
-0.128906 -0.070312 0.090706 213 214 214
-0.125000 -0.070312 0.090794 208 210 211
-0.121094 -0.070312 0.091108 205 207 209
-0.117188 -0.070312 0.091928 204 205 207
-0.113281 -0.070312 0.092884 203 203 205
-0.109375 -0.070312 0.093854 204 203 204
-0.105469 -0.070312 0.094956 202 202 202
-0.101562 -0.070312 0.096162 198 199 199
-0.097656 -0.070312 0.097378 200 200 200
-0.093750 -0.070312 0.098547 201 201 200
-0.089844 -0.070312 0.099680 201 201 200
-0.085938 -0.070312 0.100783 203 202 202
-0.082031 -0.070312 0.101909 205 203 203
-0.078125 -0.070312 0.102970 206 205 205
-0.074219 -0.070312 0.103768 204 202 203
-0.070312 -0.070312 0.104216 202 201 202
-0.066406 -0.070312 0.104489 199 198 199
-0.062500 -0.070312 0.104601 195 194 195
-0.058594 -0.070312 0.104571 193 192 193
-0.054688 -0.070312 0.104449 189 188 189
-0.050781 -0.070312 0.104132 182 180 182
-0.046875 -0.070312 0.103558 175 173 176
-0.042969 -0.070312 0.102768 170 168 171
-0.039062 -0.070312 0.101713 166 164 166
-0.035156 -0.070312 0.100426 164 160 162
-0.031250 -0.070312 0.098981 161 155 157
-0.027344 -0.070312 0.097229 153 147 148
-0.023438 -0.070312 0.095217 141 136 138
-0.019531 -0.070312 0.093165 142 136 137
-0.015625 -0.070312 0.091104 146 137 138
-0.011719 -0.070312 0.088828 131 124 123
-0.007812 -0.070312 0.086396 117 110 110
-0.003906 -0.070312 0.084073 113 106 105
0.000000 -0.070312 0.081919 113 105 104
0.003906 -0.070312 0.079844 113 104 102
0.007812 -0.070312 0.077901 111 101 99
0.011719 -0.070312 0.075992 111 100 99
0.015625 -0.070312 0.074015 115 105 102
0.019531 -0.070312 0.071905 118 108 105
0.023438 -0.070312 0.069622 115 106 102
0.027344 -0.070312 0.067235 113 105 102
0.031250 -0.070312 0.065104 110 102 100
0.035156 -0.070312 0.063270 101 93 91
0.039062 -0.070312 0.062556 101 94 92
0.042969 -0.070312 0.062744 102 95 93
0.046875 -0.070312 0.064366 111 104 101
0.050781 -0.070312 0.063727 112 106 99
0.054688 -0.070312 0.053338 54 47 46
0.058594 -0.070312 0.038309 23 18 20
0.062500 -0.070312 0.039876 31 26 27
0.066406 -0.070312 0.047681 69 63 64
0.070312 -0.070312 0.057382 129 125 125
0.074219 -0.070312 0.065107 158 154 156
0.078125 -0.070312 0.070117 158 154 158
0.082031 -0.070312 0.073286 157 155 157
0.085938 -0.070312 0.075239 153 153 155
0.089844 -0.070312 0.077508 165 164 167
0.093750 -0.070312 0.079833 182 182 183
0.097656 -0.070312 0.081771 193 194 195
0.101562 -0.070312 0.083371 204 205 205
0.105469 -0.070312 0.084531 206 206 208
0.109375 -0.070312 0.085157 207 204 207
0.113281 -0.070312 0.085103 200 198 200
0.117188 -0.070312 0.084555 185 182 185
0.121094 -0.070312 0.083755 180 176 179
0.125000 -0.070312 0.083367 179 176 178
0.128906 -0.070312 0.083477 187 183 183
0.132812 -0.070312 0.083900 194 189 187
0.136719 -0.070312 0.084578 189 183 181
0.140625 -0.070312 0.085579 180 172 171
0.144531 -0.070312 0.087068 167 160 160
0.148438 -0.070312 0.089100 154 151 152
0.152344 -0.070312 0.091584 155 153 157
0.156250 -0.070312 0.094094 163 161 169
0.160156 -0.070312 0.096385 176 173 181
0.164062 -0.070312 0.098314 194 191 198
0.167969 -0.070312 0.099798 207 203 207
0.171875 -0.070312 0.100557 216 211 212
0.175781 -0.070312 0.100456 225 220 220
0.179688 -0.070312 0.099582 231 225 224
0.183594 -0.070312 0.097846 232 225 222
0.187500 -0.070312 0.095480 224 214 209
0.191406 -0.070312 0.093268 205 191 183
0.195312 -0.070312 0.091491 181 162 151
0.199219 -0.070312 0.089828 155 128 117
0.203125 -0.070312 0.088342 125 96 88
0.207031 -0.070312 0.086988 107 77 72
0.210938 -0.070312 0.085436 113 79 72
0.214844 -0.070312 0.083873 130 90 78
0.218750 -0.070312 0.082385 149 105 87
0.222656 -0.070312 0.080216 152 108 87
0.226562 -0.070312 0.077154 146 103 83
0.230469 -0.070312 0.073802 142 103 84
0.234375 -0.070312 0.070253 139 102 83
0.238281 -0.070312 0.066661 132 97 75
0.242188 -0.070312 0.062693 136 100 75
0.246094 -0.070312 0.058349 136 103 83
0.250000 -0.070312 0.052380 129 107 91
0.253906 -0.070312 0.044256 132 113 104
-0.179688 -0.074219 0.007034 187 197 193
-0.175781 -0.074219 0.021059 219 221 218
-0.171875 -0.074219 0.030479 215 210 207
-0.167969 -0.074219 0.032571 136 114 112
-0.164062 -0.074219 0.033209 123 92 87
-0.160156 -0.074219 0.036282 204 172 157
-0.156250 -0.074219 0.051247 217 185 167
-0.152344 -0.074219 0.065860 210 172 157
-0.148438 -0.074219 0.076451 225 204 193
-0.144531 -0.074219 0.083928 222 211 203
-0.140625 -0.074219 0.088364 184 177 174
-0.136719 -0.074219 0.090458 171 168 168
-0.132812 -0.074219 0.090596 203 200 200
-0.128906 -0.074219 0.090298 212 212 211
-0.125000 -0.074219 0.090332 204 206 208
-0.121094 -0.074219 0.090586 202 205 208
-0.117188 -0.074219 0.091403 207 209 210
-0.113281 -0.074219 0.092404 207 208 209
-0.109375 -0.074219 0.093371 207 208 209
-0.105469 -0.074219 0.094449 206 207 207
-0.101562 -0.074219 0.095632 202 203 203
-0.097656 -0.074219 0.096836 199 200 200
-0.093750 -0.074219 0.098019 198 199 198
-0.089844 -0.074219 0.099193 197 198 198
-0.085938 -0.074219 0.100348 196 196 196
-0.082031 -0.074219 0.101523 196 195 196
-0.078125 -0.074219 0.102646 199 197 198
-0.074219 -0.074219 0.103515 199 197 198
-0.070312 -0.074219 0.104015 199 197 198
-0.066406 -0.074219 0.104327 196 195 195
-0.062500 -0.074219 0.104469 191 190 191
-0.058594 -0.074219 0.104448 189 188 189
-0.054688 -0.074219 0.104287 183 183 184
-0.050781 -0.074219 0.103912 176 176 178
-0.046875 -0.074219 0.103322 178 176 178
-0.042969 -0.074219 0.102515 175 173 175
-0.039062 -0.074219 0.101412 168 166 168
-0.035156 -0.074219 0.100085 163 160 162
-0.031250 -0.074219 0.098590 156 151 153
-0.027344 -0.074219 0.096782 144 139 141
-0.023438 -0.074219 0.094734 138 134 135
-0.019531 -0.074219 0.092666 150 143 143
-0.015625 -0.074219 0.090545 153 144 143
-0.011719 -0.074219 0.088197 134 127 125
-0.007812 -0.074219 0.085723 122 115 114
-0.003906 -0.074219 0.083344 118 111 110
0.000000 -0.074219 0.081162 113 105 104
0.003906 -0.074219 0.079059 110 101 100
0.007812 -0.074219 0.077043 111 101 99
0.011719 -0.074219 0.075016 114 103 101
0.015625 -0.074219 0.072959 118 107 105
0.019531 -0.074219 0.070856 117 107 104
0.023438 -0.074219 0.068541 115 106 103
0.027344 -0.074219 0.066290 120 110 107
0.031250 -0.074219 0.064583 117 107 105
0.035156 -0.074219 0.063019 106 98 95
0.039062 -0.074219 0.062426 104 97 94
0.042969 -0.074219 0.062282 102 95 93
0.046875 -0.074219 0.063694 114 105 102
0.050781 -0.074219 0.062972 104 96 91
0.054688 -0.074219 0.047413 44 38 38
0.058594 -0.074219 0.033302 23 19 20
0.062500 -0.074219 0.038149 34 29 30
0.066406 -0.074219 0.045259 71 65 66
0.070312 -0.074219 0.054867 133 128 128
0.074219 -0.074219 0.062974 156 152 155
0.078125 -0.074219 0.068490 150 146 152
0.082031 -0.074219 0.072083 148 146 151
0.085938 -0.074219 0.074311 150 150 154
0.089844 -0.074219 0.076840 171 171 173
0.093750 -0.074219 0.079265 189 189 190
0.097656 -0.074219 0.081164 193 195 196
0.101562 -0.074219 0.082575 201 202 203
0.105469 -0.074219 0.083432 201 201 203
0.109375 -0.074219 0.083750 196 194 197
0.113281 -0.074219 0.083469 186 183 186
0.117188 -0.074219 0.082973 178 174 178
0.121094 -0.074219 0.082525 185 181 182
0.125000 -0.074219 0.082502 189 185 186
0.128906 -0.074219 0.082935 193 189 189
0.132812 -0.074219 0.083642 196 190 190
0.136719 -0.074219 0.084688 183 178 179
0.140625 -0.074219 0.086157 170 165 169
0.144531 -0.074219 0.088174 168 165 168
0.148438 -0.074219 0.090569 175 175 178
0.152344 -0.074219 0.093244 190 189 192
0.156250 -0.074219 0.095940 204 203 206
0.160156 -0.074219 0.098199 214 213 215
0.164062 -0.074219 0.099864 224 222 223
0.167969 -0.074219 0.100907 230 227 227
0.171875 -0.074219 0.100939 229 224 222
0.175781 -0.074219 0.100070 225 215 214
0.179688 -0.074219 0.098623 215 198 198
0.183594 -0.074219 0.096679 195 171 169
0.187500 -0.074219 0.094466 160 129 126
0.191406 -0.074219 0.092530 124 94 88
0.195312 -0.074219 0.091139 112 84 73
0.199219 -0.074219 0.089865 122 89 73
0.203125 -0.074219 0.088671 143 104 85
0.207031 -0.074219 0.087493 156 113 95
0.210938 -0.074219 0.086049 169 123 108
0.214844 -0.074219 0.084557 174 127 110
0.218750 -0.074219 0.083082 172 125 105
0.222656 -0.074219 0.081012 160 115 95
0.226562 -0.074219 0.078147 150 106 87
0.230469 -0.074219 0.075025 151 109 90
0.234375 -0.074219 0.071650 151 109 90
0.238281 -0.074219 0.068113 140 98 78
0.242188 -0.074219 0.064100 134 94 73
0.246094 -0.074219 0.059761 138 100 82
0.250000 -0.074219 0.054118 145 113 95
0.253906 -0.074219 0.046574 146 117 101
-0.179688 -0.078125 0.004079 119 146 140
-0.175781 -0.078125 0.017523 197 206 197
-0.171875 -0.078125 0.026948 211 207 201
-0.167969 -0.078125 0.029286 121 106 105
-0.164062 -0.078125 0.029204 110 85 82
-0.160156 -0.078125 0.030737 196 162 147
-0.156250 -0.078125 0.047878 220 189 169
-0.152344 -0.078125 0.067051 214 176 157
-0.148438 -0.078125 0.077286 221 195 178
-0.144531 -0.078125 0.084994 228 212 199
-0.140625 -0.078125 0.089243 205 193 185
-0.136719 -0.078125 0.090899 158 156 156
-0.132812 -0.078125 0.090314 174 172 175
-0.128906 -0.078125 0.089739 207 205 205
-0.125000 -0.078125 0.089925 207 208 209
-0.121094 -0.078125 0.090266 199 203 204
-0.117188 -0.078125 0.091121 202 205 207
-0.113281 -0.078125 0.092161 207 208 209
-0.109375 -0.078125 0.093179 209 210 211
-0.105469 -0.078125 0.094278 209 210 210
-0.101562 -0.078125 0.095398 206 207 207
-0.097656 -0.078125 0.096542 202 203 203
-0.093750 -0.078125 0.097687 201 202 201
-0.089844 -0.078125 0.098837 201 202 201
-0.085938 -0.078125 0.100004 199 199 199
-0.082031 -0.078125 0.101171 196 196 196
-0.078125 -0.078125 0.102271 194 192 193
-0.074219 -0.078125 0.103128 192 190 190
-0.070312 -0.078125 0.103646 194 192 191
-0.066406 -0.078125 0.103976 194 191 191
-0.062500 -0.078125 0.104153 192 190 190
-0.058594 -0.078125 0.104187 193 192 191
-0.054688 -0.078125 0.104037 189 188 188
-0.050781 -0.078125 0.103663 183 181 182
-0.046875 -0.078125 0.103091 185 183 183
-0.042969 -0.078125 0.102286 184 182 182
-0.039062 -0.078125 0.101142 175 172 172
-0.035156 -0.078125 0.099749 165 162 162
-0.031250 -0.078125 0.098204 154 150 151
-0.027344 -0.078125 0.096382 144 140 141
-0.023438 -0.078125 0.094270 139 135 136
-0.019531 -0.078125 0.092062 142 137 136
-0.015625 -0.078125 0.089789 136 129 128
-0.011719 -0.078125 0.087369 122 115 114
-0.007812 -0.078125 0.084906 119 111 110
-0.003906 -0.078125 0.082544 117 109 108
0.000000 -0.078125 0.080414 112 104 103
0.003906 -0.078125 0.078324 111 102 101
0.007812 -0.078125 0.076264 111 101 99
0.011719 -0.078125 0.074157 112 101 99
0.015625 -0.078125 0.071975 114 104 101
0.019531 -0.078125 0.069806 114 104 101
0.023438 -0.078125 0.067554 115 105 102
0.027344 -0.078125 0.065485 120 111 107
0.031250 -0.078125 0.063823 116 107 104
0.035156 -0.078125 0.062414 106 98 96
0.039062 -0.078125 0.062528 101 94 92
0.042969 -0.078125 0.061977 99 91 89
0.046875 -0.078125 0.062237 109 101 97
0.050781 -0.078125 0.061694 85 79 75
0.054688 -0.078125 0.039049 35 31 31
0.058594 -0.078125 0.029877 26 22 23
0.062500 -0.078125 0.036952 40 34 36
0.066406 -0.078125 0.043801 71 66 69
0.070312 -0.078125 0.053280 131 126 126
0.074219 -0.078125 0.061637 154 149 153
0.078125 -0.078125 0.067675 152 149 155
0.082031 -0.078125 0.071578 161 159 163
0.085938 -0.078125 0.073920 169 168 170
0.089844 -0.078125 0.076464 185 185 185
0.093750 -0.078125 0.078807 194 195 195
0.097656 -0.078125 0.080618 194 195 197
0.101562 -0.078125 0.081750 196 198 199
0.105469 -0.078125 0.082242 190 191 193
0.109375 -0.078125 0.082252 183 181 184
0.113281 -0.078125 0.081888 175 170 175
0.117188 -0.078125 0.081698 165 158 167
0.121094 -0.078125 0.081855 172 166 172
0.125000 -0.078125 0.082487 173 169 175
0.128906 -0.078125 0.083575 171 169 175
0.132812 -0.078125 0.084983 171 169 176
0.136719 -0.078125 0.086685 162 160 170
0.140625 -0.078125 0.088825 170 168 177
0.144531 -0.078125 0.091182 191 188 193
0.148438 -0.078125 0.093365 205 204 206
0.152344 -0.078125 0.095643 216 215 216
0.156250 -0.078125 0.097624 226 224 222
0.160156 -0.078125 0.098962 230 227 225
0.164062 -0.078125 0.099480 230 223 222
0.167969 -0.078125 0.099143 226 217 214
0.171875 -0.078125 0.098112 205 190 184
0.175781 -0.078125 0.096625 174 150 147
0.179688 -0.078125 0.095349 149 116 116
0.183594 -0.078125 0.094201 124 89 88
0.187500 -0.078125 0.092958 119 82 79
0.191406 -0.078125 0.091876 131 88 79
0.195312 -0.078125 0.091034 148 103 87
0.199219 -0.078125 0.090154 170 124 101
0.203125 -0.078125 0.089205 186 141 114
0.207031 -0.078125 0.088151 189 144 117
0.210938 -0.078125 0.086806 193 147 123
0.214844 -0.078125 0.085387 190 143 121
0.218750 -0.078125 0.083916 182 134 113
0.222656 -0.078125 0.081901 172 124 104
0.226562 -0.078125 0.079167 161 115 96
0.230469 -0.078125 0.076181 159 114 96
0.234375 -0.078125 0.072946 157 112 95
0.238281 -0.078125 0.069488 145 101 84
0.242188 -0.078125 0.065470 137 95 78
0.246094 -0.078125 0.061030 132 95 79
0.250000 -0.078125 0.055617 137 105 85
0.253906 -0.078125 0.048610 128 101 83
0.257812 -0.078125 0.037205 19 11 14
-0.179688 -0.082031 0.003025 193 206 195
-0.175781 -0.082031 0.014728 210 216 210
-0.171875 -0.082031 0.023149 207 207 203
-0.167969 -0.082031 0.025574 130 125 125
-0.164062 -0.082031 0.024231 113 94 91
-0.160156 -0.082031 0.025468 184 147 134
-0.156250 -0.082031 0.042556 219 186 165
-0.152344 -0.082031 0.070219 217 180 159
-0.148438 -0.082031 0.078468 216 183 163
-0.144531 -0.082031 0.085607 225 203 186
-0.140625 -0.082031 0.089444 222 207 195
-0.136719 -0.082031 0.091003 178 171 166
-0.132812 -0.082031 0.089941 141 141 146
-0.128906 -0.082031 0.089172 176 174 178
-0.125000 -0.082031 0.089370 205 205 205
-0.121094 -0.082031 0.089744 205 207 207
-0.117188 -0.082031 0.090781 202 205 206
-0.113281 -0.082031 0.092007 206 209 210
-0.109375 -0.082031 0.093180 211 213 213
-0.105469 -0.082031 0.094344 211 212 212
-0.101562 -0.082031 0.095356 207 208 208
-0.097656 -0.082031 0.096391 204 205 204
-0.093750 -0.082031 0.097468 205 206 205
-0.089844 -0.082031 0.098592 206 207 205
-0.085938 -0.082031 0.099763 206 206 204
-0.082031 -0.082031 0.100908 204 203 201
-0.078125 -0.082031 0.101967 196 195 193
-0.074219 -0.082031 0.102803 189 187 186
-0.070312 -0.082031 0.103337 185 182 182
-0.066406 -0.082031 0.103677 180 177 177
-0.062500 -0.082031 0.103881 180 178 177
-0.058594 -0.082031 0.103979 184 182 180
-0.054688 -0.082031 0.103846 181 178 177
-0.050781 -0.082031 0.103481 174 171 170
-0.046875 -0.082031 0.102923 176 173 171
-0.042969 -0.082031 0.102128 178 174 173
-0.039062 -0.082031 0.100978 171 167 166
-0.035156 -0.082031 0.099559 161 156 155
-0.031250 -0.082031 0.097996 152 148 147
-0.027344 -0.082031 0.096175 152 146 145
-0.023438 -0.082031 0.093972 148 142 141
-0.019531 -0.082031 0.091574 136 131 129
-0.015625 -0.082031 0.089121 120 114 112
-0.011719 -0.082031 0.086606 110 104 103
-0.007812 -0.082031 0.084129 112 105 103
-0.003906 -0.082031 0.081762 112 105 103
0.000000 -0.082031 0.079635 111 103 100
0.003906 -0.082031 0.077472 112 102 100
0.007812 -0.082031 0.075331 110 100 98
0.011719 -0.082031 0.073187 108 98 96
0.015625 -0.082031 0.070855 110 100 97
0.019531 -0.082031 0.068653 111 101 98
0.023438 -0.082031 0.066559 110 100 97
0.027344 -0.082031 0.064657 112 103 100
0.031250 -0.082031 0.063276 112 103 101
0.035156 -0.082031 0.062297 108 99 97
0.039062 -0.082031 0.062628 99 92 90
0.042969 -0.082031 0.061400 94 87 84
0.046875 -0.082031 0.059998 97 90 87
0.050781 -0.082031 0.058359 64 60 59
0.054688 -0.082031 0.026591 31 28 29
0.058594 -0.082031 0.027019 35 28 29
