ply
    format ascii 1.0
    element vertex 73934
    property float x
    property float y
    property float z
    property uchar red
    property uchar green
    property uchar blue
    end_header
-0.140625 -0.191406 -0.022043 243 240 242
-0.136719 -0.191406 -0.020371 242 239 241
-0.132812 -0.191406 -0.018353 242 238 241
-0.128906 -0.191406 -0.015668 240 236 240
-0.125000 -0.191406 -0.012614 240 237 240
-0.121094 -0.191406 -0.009576 240 237 241
-0.117188 -0.191406 -0.005491 240 237 240
-0.113281 -0.191406 -0.000446 241 239 242
-0.109375 -0.191406 0.004920 239 239 241
-0.105469 -0.191406 0.011419 236 237 237
-0.101562 -0.191406 0.018198 226 223 222
-0.097656 -0.191406 0.017802 238 234 238
0.058594 -0.191406 -0.023790 220 220 220
0.062500 -0.191406 -0.036996 218 220 226
0.066406 -0.191406 -0.046666 219 220 228
0.070312 -0.191406 -0.053793 224 220 230
0.074219 -0.191406 -0.059548 225 221 231
0.078125 -0.191406 -0.064066 228 225 234
0.082031 -0.191406 -0.067428 230 227 235
0.085938 -0.191406 -0.070059 234 231 238
0.089844 -0.191406 -0.072382 235 232 239
0.093750 -0.191406 -0.074557 236 233 239
0.097656 -0.191406 -0.075995 238 234 240
0.101562 -0.191406 -0.076893 238 235 241
0.105469 -0.191406 -0.077740 239 235 241
0.109375 -0.191406 -0.078418 239 236 242
0.113281 -0.191406 -0.078617 240 237 242
0.117188 -0.191406 -0.078446 240 237 242
0.121094 -0.191406 -0.078203 241 238 242
0.125000 -0.191406 -0.077783 241 238 243
0.128906 -0.191406 -0.076937 242 239 243
0.132812 -0.191406 -0.075702 242 239 243
0.136719 -0.191406 -0.074282 242 239 243
0.140625 -0.191406 -0.072643 242 239 243
0.144531 -0.191406 -0.070656 243 240 243
0.148438 -0.191406 -0.068358 243 240 243
0.152344 -0.191406 -0.065929 243 240 243
0.156250 -0.191406 -0.063356 243 240 243
0.160156 -0.191406 -0.060343 243 239 243
0.164062 -0.191406 -0.056922 243 239 242
0.167969 -0.191406 -0.053550 243 239 242
0.171875 -0.191406 -0.049932 242 239 242
0.175781 -0.191406 -0.046224 242 239 242
0.179688 -0.191406 -0.041562 242 238 242
0.183594 -0.191406 -0.036981 241 237 241
0.187500 -0.191406 -0.030744 240 237 240
0.191406 -0.191406 -0.022281 227 229 230
0.195312 -0.191406 -0.004922 235 234 236
-0.296875 -0.195312 0.019053 237 234 235
-0.292969 -0.195312 0.009650 240 239 237
-0.289062 -0.195312 0.001763 238 235 237
-0.285156 -0.195312 -0.004824 239 235 239
-0.281250 -0.195312 -0.009923 239 234 239
-0.277344 -0.195312 -0.014417 238 233 238
-0.273438 -0.195312 -0.018675 238 234 238
-0.269531 -0.195312 -0.022679 239 236 239
-0.265625 -0.195312 -0.026234 240 236 239
-0.261719 -0.195312 -0.029165 240 236 239
-0.257812 -0.195312 -0.031689 240 236 240
-0.253906 -0.195312 -0.033989 240 237 240
-0.250000 -0.195312 -0.036098 241 237 241
-0.246094 -0.195312 -0.037757 242 238 241
-0.242188 -0.195312 -0.039082 242 238 241
-0.238281 -0.195312 -0.040249 242 239 241
-0.234375 -0.195312 -0.041215 242 239 241
-0.230469 -0.195312 -0.041809 242 239 242
-0.226562 -0.195312 -0.042093 243 240 242
-0.222656 -0.195312 -0.042224 243 240 242
-0.218750 -0.195312 -0.042156 243 240 242
-0.214844 -0.195312 -0.041864 243 240 242
-0.210938 -0.195312 -0.041356 243 240 242
-0.207031 -0.195312 -0.040683 243 240 241
-0.203125 -0.195312 -0.039808 243 239 241
-0.199219 -0.195312 -0.038784 243 239 241
-0.195312 -0.195312 -0.037622 243 239 241
-0.191406 -0.195312 -0.036248 243 239 241
-0.187500 -0.195312 -0.034784 243 239 241
-0.183594 -0.195312 -0.033206 243 239 241
-0.179688 -0.195312 -0.031631 243 240 241
-0.175781 -0.195312 -0.030001 243 240 242
-0.171875 -0.195312 -0.028414 244 240 242
-0.167969 -0.195312 -0.026970 243 240 241
-0.164062 -0.195312 -0.025605 244 240 241
-0.160156 -0.195312 -0.024408 244 240 242
-0.156250 -0.195312 -0.023248 244 240 242
-0.152344 -0.195312 -0.022205 244 241 242
-0.148438 -0.195312 -0.021059 244 241 242
-0.144531 -0.195312 -0.019902 244 240 242
-0.140625 -0.195312 -0.018616 243 240 242
-0.136719 -0.195312 -0.016693 242 238 241
-0.132812 -0.195312 -0.014231 242 238 241
-0.128906 -0.195312 -0.011259 241 237 240
-0.125000 -0.195312 -0.008327 241 238 241
-0.121094 -0.195312 -0.004770 241 238 241
-0.117188 -0.195312 0.000083 241 238 241
-0.113281 -0.195312 0.004379 242 241 242
-0.109375 -0.195312 0.011709 242 243 242
-0.105469 -0.195312 0.019197 235 233 238
-0.101562 -0.195312 0.018208 235 233 237
0.058594 -0.195312 -0.025048 222 222 221
0.062500 -0.195312 -0.037967 218 220 226
0.066406 -0.195312 -0.047329 219 220 228
0.070312 -0.195312 -0.054281 225 221 231
0.074219 -0.195312 -0.059871 225 221 231
0.078125 -0.195312 -0.064277 229 225 234
0.082031 -0.195312 -0.067551 230 227 235
0.085938 -0.195312 -0.070094 234 231 238
0.089844 -0.195312 -0.072336 235 232 239
0.093750 -0.195312 -0.074444 237 233 240
0.097656 -0.195312 -0.075829 238 234 240
0.101562 -0.195312 -0.076688 238 235 241
0.105469 -0.195312 -0.077506 239 236 241
0.109375 -0.195312 -0.078161 239 236 242
0.113281 -0.195312 -0.078349 240 237 242
0.117188 -0.195312 -0.078176 240 237 242
0.121094 -0.195312 -0.077943 241 238 242
0.125000 -0.195312 -0.077547 241 238 242
0.128906 -0.195312 -0.076727 241 239 243
0.132812 -0.195312 -0.075519 242 239 243
0.136719 -0.195312 -0.074125 242 239 243
0.140625 -0.195312 -0.072509 242 239 243
0.144531 -0.195312 -0.070560 243 239 243
0.148438 -0.195312 -0.068300 243 239 243
0.152344 -0.195312 -0.065887 243 239 243
0.156250 -0.195312 -0.063296 243 239 242
0.160156 -0.195312 -0.060229 243 239 242
0.164062 -0.195312 -0.056717 242 238 242
0.167969 -0.195312 -0.053227 242 238 241
0.171875 -0.195312 -0.049441 241 238 241
0.175781 -0.195312 -0.045569 241 238 241
0.179688 -0.195312 -0.040634 241 237 241
0.183594 -0.195312 -0.035664 240 235 240
0.187500 -0.195312 -0.029061 238 234 237
0.191406 -0.195312 -0.020519 223 224 227
0.195312 -0.195312 -0.002986 196 198 204
-0.300781 -0.199219 0.025650 240 235 235
-0.296875 -0.199219 0.014896 235 234 233
-0.292969 -0.199219 0.006617 239 237 237
-0.289062 -0.199219 -0.000226 238 234 238
-0.285156 -0.199219 -0.005916 239 236 240
-0.281250 -0.199219 -0.010915 239 235 239
-0.277344 -0.199219 -0.015383 238 234 238
-0.273438 -0.199219 -0.019464 239 235 239
-0.269531 -0.199219 -0.023232 240 237 240
-0.265625 -0.199219 -0.026631 240 237 240
-0.261719 -0.199219 -0.029444 240 236 240
-0.257812 -0.199219 -0.031861 240 237 240
-0.253906 -0.199219 -0.034069 241 237 241
-0.250000 -0.199219 -0.036073 241 238 241
-0.246094 -0.199219 -0.037625 242 239 241
-0.242188 -0.199219 -0.038835 242 239 242
-0.238281 -0.199219 -0.039880 242 239 242
-0.234375 -0.199219 -0.040715 242 239 242
-0.230469 -0.199219 -0.041180 242 239 242
-0.226562 -0.199219 -0.041332 243 240 242
-0.222656 -0.199219 -0.041328 243 240 242
-0.218750 -0.199219 -0.041123 243 240 242
-0.214844 -0.199219 -0.040698 243 240 242
-0.210938 -0.199219 -0.040061 243 240 242
-0.207031 -0.199219 -0.039255 243 240 242
-0.203125 -0.199219 -0.038249 243 240 241
-0.199219 -0.199219 -0.037097 243 240 241
-0.195312 -0.199219 -0.035807 243 240 241
-0.191406 -0.199219 -0.034306 243 240 241
-0.187500 -0.199219 -0.032712 243 240 241
-0.183594 -0.199219 -0.031008 243 240 241
-0.179688 -0.199219 -0.029313 244 240 242
-0.175781 -0.199219 -0.027564 244 240 242
-0.171875 -0.199219 -0.025864 244 240 242
-0.167969 -0.199219 -0.024317 244 240 242
-0.164062 -0.199219 -0.022832 244 240 242
-0.160156 -0.199219 -0.021516 245 241 242
-0.156250 -0.199219 -0.020231 245 241 242
-0.152344 -0.199219 -0.019015 245 241 242
-0.148438 -0.199219 -0.017675 245 241 243
-0.144531 -0.199219 -0.016383 244 240 242
-0.140625 -0.199219 -0.015014 243 239 242
-0.136719 -0.199219 -0.012646 242 238 241
-0.132812 -0.199219 -0.009696 242 237 241
-0.128906 -0.199219 -0.006823 242 238 241
-0.125000 -0.199219 -0.003036 241 238 241
-0.121094 -0.199219 0.001632 240 238 240
-0.117188 -0.199219 0.006259 240 239 240
-0.113281 -0.199219 0.012613 239 238 238
-0.109375 -0.199219 0.020419 236 233 238
-0.105469 -0.199219 0.013058 232 232 236
0.058594 -0.199219 -0.026204 221 221 220
0.062500 -0.199219 -0.038804 217 219 225
0.066406 -0.199219 -0.047878 218 220 228
0.070312 -0.199219 -0.054655 225 222 231
0.074219 -0.199219 -0.060147 225 221 231
0.078125 -0.199219 -0.064479 229 225 234
0.082031 -0.199219 -0.067662 230 227 235
0.085938 -0.199219 -0.070118 234 231 237
0.089844 -0.199219 -0.072279 235 232 239
0.093750 -0.199219 -0.074320 237 233 239
0.097656 -0.199219 -0.075646 238 234 240
0.101562 -0.199219 -0.076461 238 235 241
0.105469 -0.199219 -0.077246 239 236 241
0.109375 -0.199219 -0.077873 239 236 241
0.113281 -0.199219 -0.078048 240 237 242
0.117188 -0.199219 -0.077872 240 237 242
0.121094 -0.199219 -0.077647 241 238 242
0.125000 -0.199219 -0.077273 241 238 242
0.128906 -0.199219 -0.076473 242 239 242
0.132812 -0.199219 -0.075287 242 239 242
0.136719 -0.199219 -0.073918 242 239 242
0.140625 -0.199219 -0.072323 242 239 242
0.144531 -0.199219 -0.070411 243 239 243
0.148438 -0.199219 -0.068196 243 239 243
0.152344 -0.199219 -0.065800 243 240 243
0.156250 -0.199219 -0.063191 243 239 243
0.160156 -0.199219 -0.060090 243 239 242
0.164062 -0.199219 -0.056509 242 239 242
0.167969 -0.199219 -0.052926 242 238 242
0.171875 -0.199219 -0.048989 242 238 242
0.175781 -0.199219 -0.044952 242 239 242
0.179688 -0.199219 -0.039824 242 239 242
0.183594 -0.199219 -0.034379 244 240 242
0.187500 -0.199219 -0.027568 244 241 242
0.191406 -0.199219 -0.019187 237 238 237
0.195312 -0.199219 -0.001369 244 240 242
-0.300781 -0.203125 0.022672 238 232 234
-0.296875 -0.203125 0.012348 242 241 241
-0.292969 -0.203125 0.004955 239 236 239
-0.289062 -0.203125 -0.001422 238 235 239
-0.285156 -0.203125 -0.006969 239 236 240
-0.281250 -0.203125 -0.011887 239 236 240
-0.277344 -0.203125 -0.016164 239 235 239
-0.273438 -0.203125 -0.020061 240 237 240
-0.269531 -0.203125 -0.023702 241 238 241
-0.265625 -0.203125 -0.027009 241 237 240
-0.261719 -0.203125 -0.029710 240 237 240
-0.257812 -0.203125 -0.032009 240 237 240
-0.253906 -0.203125 -0.034113 241 238 241
-0.250000 -0.203125 -0.036008 241 238 241
-0.246094 -0.203125 -0.037445 242 239 242
-0.242188 -0.203125 -0.038532 242 239 242
-0.238281 -0.203125 -0.039447 242 239 242
-0.234375 -0.203125 -0.040146 242 239 242
-0.230469 -0.203125 -0.040480 242 239 242
-0.226562 -0.203125 -0.040501 243 240 242
-0.222656 -0.203125 -0.040360 243 240 242
-0.218750 -0.203125 -0.040015 243 240 242
-0.214844 -0.203125 -0.039452 243 240 242
-0.210938 -0.203125 -0.038676 243 240 242
-0.207031 -0.203125 -0.037723 243 240 242
-0.203125 -0.203125 -0.036572 243 240 242
-0.199219 -0.203125 -0.035270 243 240 242
-0.195312 -0.203125 -0.033826 243 240 242
-0.191406 -0.203125 -0.032176 243 240 242
-0.187500 -0.203125 -0.030441 243 240 242
-0.183594 -0.203125 -0.028609 244 240 242
-0.179688 -0.203125 -0.026791 244 240 242
-0.175781 -0.203125 -0.024927 244 240 242
-0.171875 -0.203125 -0.023115 244 241 242
-0.167969 -0.203125 -0.021457 245 241 242
-0.164062 -0.203125 -0.019840 245 241 242
-0.160156 -0.203125 -0.018377 245 241 242
-0.156250 -0.203125 -0.016947 245 241 242
-0.152344 -0.203125 -0.015546 245 241 243
-0.148438 -0.203125 -0.014077 245 241 243
-0.144531 -0.203125 -0.012554 243 239 242
-0.140625 -0.203125 -0.010721 243 238 241
-0.136719 -0.203125 -0.008137 242 238 241
-0.132812 -0.203125 -0.005391 242 238 241
-0.128906 -0.203125 -0.001967 244 239 242
-0.125000 -0.203125 0.002688 242 239 241
-0.121094 -0.203125 0.006741 239 238 239
-0.117188 -0.203125 0.013456 240 241 240
-0.113281 -0.203125 0.021694 241 239 242
-0.109375 -0.203125 0.019827 239 239 241
0.058594 -0.203125 -0.027170 220 219 218
0.062500 -0.203125 -0.039514 216 219 225
0.066406 -0.203125 -0.048519 217 219 226
0.070312 -0.203125 -0.055050 224 222 231
0.074219 -0.203125 -0.060419 226 222 232
0.078125 -0.203125 -0.064708 229 226 234
0.082031 -0.203125 -0.067789 231 228 235
0.085938 -0.203125 -0.070155 234 231 237
0.089844 -0.203125 -0.072238 235 232 238
0.093750 -0.203125 -0.074209 236 233 239
0.097656 -0.203125 -0.075474 237 234 240
0.101562 -0.203125 -0.076243 238 235 241
0.105469 -0.203125 -0.076992 239 235 241
0.109375 -0.203125 -0.077587 239 236 241
0.113281 -0.203125 -0.077747 240 237 242
0.117188 -0.203125 -0.077566 240 237 242
0.121094 -0.203125 -0.077346 241 238 242
0.125000 -0.203125 -0.076991 241 238 242
0.128906 -0.203125 -0.076208 242 239 242
0.132812 -0.203125 -0.075036 242 239 242
0.136719 -0.203125 -0.073692 242 239 242
0.140625 -0.203125 -0.072122 243 239 242
0.144531 -0.203125 -0.070248 243 239 242
0.148438 -0.203125 -0.068082 243 239 242
0.152344 -0.203125 -0.065716 244 240 243
0.156250 -0.203125 -0.063098 244 240 243
0.160156 -0.203125 -0.059982 243 240 242
0.164062 -0.203125 -0.056343 243 239 242
0.167969 -0.203125 -0.052670 242 239 242
0.171875 -0.203125 -0.048628 242 239 242
0.175781 -0.203125 -0.044416 241 238 242
0.179688 -0.203125 -0.039063 241 238 241
0.183594 -0.203125 -0.033120 243 239 242
0.187500 -0.203125 -0.025896 243 240 241
0.191406 -0.203125 -0.017412 237 238 237
-0.304688 -0.207031 0.032094 237 234 235
-0.300781 -0.207031 0.018567 234 232 232
-0.296875 -0.207031 0.010275 237 234 235
-0.292969 -0.207031 0.003593 238 232 237
-0.289062 -0.207031 -0.002529 239 234 239
-0.285156 -0.207031 -0.007737 240 236 240
-0.281250 -0.207031 -0.012635 240 237 240
-0.277344 -0.207031 -0.016938 240 237 240
-0.273438 -0.207031 -0.020677 240 237 240
-0.269531 -0.207031 -0.024150 241 238 240
-0.265625 -0.207031 -0.027341 240 237 240
-0.261719 -0.207031 -0.029945 240 236 240
-0.257812 -0.207031 -0.032141 240 237 240
-0.253906 -0.207031 -0.034140 241 237 241
-0.250000 -0.207031 -0.035924 241 238 241
-0.246094 -0.207031 -0.037239 242 239 242
-0.242188 -0.207031 -0.038197 242 239 242
-0.238281 -0.207031 -0.038977 242 239 242
-0.234375 -0.207031 -0.039535 242 239 242
-0.230469 -0.207031 -0.039734 242 239 242
-0.226562 -0.207031 -0.039623 243 240 242
-0.222656 -0.207031 -0.039346 243 240 242
-0.218750 -0.207031 -0.038862 243 240 242
-0.214844 -0.207031 -0.038161 243 240 242
-0.210938 -0.207031 -0.037242 243 240 242
-0.207031 -0.207031 -0.036135 243 240 241
-0.203125 -0.207031 -0.034825 243 240 241
-0.199219 -0.207031 -0.033349 243 240 242
-0.195312 -0.207031 -0.031727 244 240 242
-0.191406 -0.207031 -0.029913 244 240 242
-0.187500 -0.207031 -0.028025 244 241 242
-0.183594 -0.207031 -0.026059 244 241 242
-0.179688 -0.207031 -0.024114 245 241 242
-0.175781 -0.207031 -0.022150 245 241 242
-0.171875 -0.207031 -0.020234 245 241 242
-0.167969 -0.207031 -0.018457 245 241 242
-0.164062 -0.207031 -0.016711 245 241 242
-0.160156 -0.207031 -0.015119 245 241 242
-0.156250 -0.207031 -0.013560 245 241 242
-0.152344 -0.207031 -0.012038 244 241 242
-0.148438 -0.207031 -0.010463 244 240 242
-0.144531 -0.207031 -0.008503 242 238 241
-0.140625 -0.207031 -0.006141 242 238 241
-0.136719 -0.207031 -0.003703 244 239 242
-0.132812 -0.207031 -0.000272 244 239 241
-0.128906 -0.207031 0.004221 244 241 242
-0.125000 -0.207031 0.008808 243 242 242
-0.121094 -0.207031 0.015083 240 239 239
-0.117188 -0.207031 0.021569 241 238 241
-0.113281 -0.207031 0.014530 242 241 242
0.058594 -0.207031 -0.028224 221 220 217
0.062500 -0.207031 -0.040489 219 222 226
0.066406 -0.207031 -0.049150 215 218 226
0.070312 -0.207031 -0.055433 223 221 230
0.074219 -0.207031 -0.060651 225 222 232
0.078125 -0.207031 -0.064889 229 226 234
0.082031 -0.207031 -0.067899 231 227 235
0.085938 -0.207031 -0.070181 233 230 237
0.089844 -0.207031 -0.072191 235 231 238
0.093750 -0.207031 -0.074098 236 232 239
0.097656 -0.207031 -0.075304 237 234 240
0.101562 -0.207031 -0.076031 238 235 241
0.105469 -0.207031 -0.076746 239 236 241
0.109375 -0.207031 -0.077307 239 236 241
0.113281 -0.207031 -0.077452 240 237 242
0.117188 -0.207031 -0.077266 240 237 242
0.121094 -0.207031 -0.077046 241 238 242
0.125000 -0.207031 -0.076703 242 238 242
0.128906 -0.207031 -0.075928 242 239 242
0.132812 -0.207031 -0.074760 242 239 242
0.136719 -0.207031 -0.073438 243 239 242
0.140625 -0.207031 -0.071895 243 239 242
0.144531 -0.207031 -0.070066 243 239 242
0.148438 -0.207031 -0.067952 243 239 242
0.152344 -0.207031 -0.065620 244 240 243
0.156250 -0.207031 -0.062995 244 240 243
0.160156 -0.207031 -0.059880 244 240 243
0.164062 -0.207031 -0.056193 243 240 243
0.167969 -0.207031 -0.052452 242 239 242
0.171875 -0.207031 -0.048346 241 238 241
0.175781 -0.207031 -0.043844 240 236 240
0.179688 -0.207031 -0.038140 239 235 240
0.183594 -0.207031 -0.032060 241 237 240
0.187500 -0.207031 -0.024340 240 237 238
0.191406 -0.207031 -0.015710 237 237 237
-0.304688 -0.210938 0.027453 229 225 226
-0.300781 -0.210938 0.017400 240 235 235
-0.296875 -0.210938 0.009229 240 235 238
-0.292969 -0.210938 0.002215 241 235 239
-0.289062 -0.210938 -0.003286 240 235 239
-0.285156 -0.210938 -0.008374 240 236 240
-0.281250 -0.210938 -0.013317 240 237 240
-0.277344 -0.210938 -0.017534 240 237 240
-0.273438 -0.210938 -0.021155 241 237 240
-0.269531 -0.210938 -0.024530 241 237 240
-0.265625 -0.210938 -0.027615 240 237 240
-0.261719 -0.210938 -0.030119 240 236 240
-0.257812 -0.210938 -0.032212 240 237 240
-0.253906 -0.210938 -0.034106 241 237 241
-0.250000 -0.210938 -0.035777 241 238 241
-0.246094 -0.210938 -0.036970 242 239 242
-0.242188 -0.210938 -0.037799 242 239 242
-0.238281 -0.210938 -0.038445 242 239 242
-0.234375 -0.210938 -0.038862 243 240 242
-0.230469 -0.210938 -0.038928 243 240 242
-0.226562 -0.210938 -0.038688 243 240 242
-0.222656 -0.210938 -0.038277 243 240 242
-0.218750 -0.210938 -0.037652 243 240 242
-0.214844 -0.210938 -0.036802 243 240 242
-0.210938 -0.210938 -0.035726 243 240 242
-0.207031 -0.210938 -0.034447 243 239 241
-0.203125 -0.210938 -0.032958 243 240 241
-0.199219 -0.210938 -0.031287 244 240 242
-0.195312 -0.210938 -0.029464 244 240 242
-0.191406 -0.210938 -0.027475 244 241 242
-0.187500 -0.210938 -0.025419 245 241 242
-0.183594 -0.210938 -0.023304 245 241 242
-0.179688 -0.210938 -0.021229 245 241 242
-0.175781 -0.210938 -0.019152 245 242 243
-0.171875 -0.210938 -0.017131 245 242 242
-0.167969 -0.210938 -0.015266 245 242 243
-0.164062 -0.210938 -0.013441 245 241 243
-0.160156 -0.210938 -0.011767 245 241 243
-0.156250 -0.210938 -0.010175 245 241 243
-0.152344 -0.210938 -0.008444 244 240 242
-0.148438 -0.210938 -0.006402 244 240 242
-0.144531 -0.210938 -0.004275 243 239 241
-0.140625 -0.210938 -0.002193 243 239 241
-0.136719 -0.210938 0.000849 245 240 242
-0.132812 -0.210938 0.005143 244 239 240
-0.128906 -0.210938 0.009288 244 241 240
-0.125000 -0.210938 0.015853 245 245 244
-0.121094 -0.210938 0.021275 240 238 240
-0.117188 -0.210938 0.017773 240 239 240
0.058594 -0.210938 -0.029779 205 205 204
0.062500 -0.210938 -0.041520 219 221 224
0.066406 -0.210938 -0.049592 214 216 224
0.070312 -0.210938 -0.055811 219 218 228
0.074219 -0.210938 -0.060877 224 222 231
0.078125 -0.210938 -0.065082 228 225 234
0.082031 -0.210938 -0.068028 230 227 235
0.085938 -0.210938 -0.070235 233 229 237
0.089844 -0.210938 -0.072176 234 230 238
0.093750 -0.210938 -0.074015 235 232 239
0.097656 -0.210938 -0.075161 237 234 240
0.101562 -0.210938 -0.075845 238 235 241
0.105469 -0.210938 -0.076525 239 236 241
0.109375 -0.210938 -0.077050 239 236 241
0.113281 -0.210938 -0.077179 240 237 242
0.117188 -0.210938 -0.076986 240 238 242
0.121094 -0.210938 -0.076760 241 238 242
0.125000 -0.210938 -0.076428 242 239 243
0.128906 -0.210938 -0.075656 242 239 243
0.132812 -0.210938 -0.074485 243 239 243
0.136719 -0.210938 -0.073179 243 239 243
0.140625 -0.210938 -0.071663 243 239 243
0.144531 -0.210938 -0.069866 243 239 243
0.148438 -0.210938 -0.067792 244 240 243
0.152344 -0.210938 -0.065500 244 240 243
0.156250 -0.210938 -0.062901 244 240 243
0.160156 -0.210938 -0.059823 244 241 243
0.164062 -0.210938 -0.056115 244 241 243
0.167969 -0.210938 -0.052351 243 240 243
0.171875 -0.210938 -0.048113 242 239 242
0.175781 -0.210938 -0.043395 240 237 241
0.179688 -0.210938 -0.037656 241 237 241
0.183594 -0.210938 -0.031086 241 237 239
0.187500 -0.210938 -0.022944 240 237 238
0.191406 -0.210938 -0.014461 237 238 237
-0.308594 -0.214844 0.035023 241 239 237
-0.304688 -0.214844 0.023897 235 231 231
-0.300781 -0.214844 0.014991 238 232 234
-0.296875 -0.214844 0.007699 240 234 238
-0.292969 -0.214844 0.001487 241 234 239
-0.289062 -0.214844 -0.003965 240 234 239
-0.285156 -0.214844 -0.009071 240 236 239
-0.281250 -0.214844 -0.013931 240 237 239
-0.277344 -0.214844 -0.018049 241 237 239
-0.273438 -0.214844 -0.021593 241 238 240
-0.269531 -0.214844 -0.024889 241 237 240
-0.265625 -0.214844 -0.027871 240 237 240
-0.261719 -0.214844 -0.030286 240 237 240
-0.257812 -0.214844 -0.032274 241 238 241
-0.253906 -0.214844 -0.034061 241 238 241
-0.250000 -0.214844 -0.035617 242 238 241
-0.246094 -0.214844 -0.036682 242 239 242
-0.242188 -0.214844 -0.037376 242 239 242
-0.238281 -0.214844 -0.037884 242 240 242
-0.234375 -0.214844 -0.038159 243 240 242
-0.230469 -0.214844 -0.038092 243 240 242
-0.226562 -0.214844 -0.037728 243 240 242
-0.222656 -0.214844 -0.037187 243 240 242
-0.218750 -0.214844 -0.036422 243 240 242
-0.214844 -0.214844 -0.035425 243 240 242
-0.210938 -0.214844 -0.034189 243 240 242
-0.207031 -0.214844 -0.032729 243 240 241
-0.203125 -0.214844 -0.031054 243 240 242
-0.199219 -0.214844 -0.029167 244 240 242
-0.195312 -0.214844 -0.027130 244 240 242
-0.191406 -0.214844 -0.024947 244 241 242
-0.187500 -0.214844 -0.022708 245 241 242
-0.183594 -0.214844 -0.020459 245 241 242
-0.179688 -0.214844 -0.018261 245 242 242
-0.175781 -0.214844 -0.016078 246 242 243
-0.171875 -0.214844 -0.013961 246 242 243
-0.167969 -0.214844 -0.012037 246 242 243
-0.164062 -0.214844 -0.010227 246 242 243
-0.160156 -0.214844 -0.008525 245 241 243
-0.156250 -0.214844 -0.006897 244 241 243
-0.152344 -0.214844 -0.004809 243 240 242
-0.148438 -0.214844 -0.002294 244 240 242
-0.144531 -0.214844 -0.000234 244 240 243
-0.140625 -0.214844 0.002571 244 240 242
-0.136719 -0.214844 0.006591 244 240 241
-0.132812 -0.214844 0.010847 243 241 241
-0.128906 -0.214844 0.017431 244 242 241
-0.125000 -0.214844 0.022367 242 239 241
-0.121094 -0.214844 0.009747 239 238 239
0.058594 -0.214844 -0.032303 190 194 204
0.062500 -0.214844 -0.042026 216 218 224
0.066406 -0.214844 -0.049933 217 218 225
0.070312 -0.214844 -0.056115 219 218 227
0.074219 -0.214844 -0.061070 225 223 232
0.078125 -0.214844 -0.065252 228 225 234
0.082031 -0.214844 -0.068133 231 228 236
0.085938 -0.214844 -0.070285 233 230 237
0.089844 -0.214844 -0.072164 235 231 238
0.093750 -0.214844 -0.073936 236 232 239
0.097656 -0.214844 -0.075031 237 234 240
0.101562 -0.214844 -0.075681 238 235 241
0.105469 -0.214844 -0.076325 239 236 241
0.109375 -0.214844 -0.076811 239 236 242
0.113281 -0.214844 -0.076917 240 237 242
0.117188 -0.214844 -0.076711 241 238 242
0.121094 -0.214844 -0.076471 241 238 242
0.125000 -0.214844 -0.076137 242 239 243
0.128906 -0.214844 -0.075362 242 239 243
0.132812 -0.214844 -0.074179 243 239 243
0.136719 -0.214844 -0.072888 243 239 243
0.140625 -0.214844 -0.071403 243 239 243
0.144531 -0.214844 -0.069642 243 239 242
0.148438 -0.214844 -0.067608 244 239 242
0.152344 -0.214844 -0.065374 244 239 242
0.156250 -0.214844 -0.062820 244 240 243
0.160156 -0.214844 -0.059792 244 240 243
0.164062 -0.214844 -0.056173 243 240 243
0.167969 -0.214844 -0.052316 242 239 242
0.171875 -0.214844 -0.047812 242 239 242
0.175781 -0.214844 -0.043246 241 238 241
0.179688 -0.214844 -0.037836 241 237 240
0.183594 -0.214844 -0.030017 240 236 238
0.187500 -0.214844 -0.021111 242 240 239
0.191406 -0.214844 -0.013285 237 238 237
-0.308594 -0.218750 0.033493 242 240 237
-0.304688 -0.218750 0.022858 237 234 235
-0.300781 -0.218750 0.013908 237 231 235
-0.296875 -0.218750 0.006913 240 233 237
-0.292969 -0.218750 0.000633 241 234 238
-0.289062 -0.218750 -0.004749 240 234 238
-0.285156 -0.218750 -0.009739 241 236 239
-0.281250 -0.218750 -0.014473 241 237 239
-0.277344 -0.218750 -0.018551 241 237 239
-0.273438 -0.218750 -0.022039 241 237 239
-0.269531 -0.218750 -0.025238 240 237 239
-0.265625 -0.218750 -0.028118 240 237 240
-0.261719 -0.218750 -0.030437 241 237 240
-0.257812 -0.218750 -0.032312 241 238 241
-0.253906 -0.218750 -0.033982 241 238 241
-0.250000 -0.218750 -0.035420 242 239 242
-0.246094 -0.218750 -0.036359 242 239 242
-0.242188 -0.218750 -0.036921 243 240 242
-0.238281 -0.218750 -0.037296 243 240 242
-0.234375 -0.218750 -0.037433 243 240 242
-0.230469 -0.218750 -0.037236 243 240 242
-0.226562 -0.218750 -0.036748 243 240 242
-0.222656 -0.218750 -0.036073 243 240 242
-0.218750 -0.218750 -0.035173 243 240 242
-0.214844 -0.218750 -0.034031 243 240 242
-0.210938 -0.218750 -0.032633 243 240 242
-0.207031 -0.218750 -0.030991 243 240 242
-0.203125 -0.218750 -0.029126 243 240 242
-0.199219 -0.218750 -0.027021 244 240 242
-0.195312 -0.218750 -0.024749 244 241 242
-0.191406 -0.218750 -0.022358 245 241 242
-0.187500 -0.218750 -0.019922 245 241 242
-0.183594 -0.218750 -0.017513 245 241 242
-0.179688 -0.218750 -0.015179 245 242 243
-0.175781 -0.218750 -0.012891 246 242 243
-0.171875 -0.218750 -0.010730 246 242 243
-0.167969 -0.218750 -0.008758 246 242 243
-0.164062 -0.218750 -0.006937 246 242 243
-0.160156 -0.218750 -0.005203 245 242 243
-0.156250 -0.218750 -0.003431 244 241 243
-0.152344 -0.218750 -0.001345 243 240 243
-0.148438 -0.218750 0.001036 244 240 242
-0.144531 -0.218750 0.003935 245 241 243
-0.140625 -0.218750 0.008051 244 240 242
-0.136719 -0.218750 0.011388 242 239 240
-0.132812 -0.218750 0.017402 244 243 242
-0.128906 -0.218750 0.021445 244 241 242
-0.125000 -0.218750 0.013966 243 242 242
0.058594 -0.218750 -0.033837 217 221 227
0.062500 -0.218750 -0.042548 215 217 224
0.066406 -0.218750 -0.050281 219 220 227
0.070312 -0.218750 -0.056289 219 218 227
0.074219 -0.218750 -0.061271 225 223 232
0.078125 -0.218750 -0.065441 227 225 234
0.082031 -0.218750 -0.068277 230 227 236
0.085938 -0.218750 -0.070384 234 230 237
0.089844 -0.218750 -0.072198 235 231 238
0.093750 -0.218750 -0.073906 236 233 239
0.097656 -0.218750 -0.074950 238 234 240
0.101562 -0.218750 -0.075565 239 235 241
0.105469 -0.218750 -0.076172 239 236 241
0.109375 -0.218750 -0.076617 240 237 242
0.113281 -0.218750 -0.076697 240 237 242
0.117188 -0.218750 -0.076474 241 238 242
0.121094 -0.218750 -0.076217 241 238 242
0.125000 -0.218750 -0.075878 242 239 243
0.128906 -0.218750 -0.075093 242 239 243
0.132812 -0.218750 -0.073895 243 239 242
0.136719 -0.218750 -0.072612 243 239 242
0.140625 -0.218750 -0.071152 243 239 242
0.144531 -0.218750 -0.069414 243 239 242
0.148438 -0.218750 -0.067405 243 239 242
0.152344 -0.218750 -0.065229 243 239 242
0.156250 -0.218750 -0.062730 243 239 242
0.160156 -0.218750 -0.059757 242 238 242
0.164062 -0.218750 -0.056191 241 238 241
0.167969 -0.218750 -0.052315 241 237 241
0.171875 -0.218750 -0.048023 241 238 242
0.175781 -0.218750 -0.043015 241 239 242
0.179688 -0.218750 -0.036794 241 238 241
0.183594 -0.218750 -0.029368 243 240 241
0.187500 -0.218750 -0.019865 240 237 238
0.191406 -0.218750 -0.009702 237 237 237
-0.308594 -0.222656 0.032969 240 239 236
-0.304688 -0.222656 0.021845 238 235 236
-0.300781 -0.222656 0.013172 238 232 236
-0.296875 -0.222656 0.005948 240 234 238
-0.292969 -0.222656 -0.000018 240 234 238
-0.289062 -0.222656 -0.005288 240 234 238
-0.285156 -0.222656 -0.010407 241 236 239
-0.281250 -0.222656 -0.015071 241 237 239
-0.277344 -0.222656 -0.019047 240 237 239
-0.273438 -0.222656 -0.022467 241 237 239
-0.269531 -0.222656 -0.025583 241 237 239
-0.265625 -0.222656 -0.028371 241 238 240
-0.261719 -0.222656 -0.030604 241 238 241
-0.257812 -0.222656 -0.032372 241 238 241
-0.253906 -0.222656 -0.033930 242 239 242
-0.250000 -0.222656 -0.035248 242 239 242
-0.246094 -0.222656 -0.036061 243 240 242
-0.242188 -0.222656 -0.036492 243 240 242
-0.238281 -0.222656 -0.036732 243 240 242
-0.234375 -0.222656 -0.036735 243 240 243
-0.230469 -0.222656 -0.036411 243 240 243
-0.226562 -0.222656 -0.035799 243 240 243
-0.222656 -0.222656 -0.034990 243 240 243
-0.218750 -0.222656 -0.033949 243 240 242
-0.214844 -0.222656 -0.032656 243 240 242
-0.210938 -0.222656 -0.031093 243 240 242
-0.207031 -0.222656 -0.029262 243 240 242
-0.203125 -0.222656 -0.027202 244 240 242
-0.199219 -0.222656 -0.024870 244 241 242
-0.195312 -0.222656 -0.022349 244 241 242
-0.191406 -0.222656 -0.019750 245 241 242
-0.187500 -0.222656 -0.017124 245 241 242
-0.183594 -0.222656 -0.014539 245 242 243
-0.179688 -0.222656 -0.012051 246 242 243
-0.175781 -0.222656 -0.009677 246 242 243
-0.171875 -0.222656 -0.007501 246 242 243
-0.167969 -0.222656 -0.005476 245 242 243
-0.164062 -0.222656 -0.003624 245 242 243
-0.160156 -0.222656 -0.001696 245 242 243
-0.156250 -0.222656 0.000345 245 241 244
-0.152344 -0.222656 0.002144 244 241 243
-0.148438 -0.222656 0.004861 244 240 242
-0.144531 -0.222656 0.008195 245 242 243
-0.140625 -0.222656 0.012257 244 242 242
-0.136719 -0.222656 0.018045 241 240 240
-0.132812 -0.222656 0.023554 244 239 240
-0.128906 -0.222656 0.007034 244 241 240
0.054688 -0.222656 -0.019705 219 220 227
0.058594 -0.222656 -0.034107 223 226 227
0.062500 -0.222656 -0.043433 211 214 221
0.066406 -0.222656 -0.050891 219 220 227
0.070312 -0.222656 -0.056583 220 219 228
0.074219 -0.222656 -0.061460 226 224 233
0.078125 -0.222656 -0.065628 228 226 234
0.082031 -0.222656 -0.068433 231 229 236
0.085938 -0.222656 -0.070497 235 231 238
0.089844 -0.222656 -0.072263 236 232 239
0.093750 -0.222656 -0.073908 237 234 240
0.097656 -0.222656 -0.074914 238 235 241
0.101562 -0.222656 -0.075505 239 236 241
0.105469 -0.222656 -0.076076 239 236 241
0.109375 -0.222656 -0.076478 240 237 242
0.113281 -0.222656 -0.076530 241 238 242
0.117188 -0.222656 -0.076287 241 238 242
0.121094 -0.222656 -0.076006 242 238 242
0.125000 -0.222656 -0.075653 242 239 242
0.128906 -0.222656 -0.074852 242 239 242
0.132812 -0.222656 -0.073635 243 239 242
0.136719 -0.222656 -0.072358 243 239 242
0.140625 -0.222656 -0.070925 243 239 242
0.144531 -0.222656 -0.069202 244 239 242
0.148438 -0.222656 -0.067206 244 239 242
0.152344 -0.222656 -0.065100 243 240 242
0.156250 -0.222656 -0.062659 243 240 243
0.160156 -0.222656 -0.059737 242 239 242
0.164062 -0.222656 -0.056236 242 238 242
0.167969 -0.222656 -0.052458 242 239 243
0.171875 -0.222656 -0.048279 243 240 243
0.175781 -0.222656 -0.042288 243 241 243
0.179688 -0.222656 -0.034899 242 241 243
0.183594 -0.222656 -0.027164 242 242 242
0.187500 -0.222656 -0.017659 240 237 238
-0.308594 -0.226562 0.032162 241 239 237
-0.304688 -0.226562 0.020802 238 235 237
-0.300781 -0.226562 0.012138 237 232 237
-0.296875 -0.226562 0.005139 238 232 237
-0.292969 -0.226562 -0.000622 239 234 238
-0.289062 -0.226562 -0.005859 239 234 238
-0.285156 -0.226562 -0.011012 241 237 239
-0.281250 -0.226562 -0.015660 241 237 239
-0.277344 -0.226562 -0.019574 240 237 239
-0.273438 -0.226562 -0.022913 241 237 239
-0.269531 -0.226562 -0.025945 241 237 239
-0.265625 -0.226562 -0.028637 241 238 240
-0.261719 -0.226562 -0.030777 241 238 241
-0.257812 -0.226562 -0.032437 242 239 241
-0.253906 -0.226562 -0.033883 242 239 242
-0.250000 -0.226562 -0.035083 242 239 242
-0.246094 -0.226562 -0.035774 243 240 242
-0.242188 -0.226562 -0.036078 243 240 242
-0.238281 -0.226562 -0.036190 243 240 242
-0.234375 -0.226562 -0.036061 243 240 243
-0.230469 -0.226562 -0.035612 244 241 243
-0.226562 -0.226562 -0.034884 243 241 243
-0.222656 -0.226562 -0.033948 244 241 243
-0.218750 -0.226562 -0.032764 243 240 242
-0.214844 -0.226562 -0.031317 243 240 242
-0.210938 -0.226562 -0.029583 244 240 242
-0.207031 -0.226562 -0.027564 244 240 242
-0.203125 -0.226562 -0.025303 244 241 242
-0.199219 -0.226562 -0.022750 244 241 242
-0.195312 -0.226562 -0.019994 245 241 242
-0.191406 -0.226562 -0.017176 245 241 242
-0.187500 -0.226562 -0.014357 245 241 242
-0.183594 -0.226562 -0.011587 246 242 243
-0.179688 -0.226562 -0.008946 245 241 242
-0.175781 -0.226562 -0.006471 246 242 243
-0.171875 -0.226562 -0.004248 246 242 243
-0.167969 -0.226562 -0.002138 245 241 243
-0.164062 -0.226562 -0.000359 245 242 243
-0.160156 -0.226562 0.001546 245 241 244
-0.156250 -0.226562 0.003713 244 241 243
-0.152344 -0.226562 0.005726 244 241 243
-0.148438 -0.226562 0.008501 243 240 242
-0.144531 -0.226562 0.011963 244 241 241
-0.140625 -0.226562 0.018252 245 245 243
-0.136719 -0.226562 0.021948 244 240 241
-0.132812 -0.226562 0.015245 243 241 241
0.054688 -0.226562 -0.020837 221 221 228
0.058594 -0.226562 -0.034397 215 218 219
0.062500 -0.226562 -0.044142 213 215 221
0.066406 -0.226562 -0.051351 221 221 228
0.070312 -0.226562 -0.056904 221 219 228
0.074219 -0.226562 -0.061680 227 226 234
0.078125 -0.226562 -0.065831 230 228 236
0.082031 -0.226562 -0.068618 233 230 237
0.085938 -0.226562 -0.070642 236 232 239
0.089844 -0.226562 -0.072357 237 233 239
0.093750 -0.226562 -0.073944 238 235 240
0.097656 -0.226562 -0.074917 239 236 241
0.101562 -0.226562 -0.075487 239 236 241
0.105469 -0.226562 -0.076023 240 237 242
0.109375 -0.226562 -0.076389 240 237 242
0.113281 -0.226562 -0.076414 241 238 242
0.117188 -0.226562 -0.076148 241 238 242
0.121094 -0.226562 -0.075842 242 239 242
0.125000 -0.226562 -0.075478 242 239 242
0.128906 -0.226562 -0.074663 242 239 242
0.132812 -0.226562 -0.073429 243 239 242
0.136719 -0.226562 -0.072158 243 239 242
0.140625 -0.226562 -0.070750 243 239 242
0.144531 -0.226562 -0.069049 244 239 242
0.148438 -0.226562 -0.067066 244 239 242
0.152344 -0.226562 -0.065013 243 240 242
0.156250 -0.226562 -0.062592 243 240 242
0.160156 -0.226562 -0.059779 242 239 242
0.164062 -0.226562 -0.056363 242 239 242
0.167969 -0.226562 -0.052429 243 240 243
0.171875 -0.226562 -0.047399 243 241 244
0.175781 -0.226562 -0.041415 243 242 244
0.179688 -0.226562 -0.034481 243 243 244
0.183594 -0.226562 -0.023806 240 236 238
0.187500 -0.226562 -0.004545 242 240 239
-0.308594 -0.230469 0.031232 242 240 237
-0.304688 -0.230469 0.019676 239 236 238
-0.300781 -0.230469 0.011453 238 232 237
-0.296875 -0.230469 0.004485 238 233 237
-0.292969 -0.230469 -0.001367 240 234 238
-0.289062 -0.230469 -0.006527 240 235 238
-0.285156 -0.230469 -0.011645 241 238 240
-0.281250 -0.230469 -0.016277 241 238 240
-0.277344 -0.230469 -0.020118 241 237 239
-0.273438 -0.230469 -0.023359 241 238 240
-0.269531 -0.230469 -0.026313 241 238 240
-0.265625 -0.230469 -0.028916 241 238 241
-0.261719 -0.230469 -0.030966 241 238 241
-0.257812 -0.230469 -0.032521 242 239 241
-0.253906 -0.230469 -0.033862 242 239 242
-0.250000 -0.230469 -0.034950 243 240 242
-0.246094 -0.230469 -0.035527 243 240 243
-0.242188 -0.230469 -0.035713 243 240 243
-0.238281 -0.230469 -0.035702 243 240 243
-0.234375 -0.230469 -0.035450 244 241 243
-0.230469 -0.230469 -0.034878 244 241 243
-0.226562 -0.230469 -0.034032 244 241 243
-0.222656 -0.230469 -0.032963 244 241 243
-0.218750 -0.230469 -0.031633 244 241 242
-0.214844 -0.230469 -0.030023 243 240 242
-0.210938 -0.230469 -0.028112 244 240 242
-0.207031 -0.230469 -0.025902 244 240 242
-0.203125 -0.230469 -0.023439 244 241 242
-0.199219 -0.230469 -0.020687 244 241 242
-0.195312 -0.230469 -0.017709 245 241 242
-0.191406 -0.230469 -0.014678 246 242 243
-0.187500 -0.230469 -0.011661 246 242 243
-0.183594 -0.230469 -0.008679 246 243 244
-0.179688 -0.230469 -0.005845 246 242 243
-0.175781 -0.230469 -0.003214 246 242 243
-0.171875 -0.230469 -0.000908 246 242 243
-0.167969 -0.230469 0.001451 245 242 243
-0.164062 -0.230469 0.003451 246 242 244
-0.160156 -0.230469 0.005119 245 242 244
-0.156250 -0.230469 0.007393 244 242 243
-0.152344 -0.230469 0.010364 244 243 244
-0.148438 -0.230469 0.014824 244 242 243
-0.144531 -0.230469 0.021701 241 239 239
-0.140625 -0.230469 0.023285 244 240 242
-0.136719 -0.230469 0.009776 242 239 240
0.054688 -0.230469 -0.021082 195 200 208
0.058594 -0.230469 -0.035159 216 218 219
0.062500 -0.230469 -0.044763 216 217 222
0.066406 -0.230469 -0.051715 221 221 228
0.070312 -0.230469 -0.057226 220 218 228
0.074219 -0.230469 -0.061943 227 225 233
0.078125 -0.230469 -0.066056 229 227 235
0.082031 -0.230469 -0.068824 232 229 237
0.085938 -0.230469 -0.070816 236 232 239
0.089844 -0.230469 -0.072487 237 233 240
0.093750 -0.230469 -0.074023 239 235 241
0.097656 -0.230469 -0.074971 239 236 241
0.101562 -0.230469 -0.075521 240 236 242
0.105469 -0.230469 -0.076029 240 237 242
0.109375 -0.230469 -0.076364 241 237 242
0.113281 -0.230469 -0.076363 241 238 242
0.117188 -0.230469 -0.076071 242 239 243
0.121094 -0.230469 -0.075738 242 239 243
0.125000 -0.230469 -0.075359 242 239 242
0.128906 -0.230469 -0.074527 242 239 242
0.132812 -0.230469 -0.073273 243 239 242
0.136719 -0.230469 -0.072005 243 239 242
0.140625 -0.230469 -0.070618 243 239 242
0.144531 -0.230469 -0.068924 244 240 242
0.148438 -0.230469 -0.066939 244 240 242
0.152344 -0.230469 -0.064912 243 240 242
0.156250 -0.230469 -0.062473 243 240 243
0.160156 -0.230469 -0.059863 242 239 242
0.164062 -0.230469 -0.056263 242 239 242
0.167969 -0.230469 -0.052232 243 240 243
0.171875 -0.230469 -0.046432 243 241 243
0.175781 -0.230469 -0.040118 243 242 243
0.179688 -0.230469 -0.027970 241 238 241
-0.308594 -0.234375 0.031004 241 239 236
-0.304688 -0.234375 0.019002 238 235 237
-0.300781 -0.234375 0.010605 238 232 236
-0.296875 -0.234375 0.003596 238 232 237
-0.292969 -0.234375 -0.002132 240 234 238
-0.289062 -0.234375 -0.007185 240 235 238
-0.285156 -0.234375 -0.012299 241 237 240
-0.281250 -0.234375 -0.016915 241 238 240
-0.277344 -0.234375 -0.020677 241 238 240
-0.273438 -0.234375 -0.023823 242 238 241
-0.269531 -0.234375 -0.026700 241 238 241
-0.265625 -0.234375 -0.029219 242 238 241
-0.261719 -0.234375 -0.031182 242 238 241
-0.257812 -0.234375 -0.032639 242 239 241
-0.253906 -0.234375 -0.033881 242 239 242
-0.250000 -0.234375 -0.034863 243 240 242
-0.246094 -0.234375 -0.035328 243 240 243
-0.242188 -0.234375 -0.035403 243 240 243
-0.238281 -0.234375 -0.035274 243 241 243
-0.234375 -0.234375 -0.034905 244 241 243
-0.230469 -0.234375 -0.034211 244 241 243
-0.226562 -0.234375 -0.033235 244 241 243
-0.222656 -0.234375 -0.032022 244 241 243
-0.218750 -0.234375 -0.030536 244 241 243
-0.214844 -0.234375 -0.028753 244 241 242
-0.210938 -0.234375 -0.026648 244 240 242
-0.207031 -0.234375 -0.024249 244 240 241
-0.203125 -0.234375 -0.021594 244 241 242
-0.199219 -0.234375 -0.018665 245 241 242
-0.195312 -0.234375 -0.015502 245 242 243
-0.191406 -0.234375 -0.012273 246 243 243
-0.187500 -0.234375 -0.009079 246 243 244
-0.183594 -0.234375 -0.005887 247 243 244
-0.179688 -0.234375 -0.002875 246 243 244
-0.175781 -0.234375 -0.000033 246 242 243
-0.171875 -0.234375 0.002551 246 242 244
-0.167969 -0.234375 0.004986 246 242 244
-0.164062 -0.234375 0.006977 246 243 244
-0.160156 -0.234375 0.009352 245 243 244
-0.156250 -0.234375 0.011552 244 242 243
-0.152344 -0.234375 0.015696 243 243 243
-0.148438 -0.234375 0.020554 237 237 236
-0.144531 -0.234375 0.021723 245 242 243
0.054688 -0.234375 -0.022482 224 227 228
0.058594 -0.234375 -0.036036 213 214 217
0.062500 -0.234375 -0.045555 215 215 221
0.066406 -0.234375 -0.052194 221 220 228
0.070312 -0.234375 -0.057638 221 219 229
0.074219 -0.234375 -0.062251 228 226 234
0.078125 -0.234375 -0.066279 230 228 236
0.082031 -0.234375 -0.069019 233 230 237
0.085938 -0.234375 -0.070994 236 232 239
0.089844 -0.234375 -0.072630 237 234 240
0.093750 -0.234375 -0.074117 239 235 241
0.097656 -0.234375 -0.075047 240 236 241
0.101562 -0.234375 -0.075585 240 236 242
0.105469 -0.234375 -0.076072 240 237 242
0.109375 -0.234375 -0.076383 241 238 242
0.113281 -0.234375 -0.076359 241 238 242
0.117188 -0.234375 -0.076041 242 239 243
0.121094 -0.234375 -0.075684 242 239 243
0.125000 -0.234375 -0.075287 242 239 242
0.128906 -0.234375 -0.074432 242 239 242
0.132812 -0.234375 -0.073163 243 239 242
0.136719 -0.234375 -0.071899 243 239 242
0.140625 -0.234375 -0.070524 243 239 242
0.144531 -0.234375 -0.068841 244 240 242
0.148438 -0.234375 -0.066863 244 240 242
0.152344 -0.234375 -0.064872 243 240 242
0.156250 -0.234375 -0.062427 243 240 242
0.160156 -0.234375 -0.059884 242 239 242
0.164062 -0.234375 -0.055909 243 240 242
0.167969 -0.234375 -0.052129 244 240 243
0.171875 -0.234375 -0.046167 244 241 243
0.175781 -0.234375 -0.037341 238 237 238
0.179688 -0.234375 -0.005872 242 241 243
-0.308594 -0.238281 0.030741 241 238 236
-0.304688 -0.238281 0.018596 238 234 236
-0.300781 -0.238281 0.010027 238 231 236
-0.296875 -0.238281 0.002943 238 232 236
-0.292969 -0.238281 -0.002835 240 234 238
-0.289062 -0.238281 -0.007850 240 235 238
-0.285156 -0.238281 -0.012919 241 237 240
-0.281250 -0.238281 -0.017511 242 238 241
-0.277344 -0.238281 -0.021210 242 238 241
-0.273438 -0.238281 -0.024274 242 239 241
-0.269531 -0.238281 -0.027083 242 239 241
-0.265625 -0.238281 -0.029524 242 239 241
-0.261719 -0.238281 -0.031408 242 239 241
-0.257812 -0.238281 -0.032776 242 239 242
-0.253906 -0.238281 -0.033927 243 240 242
-0.250000 -0.238281 -0.034811 243 240 242
-0.246094 -0.238281 -0.035174 243 241 243
-0.242188 -0.238281 -0.035146 243 241 243
-0.238281 -0.238281 -0.034904 243 241 243
-0.234375 -0.238281 -0.034416 244 241 243
-0.230469 -0.238281 -0.033591 244 241 243
-0.226562 -0.238281 -0.032476 244 241 243
-0.222656 -0.238281 -0.031107 244 242 243
-0.218750 -0.238281 -0.029453 244 242 243
-0.214844 -0.238281 -0.027486 244 241 242
-0.210938 -0.238281 -0.025180 244 241 242
-0.207031 -0.238281 -0.022596 244 241 241
-0.203125 -0.238281 -0.019760 245 241 242
-0.199219 -0.238281 -0.016669 245 242 242
-0.195312 -0.238281 -0.013341 246 242 243
-0.191406 -0.238281 -0.009935 246 243 244
-0.187500 -0.238281 -0.006584 246 243 244
-0.183594 -0.238281 -0.003203 246 243 244
-0.179688 -0.238281 -0.000037 246 243 244
-0.175781 -0.238281 0.003058 246 242 244
-0.171875 -0.238281 0.005993 246 242 244
-0.167969 -0.238281 0.008376 247 242 244
-0.164062 -0.238281 0.010574 246 243 244
-0.160156 -0.238281 0.013879 246 244 245
-0.156250 -0.238281 0.017741 244 243 244
-0.152344 -0.238281 0.022453 230 231 232
-0.148438 -0.238281 0.014890 243 240 242
0.054688 -0.238281 -0.023953 229 230 231
0.058594 -0.238281 -0.036876 212 212 217
0.062500 -0.238281 -0.046314 215 214 221
0.066406 -0.238281 -0.052680 221 220 228
0.070312 -0.238281 -0.058028 221 219 229
0.074219 -0.238281 -0.062605 227 225 233
0.078125 -0.238281 -0.066548 231 228 236
0.082031 -0.238281 -0.069262 233 230 237
0.085938 -0.238281 -0.071231 236 232 239
0.089844 -0.238281 -0.072836 238 234 240
0.093750 -0.238281 -0.074276 239 235 241
0.097656 -0.238281 -0.075188 240 236 241
0.101562 -0.238281 -0.075716 241 237 242
0.105469 -0.238281 -0.076182 241 238 242
0.109375 -0.238281 -0.076472 241 238 242
0.113281 -0.238281 -0.076424 242 239 243
0.117188 -0.238281 -0.076075 242 239 243
0.121094 -0.238281 -0.075690 243 239 243
0.125000 -0.238281 -0.075273 243 239 243
0.128906 -0.238281 -0.074395 243 239 242
0.132812 -0.238281 -0.073107 243 239 242
0.136719 -0.238281 -0.071840 243 239 242
0.140625 -0.238281 -0.070468 243 239 242
0.144531 -0.238281 -0.068779 243 239 242
0.148438 -0.238281 -0.066787 243 239 242
0.152344 -0.238281 -0.064805 243 240 242
0.156250 -0.238281 -0.062337 243 239 242
0.160156 -0.238281 -0.059769 242 239 241
0.164062 -0.238281 -0.055495 242 239 241
0.167969 -0.238281 -0.051948 243 239 241
0.171875 -0.238281 -0.046298 243 239 241
0.175781 -0.238281 -0.032375 226 225 226
-0.308594 -0.242188 0.030449 240 238 235
-0.304688 -0.242188 0.018410 238 234 235
-0.300781 -0.242188 0.009748 238 232 236
-0.296875 -0.242188 0.002452 238 232 236
-0.292969 -0.242188 -0.003426 240 234 237
-0.289062 -0.242188 -0.008452 240 234 238
-0.285156 -0.242188 -0.013489 242 237 240
-0.281250 -0.242188 -0.018048 242 238 241
-0.277344 -0.242188 -0.021709 242 239 241
-0.273438 -0.242188 -0.024712 243 240 242
-0.269531 -0.242188 -0.027465 242 239 242
-0.265625 -0.242188 -0.029844 243 240 242
-0.261719 -0.242188 -0.031660 242 239 242
-0.257812 -0.242188 -0.032953 243 240 242
-0.253906 -0.242188 -0.034024 243 240 242
-0.250000 -0.242188 -0.034822 243 241 243
-0.246094 -0.242188 -0.035094 244 241 243
-0.242188 -0.242188 -0.034973 244 241 243
-0.238281 -0.242188 -0.034625 244 241 243
-0.234375 -0.242188 -0.034020 244 241 243
-0.230469 -0.242188 -0.033059 244 242 243
-0.226562 -0.242188 -0.031793 245 242 243
-0.222656 -0.242188 -0.030256 245 242 243
-0.218750 -0.242188 -0.028421 245 242 243
-0.214844 -0.242188 -0.026259 244 242 242
-0.210938 -0.242188 -0.023741 244 241 242
-0.207031 -0.242188 -0.020971 244 241 242
-0.203125 -0.242188 -0.017964 245 242 242
-0.199219 -0.242188 -0.014739 245 242 242
-0.195312 -0.242188 -0.011309 246 243 243
-0.191406 -0.242188 -0.007775 246 243 244
-0.187500 -0.242188 -0.004331 246 243 244
-0.183594 -0.242188 -0.000733 246 244 245
-0.179688 -0.242188 0.002784 246 243 245
-0.175781 -0.242188 0.006118 246 243 244
-0.171875 -0.242188 0.009040 246 242 244
-0.167969 -0.242188 0.011902 248 244 245
-0.164062 -0.242188 0.014984 247 245 245
-0.160156 -0.242188 0.017643 248 247 246
-0.156250 -0.242188 0.024030 243 243 241
-0.152344 -0.242188 0.019858 244 243 244
0.054688 -0.242188 -0.025976 195 200 208
0.058594 -0.242188 -0.037996 211 211 215
0.062500 -0.242188 -0.046835 215 213 220
0.066406 -0.242188 -0.053134 221 219 227
0.070312 -0.242188 -0.058400 222 219 229
0.074219 -0.242188 -0.062895 228 224 233
0.078125 -0.242188 -0.066807 231 227 235
0.082031 -0.242188 -0.069514 233 229 237
0.085938 -0.242188 -0.071473 236 232 239
0.089844 -0.242188 -0.073060 237 233 240
0.093750 -0.242188 -0.074465 239 235 240
0.097656 -0.242188 -0.075369 240 236 241
0.101562 -0.242188 -0.075895 241 237 242
0.105469 -0.242188 -0.076350 241 238 242
0.109375 -0.242188 -0.076628 242 238 243
0.113281 -0.242188 -0.076561 242 239 243
0.117188 -0.242188 -0.076186 243 239 243
0.121094 -0.242188 -0.075773 243 240 243
0.125000 -0.242188 -0.075334 243 239 243
0.128906 -0.242188 -0.074432 243 239 243
0.132812 -0.242188 -0.073123 243 239 243
0.136719 -0.242188 -0.071842 243 239 242
0.140625 -0.242188 -0.070456 243 239 242
0.144531 -0.242188 -0.068749 243 239 242
0.148438 -0.242188 -0.066725 243 239 242
0.152344 -0.242188 -0.064718 243 239 242
0.156250 -0.242188 -0.062196 242 239 241
0.160156 -0.242188 -0.059577 241 238 241
0.164062 -0.242188 -0.055172 242 240 241
0.167969 -0.242188 -0.051211 242 238 240
0.171875 -0.242188 -0.045305 243 239 241
0.175781 -0.242188 -0.028978 226 225 226
-0.308594 -0.246094 0.030964 238 235 232
-0.304688 -0.246094 0.018778 238 233 234
-0.300781 -0.246094 0.009506 239 232 235
-0.296875 -0.246094 0.002008 238 231 235
-0.292969 -0.246094 -0.003841 240 233 236
-0.289062 -0.246094 -0.008890 240 234 237
-0.285156 -0.246094 -0.013968 241 237 240
-0.281250 -0.246094 -0.018519 242 238 241
-0.277344 -0.246094 -0.022161 242 238 241
-0.273438 -0.246094 -0.025115 243 239 242
-0.269531 -0.246094 -0.027825 242 239 242
-0.265625 -0.246094 -0.030158 243 240 242
-0.261719 -0.246094 -0.031919 243 240 242
-0.257812 -0.246094 -0.033149 243 240 242
-0.253906 -0.246094 -0.034153 243 241 243
-0.250000 -0.246094 -0.034875 244 241 243
-0.246094 -0.246094 -0.035067 244 241 243
-0.242188 -0.246094 -0.034863 244 241 243
-0.238281 -0.246094 -0.034414 244 241 243
-0.234375 -0.246094 -0.033696 244 241 243
-0.230469 -0.246094 -0.032593 244 242 243
-0.226562 -0.246094 -0.031164 245 242 243
-0.222656 -0.246094 -0.029446 245 242 243
-0.218750 -0.246094 -0.027414 245 242 243
-0.214844 -0.246094 -0.025049 245 242 243
-0.210938 -0.246094 -0.022315 245 242 242
-0.207031 -0.246094 -0.019366 245 242 242
-0.203125 -0.246094 -0.016194 246 243 243
-0.199219 -0.246094 -0.012850 246 243 243
-0.195312 -0.246094 -0.009354 246 243 244
-0.191406 -0.246094 -0.005765 246 243 244
-0.187500 -0.246094 -0.002317 246 243 244
-0.183594 -0.246094 0.001557 245 243 244
-0.179688 -0.246094 0.005554 246 243 245
-0.175781 -0.246094 0.009190 246 243 245
-0.171875 -0.246094 0.012460 247 244 245
-0.167969 -0.246094 0.015853 248 245 246
-0.164062 -0.246094 0.018597 247 245 245
-0.160156 -0.246094 0.022860 247 246 244
-0.156250 -0.246094 0.029405 244 242 243
0.054688 -0.246094 -0.027671 224 227 228
0.058594 -0.246094 -0.039044 215 216 219
0.062500 -0.246094 -0.047212 216 213 221
0.066406 -0.246094 -0.053529 221 218 227
0.070312 -0.246094 -0.058757 223 219 229
0.074219 -0.246094 -0.063193 229 225 233
