ply
    format ascii 1.0
    element vertex 74028
    property float x
    property float y
    property float z
    property uchar red
    property uchar green
    property uchar blue
    end_header
0.261719 0.085938 -0.115785 121 117 92
0.265625 0.085938 -0.115971 175 148 114
0.269531 0.085938 -0.115156 193 152 114
0.273438 0.085938 -0.112793 206 162 119
0.277344 0.085938 -0.110314 211 169 122
0.281250 0.085938 -0.107476 217 173 129
0.285156 0.085938 -0.103339 225 191 150
0.289062 0.085938 -0.099974 232 214 182
0.292969 0.085938 -0.093407 156 139 123
0.296875 0.085938 -0.088765 56 80 69
-0.207031 0.082031 0.010836 192 159 120
-0.203125 0.082031 0.005009 187 135 91
-0.199219 0.082031 0.001700 200 143 94
-0.195312 0.082031 -0.000904 206 144 96
-0.191406 0.082031 -0.002925 213 147 99
-0.187500 0.082031 -0.003817 223 160 110
-0.183594 0.082031 -0.003077 229 168 118
-0.179688 0.082031 -0.000949 232 171 123
-0.175781 0.082031 0.001347 229 169 123
-0.171875 0.082031 0.004638 222 164 125
-0.167969 0.082031 0.011482 195 143 123
-0.164062 0.082031 0.007554 167 139 117
-0.113281 0.082031 -0.039002 103 69 109
-0.109375 0.082031 -0.049232 117 98 143
-0.105469 0.082031 -0.058302 71 57 76
-0.101562 0.082031 -0.066426 49 45 47
-0.097656 0.082031 -0.072551 87 86 85
-0.093750 0.082031 -0.078208 67 67 65
-0.089844 0.082031 -0.083148 40 40 38
-0.085938 0.082031 -0.087722 31 31 29
-0.082031 0.082031 -0.092064 2 1 4
-0.078125 0.082031 -0.096336 10 10 8
-0.074219 0.082031 -0.100110 49 49 47
-0.070312 0.082031 -0.103513 81 81 79
-0.066406 0.082031 -0.106982 87 87 85
-0.062500 0.082031 -0.110197 44 44 42
-0.058594 0.082031 -0.113240 17 17 15
-0.054688 0.082031 -0.116106 21 21 19
-0.050781 0.082031 -0.118848 21 21 19
-0.046875 0.082031 -0.121424 15 15 13
-0.042969 0.082031 -0.123468 37 37 35
-0.039062 0.082031 -0.125175 74 74 72
-0.035156 0.082031 -0.126746 80 80 78
-0.031250 0.082031 -0.128257 99 99 97
-0.027344 0.082031 -0.129770 83 83 81
-0.023438 0.082031 -0.131175 41 41 39
-0.019531 0.082031 -0.132571 22 22 20
-0.015625 0.082031 -0.133785 19 19 17
-0.011719 0.082031 -0.134802 13 13 11
-0.007812 0.082031 -0.135681 9 9 7
-0.003906 0.082031 -0.136331 11 11 9
0.000000 0.082031 -0.136873 25 25 23
0.003906 0.082031 -0.137384 42 42 40
0.007812 0.082031 -0.137856 54 54 52
0.011719 0.082031 -0.138175 59 59 57
0.015625 0.082031 -0.138374 75 75 73
0.019531 0.082031 -0.138492 108 108 106
0.023438 0.082031 -0.138543 138 138 136
0.027344 0.082031 -0.138513 103 103 101
0.031250 0.082031 -0.138420 87 87 85
0.035156 0.082031 -0.138335 62 62 60
0.039062 0.082031 -0.138261 39 39 37
0.042969 0.082031 -0.138194 25 25 23
0.046875 0.082031 -0.138154 21 21 19
0.050781 0.082031 -0.138077 23 23 21
0.054688 0.082031 -0.138017 25 25 23
0.058594 0.082031 -0.138002 15 14 12
0.062500 0.082031 -0.138078 17 16 14
0.066406 0.082031 -0.138188 19 18 16
0.070312 0.082031 -0.138313 22 21 19
0.074219 0.082031 -0.138545 26 25 23
0.078125 0.082031 -0.138840 29 28 26
0.082031 0.082031 -0.139069 32 31 29
0.085938 0.082031 -0.139268 33 32 30
0.089844 0.082031 -0.139545 50 49 47
0.093750 0.082031 -0.139919 63 62 60
0.097656 0.082031 -0.140379 82 81 79
0.101562 0.082031 -0.140952 101 100 98
0.105469 0.082031 -0.141498 117 116 114
0.109375 0.082031 -0.142016 127 126 124
0.113281 0.082031 -0.142714 133 132 130
0.117188 0.082031 -0.143500 136 135 133
0.121094 0.082031 -0.144157 127 127 125
0.125000 0.082031 -0.144639 107 107 105
0.128906 0.082031 -0.144912 76 76 74
0.132812 0.082031 -0.144929 52 52 50
0.136719 0.082031 -0.144786 41 41 39
0.140625 0.082031 -0.144445 35 35 33
0.144531 0.082031 -0.144000 25 25 23
0.148438 0.082031 -0.143410 14 14 12
0.152344 0.082031 -0.142665 22 22 20
0.156250 0.082031 -0.141703 15 15 13
0.160156 0.082031 -0.140379 17 17 15
0.164062 0.082031 -0.138723 11 11 9
0.167969 0.082031 -0.136766 19 19 17
0.171875 0.082031 -0.134568 86 86 86
0.175781 0.082031 -0.132183 35 41 39
0.179688 0.082031 -0.129521 22 34 23
0.183594 0.082031 -0.126664 15 35 15
0.187500 0.082031 -0.123552 15 23 14
0.191406 0.082031 -0.120012 11 15 10
0.195312 0.082031 -0.116051 10 13 9
0.199219 0.082031 -0.111961 12 15 10
0.203125 0.082031 -0.107849 13 19 12
0.207031 0.082031 -0.103356 12 20 11
0.210938 0.082031 -0.098755 11 19 10
0.214844 0.082031 -0.093815 13 20 11
0.218750 0.082031 -0.088793 12 17 10
0.222656 0.082031 -0.083401 13 16 11
0.226562 0.082031 -0.078536 15 17 13
0.230469 0.082031 -0.073161 19 20 17
0.234375 0.082031 -0.067967 22 22 20
0.238281 0.082031 -0.063015 22 22 20
0.242188 0.082031 -0.093455 21 23 19
0.246094 0.082031 -0.103550 29 33 29
0.250000 0.082031 -0.109987 47 58 49
0.253906 0.082031 -0.112689 40 54 42
0.257812 0.082031 -0.113990 55 72 54
0.261719 0.082031 -0.115512 102 102 83
0.265625 0.082031 -0.115803 172 147 118
0.269531 0.082031 -0.115051 192 154 117
0.273438 0.082031 -0.112666 206 163 119
0.277344 0.082031 -0.110421 213 170 124
0.281250 0.082031 -0.107835 218 175 131
0.285156 0.082031 -0.103911 226 191 149
0.289062 0.082031 -0.100338 230 209 174
0.292969 0.082031 -0.096110 136 119 106
0.296875 0.082031 -0.088277 96 116 102
-0.207031 0.078125 0.013299 196 161 122
-0.203125 0.078125 0.007350 191 138 92
-0.199219 0.078125 0.004067 204 145 95
-0.195312 0.078125 0.001644 208 145 96
-0.191406 0.078125 -0.000276 214 147 98
-0.187500 0.078125 -0.001060 224 160 110
-0.183594 0.078125 -0.000176 230 169 118
-0.179688 0.078125 0.002260 233 172 124
-0.175781 0.078125 0.005115 229 170 123
-0.171875 0.078125 0.008711 221 161 122
-0.167969 0.078125 0.016569 201 149 129
-0.164062 0.078125 0.002979 153 127 111
-0.117188 0.078125 -0.031163 143 113 140
-0.113281 0.078125 -0.044259 105 68 99
-0.109375 0.078125 -0.053935 75 58 88
-0.105469 0.078125 -0.061623 57 48 58
-0.101562 0.078125 -0.068748 52 49 50
-0.097656 0.078125 -0.074659 76 75 74
-0.093750 0.078125 -0.080121 56 56 54
-0.089844 0.078125 -0.084873 52 52 50
-0.085938 0.078125 -0.089291 79 79 77
-0.082031 0.078125 -0.093519 54 54 52
-0.078125 0.078125 -0.097652 23 23 21
-0.074219 0.078125 -0.101303 12 12 10
-0.070312 0.078125 -0.104598 17 17 15
-0.066406 0.078125 -0.107925 9 9 7
-0.062500 0.078125 -0.111009 72 72 70
-0.058594 0.078125 -0.113939 106 106 104
-0.054688 0.078125 -0.116717 70 70 68
-0.050781 0.078125 -0.119387 22 22 20
-0.046875 0.078125 -0.121899 10 10 8
-0.042969 0.078125 -0.123904 15 15 13
-0.039062 0.078125 -0.125591 14 14 12
-0.035156 0.078125 -0.127137 25 25 23
-0.031250 0.078125 -0.128620 36 36 34
-0.027344 0.078125 -0.130112 52 52 50
-0.023438 0.078125 -0.131490 81 81 79
-0.019531 0.078125 -0.132909 118 118 116
-0.015625 0.078125 -0.134133 121 121 119
-0.011719 0.078125 -0.135153 74 74 72
-0.007812 0.078125 -0.136038 22 22 20
-0.003906 0.078125 -0.136696 21 21 19
0.000000 0.078125 -0.137253 14 14 12
0.003906 0.078125 -0.137790 10 10 8
0.007812 0.078125 -0.138304 12 12 10
0.011719 0.078125 -0.138663 15 15 13
0.015625 0.078125 -0.138896 16 16 14
0.019531 0.078125 -0.139051 20 20 18
0.023438 0.078125 -0.139136 25 25 23
0.027344 0.078125 -0.139146 55 55 53
0.031250 0.078125 -0.139104 57 57 55
0.035156 0.078125 -0.139058 62 62 60
0.039062 0.078125 -0.139025 69 69 67
0.042969 0.078125 -0.138982 77 77 75
0.046875 0.078125 -0.138960 81 81 79
0.050781 0.078125 -0.138914 81 81 79
0.054688 0.078125 -0.138862 79 79 77
0.058594 0.078125 -0.138861 67 66 64
0.062500 0.078125 -0.138950 57 56 54
0.066406 0.078125 -0.139054 41 40 38
0.070312 0.078125 -0.139167 26 25 23
0.074219 0.078125 -0.139390 16 15 13
0.078125 0.078125 -0.139676 13 12 10
0.082031 0.078125 -0.139884 14 13 11
0.085938 0.078125 -0.140064 16 15 13
0.089844 0.078125 -0.140319 19 18 16
0.093750 0.078125 -0.140661 19 18 16
0.097656 0.078125 -0.141093 18 17 15
0.101562 0.078125 -0.141643 16 15 13
0.105469 0.078125 -0.142161 16 15 13
0.109375 0.078125 -0.142648 21 20 18
0.113281 0.078125 -0.143323 31 30 28
0.117188 0.078125 -0.144078 39 38 36
0.121094 0.078125 -0.144707 73 73 71
0.125000 0.078125 -0.145157 75 75 73
0.128906 0.078125 -0.145409 89 89 87
0.132812 0.078125 -0.145415 120 120 118
0.136719 0.078125 -0.145255 150 150 148
0.140625 0.078125 -0.144907 156 156 154
0.144531 0.078125 -0.144464 133 133 131
0.148438 0.078125 -0.143885 106 106 104
0.152344 0.078125 -0.143139 102 102 100
0.156250 0.078125 -0.142187 76 76 74
0.160156 0.078125 -0.140901 70 70 68
0.164062 0.078125 -0.139288 73 73 71
0.167969 0.078125 -0.137377 67 67 65
0.171875 0.078125 -0.135216 99 99 98
0.175781 0.078125 -0.132859 37 43 42
0.179688 0.078125 -0.130233 21 32 24
0.183594 0.078125 -0.127382 22 43 24
0.187500 0.078125 -0.124272 37 60 39
0.191406 0.078125 -0.120703 46 65 48
0.195312 0.078125 -0.116690 49 62 50
0.199219 0.078125 -0.112567 48 57 48
0.203125 0.078125 -0.108434 41 52 41
0.207031 0.078125 -0.103964 39 54 40
0.210938 0.078125 -0.099403 44 60 44
0.214844 0.078125 -0.094540 52 68 51
0.218750 0.078125 -0.089603 61 75 60
0.222656 0.078125 -0.084363 69 79 67
0.226562 0.078125 -0.079517 71 77 69
0.230469 0.078125 -0.073996 68 71 66
0.234375 0.078125 -0.068215 62 64 60
0.238281 0.078125 -0.062996 56 57 53
0.242188 0.078125 -0.086014 49 52 47
0.246094 0.078125 -0.101391 48 53 48
0.250000 0.078125 -0.109058 59 69 61
0.253906 0.078125 -0.111856 52 65 54
0.257812 0.078125 -0.113497 55 68 56
0.261719 0.078125 -0.114964 81 82 70
0.265625 0.078125 -0.115497 157 134 107
0.269531 0.078125 -0.114810 183 146 109
0.273438 0.078125 -0.112525 203 158 115
0.277344 0.078125 -0.110466 214 169 124
0.281250 0.078125 -0.108154 219 176 132
0.285156 0.078125 -0.104802 226 190 148
0.289062 0.078125 -0.101208 231 207 170
0.292969 0.078125 -0.096430 161 139 123
0.296875 0.078125 -0.089863 142 152 133
0.300781 0.078125 -0.086532 231 207 170
-0.207031 0.074219 0.015632 199 163 123
-0.203125 0.074219 0.009670 195 140 93
-0.199219 0.074219 0.006400 207 148 96
-0.195312 0.074219 0.004182 211 147 96
-0.191406 0.074219 0.002389 217 149 99
-0.187500 0.074219 0.001693 226 162 110
-0.183594 0.074219 0.002789 232 170 119
-0.179688 0.074219 0.005496 234 175 125
-0.175781 0.074219 0.008867 231 172 124
-0.171875 0.074219 0.012935 222 158 120
-0.167969 0.074219 0.022431 200 142 126
-0.164062 0.074219 0.001031 106 78 77
-0.121094 0.074219 -0.021721 151 127 145
-0.117188 0.074219 -0.038777 130 94 113
-0.113281 0.074219 -0.049357 87 57 104
-0.109375 0.074219 -0.057871 65 46 72
-0.105469 0.074219 -0.064781 54 45 53
-0.101562 0.074219 -0.071248 56 54 55
-0.097656 0.074219 -0.076878 77 76 75
-0.093750 0.074219 -0.082100 49 48 47
-0.089844 0.074219 -0.086719 9 9 7
-0.085938 0.074219 -0.090990 34 34 32
-0.082031 0.074219 -0.095078 65 65 63
-0.078125 0.074219 -0.099051 89 89 87
-0.074219 0.074219 -0.102555 63 63 61
-0.070312 0.074219 -0.105733 17 17 15
-0.066406 0.074219 -0.108916 22 22 20
-0.062500 0.074219 -0.111856 21 21 19
-0.058594 0.074219 -0.114671 13 13 11
-0.054688 0.074219 -0.117346 23 23 21
-0.050781 0.074219 -0.119896 71 71 69
-0.046875 0.074219 -0.122301 109 109 107
-0.042969 0.074219 -0.124239 78 78 76
-0.039062 0.074219 -0.125873 16 16 14
-0.035156 0.074219 -0.127378 10 10 8
-0.031250 0.074219 -0.128842 6 6 4
-0.027344 0.074219 -0.130318 13 13 11
-0.023438 0.074219 -0.131687 25 25 23
-0.019531 0.074219 -0.133099 27 27 25
-0.015625 0.074219 -0.134320 40 40 38
-0.011719 0.074219 -0.135326 75 75 73
-0.007812 0.074219 -0.136189 109 109 107
-0.003906 0.074219 -0.136847 147 147 145
0.000000 0.074219 -0.137414 112 112 110
0.003906 0.074219 -0.137974 72 72 70
0.007812 0.074219 -0.138529 48 48 46
0.011719 0.074219 -0.138937 38 38 36
0.015625 0.074219 -0.139229 29 29 27
0.019531 0.074219 -0.139433 20 20 18
0.023438 0.074219 -0.139568 13 13 11
0.027344 0.074219 -0.139635 12 12 10
0.031250 0.074219 -0.139652 8 8 6
0.035156 0.074219 -0.139659 7 7 5
0.039062 0.074219 -0.139666 12 12 10
0.042969 0.074219 -0.139640 25 25 23
0.046875 0.074219 -0.139623 43 43 41
0.050781 0.074219 -0.139591 60 60 58
0.054688 0.074219 -0.139543 71 71 69
0.058594 0.074219 -0.139549 104 103 101
0.062500 0.074219 -0.139642 108 107 105
0.066406 0.074219 -0.139734 114 113 111
0.070312 0.074219 -0.139829 121 120 118
0.074219 0.074219 -0.140037 126 125 123
0.078125 0.074219 -0.140314 128 127 125
0.082031 0.074219 -0.140508 128 127 125
0.085938 0.074219 -0.140678 127 126 124
0.089844 0.074219 -0.140918 108 107 105
0.093750 0.074219 -0.141246 103 102 100
0.097656 0.074219 -0.141670 91 90 88
0.101562 0.074219 -0.142213 73 72 70
0.105469 0.074219 -0.142722 52 51 49
0.109375 0.074219 -0.143185 35 34 32
0.113281 0.074219 -0.143837 26 25 23
0.117188 0.074219 -0.144565 23 22 20
0.121094 0.074219 -0.145171 14 14 12
0.125000 0.074219 -0.145594 9 9 7
0.128906 0.074219 -0.145824 7 7 5
0.132812 0.074219 -0.145816 12 12 10
0.136719 0.074219 -0.145634 24 24 22
0.140625 0.074219 -0.145267 37 37 35
0.144531 0.074219 -0.144809 46 46 44
0.148438 0.074219 -0.144221 51 51 49
0.152344 0.074219 -0.143467 79 79 77
0.156250 0.074219 -0.142513 92 92 90
0.160156 0.074219 -0.141243 117 117 115
0.164062 0.074219 -0.139653 119 119 117
0.167969 0.074219 -0.137780 83 83 81
0.171875 0.074219 -0.135658 87 87 87
0.175781 0.074219 -0.133331 38 42 43
0.179688 0.074219 -0.130737 23 33 28
0.183594 0.074219 -0.127891 28 50 33
0.187500 0.074219 -0.124801 36 66 41
0.191406 0.074219 -0.121217 36 63 41
0.195312 0.074219 -0.117156 36 58 40
0.199219 0.074219 -0.113013 37 52 40
0.203125 0.074219 -0.108871 32 47 35
0.207031 0.074219 -0.104430 32 49 35
0.210938 0.074219 -0.099898 38 57 41
0.214844 0.074219 -0.095130 47 68 50
0.218750 0.074219 -0.090303 64 84 65
0.222656 0.074219 -0.085268 90 109 90
0.226562 0.074219 -0.080454 127 140 125
0.230469 0.074219 -0.074787 149 157 146
0.234375 0.074219 -0.068990 155 162 152
0.238281 0.074219 -0.064560 148 153 145
0.242188 0.074219 -0.077293 136 142 134
0.246094 0.074219 -0.100307 109 117 109
0.250000 0.074219 -0.107640 80 90 82
0.253906 0.074219 -0.110556 70 81 71
0.257812 0.074219 -0.112532 70 77 71
0.261719 0.074219 -0.114282 75 76 69
0.265625 0.074219 -0.114911 136 119 94
0.269531 0.074219 -0.114367 170 135 100
0.273438 0.074219 -0.112286 197 151 110
0.277344 0.074219 -0.110419 212 166 123
0.281250 0.074219 -0.108237 220 175 133
0.285156 0.074219 -0.105301 227 189 146
0.289062 0.074219 -0.102088 232 205 167
0.292969 0.074219 -0.096830 192 166 149
0.296875 0.074219 -0.091494 56 80 69
0.300781 0.074219 -0.087846 232 205 167
-0.207031 0.070312 0.017792 202 165 125
-0.203125 0.070312 0.012006 198 143 94
-0.199219 0.070312 0.008840 209 150 97
-0.195312 0.070312 0.006776 213 150 97
-0.191406 0.070312 0.005115 219 153 99
-0.187500 0.070312 0.004528 227 165 111
-0.183594 0.070312 0.005903 233 173 119
-0.179688 0.070312 0.008986 236 178 126
-0.175781 0.070312 0.012839 233 176 126
-0.171875 0.070312 0.017439 223 160 121
-0.167969 0.070312 0.027501 197 134 121
-0.164062 0.070312 0.000834 233 176 126
-0.121094 0.070312 -0.030249 95 83 102
-0.117188 0.070312 -0.044325 138 113 147
-0.113281 0.070312 -0.053801 103 69 109
-0.109375 0.070312 -0.061556 54 35 56
-0.105469 0.070312 -0.067995 46 38 45
-0.101562 0.070312 -0.073989 54 52 53
-0.097656 0.070312 -0.079329 82 81 81
-0.093750 0.070312 -0.084272 73 72 71
-0.089844 0.070312 -0.088706 28 28 26
-0.085938 0.070312 -0.092806 19 19 17
-0.082031 0.070312 -0.096746 7 6 4
-0.078125 0.070312 -0.100533 25 25 23
-0.074219 0.070312 -0.103889 60 60 58
-0.070312 0.070312 -0.106943 86 86 84
-0.066406 0.070312 -0.109951 81 81 79
-0.062500 0.070312 -0.112727 41 41 39
-0.058594 0.070312 -0.115391 15 15 13
-0.054688 0.070312 -0.117933 18 18 16
-0.050781 0.070312 -0.120331 18 18 16
-0.046875 0.070312 -0.122604 17 17 15
-0.042969 0.070312 -0.124462 48 48 46
-0.039062 0.070312 -0.126027 94 94 92
-0.035156 0.070312 -0.127482 111 111 109
-0.031250 0.070312 -0.128889 60 60 58
-0.027344 0.070312 -0.130323 28 28 26
-0.023438 0.070312 -0.131678 25 25 23
-0.019531 0.070312 -0.133047 16 16 14
-0.015625 0.070312 -0.134241 7 7 5
-0.011719 0.070312 -0.135236 10 10 8
-0.007812 0.070312 -0.136091 14 14 12
-0.003906 0.070312 -0.136765 39 39 37
0.000000 0.070312 -0.137347 46 46 44
0.003906 0.070312 -0.137940 67 67 65
0.007812 0.070312 -0.138541 95 95 93
0.011719 0.070312 -0.138996 112 112 110
0.015625 0.070312 -0.139343 107 107 105
0.019531 0.070312 -0.139607 90 90 88
0.023438 0.070312 -0.139804 77 77 75
0.027344 0.070312 -0.139937 52 52 50
0.031250 0.070312 -0.140018 46 46 44
0.035156 0.070312 -0.140086 35 35 33
0.039062 0.070312 -0.140152 22 22 20
0.042969 0.070312 -0.140172 12 12 10
0.046875 0.070312 -0.140183 9 9 7
0.050781 0.070312 -0.140174 10 10 8
0.054688 0.070312 -0.140145 13 13 11
0.058594 0.070312 -0.140160 11 10 8
0.062500 0.070312 -0.140254 11 10 8
0.066406 0.070312 -0.140337 12 11 9
0.070312 0.070312 -0.140416 16 15 13
0.074219 0.070312 -0.140608 24 23 21
0.078125 0.070312 -0.140871 36 35 33
0.082031 0.070312 -0.141050 47 46 44
0.085938 0.070312 -0.141204 54 53 51
0.089844 0.070312 -0.141431 79 78 76
0.093750 0.070312 -0.141743 94 93 91
0.097656 0.070312 -0.142155 115 114 112
0.101562 0.070312 -0.142685 134 133 131
0.105469 0.070312 -0.143175 143 142 140
0.109375 0.070312 -0.143616 143 142 140
0.113281 0.070312 -0.144240 138 137 135
0.117188 0.070312 -0.144937 134 133 131
0.121094 0.070312 -0.145525 116 116 114
0.125000 0.070312 -0.145931 91 91 89
0.128906 0.070312 -0.146144 61 61 59
0.132812 0.070312 -0.146128 39 39 37
0.136719 0.070312 -0.145934 27 27 25
0.140625 0.070312 -0.145556 19 19 17
0.144531 0.070312 -0.145091 16 16 14
0.148438 0.070312 -0.144494 16 16 14
0.152344 0.070312 -0.143724 17 17 15
0.156250 0.070312 -0.142754 24 24 22
0.160156 0.070312 -0.141477 22 22 20
0.164062 0.070312 -0.139889 19 19 17
0.167969 0.070312 -0.138029 24 24 22
0.171875 0.070312 -0.135934 77 77 76
0.175781 0.070312 -0.133644 49 52 53
0.179688 0.070312 -0.131084 31 41 39
0.183594 0.070312 -0.128248 39 61 49
0.187500 0.070312 -0.125185 47 76 57
0.191406 0.070312 -0.121599 43 72 52
0.195312 0.070312 -0.117499 41 68 49
0.199219 0.070312 -0.113337 39 59 46
0.203125 0.070312 -0.109192 35 53 41
0.207031 0.070312 -0.104801 36 56 43
0.210938 0.070312 -0.100343 44 64 50
0.214844 0.070312 -0.095695 55 76 61
0.218750 0.070312 -0.091027 70 90 75
0.222656 0.070312 -0.086179 91 107 94
0.226562 0.070312 -0.081372 119 132 120
0.230469 0.070312 -0.075498 139 147 139
0.234375 0.070312 -0.069566 148 153 146
0.238281 0.070312 -0.065931 139 144 138
0.242188 0.070312 -0.067649 130 135 129
0.246094 0.070312 -0.098277 115 123 116
0.250000 0.070312 -0.105399 92 99 94
0.253906 0.070312 -0.109306 91 99 92
0.257812 0.070312 -0.111626 101 105 102
0.261719 0.070312 -0.113355 96 99 94
0.265625 0.070312 -0.114299 122 117 93
0.269531 0.070312 -0.113867 158 131 99
0.273438 0.070312 -0.111957 191 146 108
0.277344 0.070312 -0.110376 209 161 121
0.281250 0.070312 -0.108508 220 173 132
0.285156 0.070312 -0.105936 226 188 144
0.289062 0.070312 -0.102888 231 202 163
0.292969 0.070312 -0.097676 200 174 155
0.296875 0.070312 -0.092069 96 116 102
0.300781 0.070312 -0.089656 231 202 163
-0.207031 0.066406 0.019465 207 170 130
-0.203125 0.066406 0.014379 201 146 96
-0.199219 0.066406 0.011348 211 152 97
-0.195312 0.066406 0.009454 215 152 97
-0.191406 0.066406 0.007973 220 155 100
-0.187500 0.066406 0.007525 228 167 111
-0.183594 0.066406 0.009153 234 175 119
-0.179688 0.066406 0.012559 236 179 126
-0.175781 0.066406 0.016654 235 180 128
-0.171875 0.066406 0.022287 225 164 124
-0.167969 0.066406 0.032235 196 128 116
-0.164062 0.066406 0.002765 235 180 128
-0.121094 0.066406 -0.037026 88 82 108
-0.117188 0.066406 -0.048971 143 113 140
-0.113281 0.066406 -0.057966 105 68 99
-0.109375 0.066406 -0.065283 55 34 52
-0.105469 0.066406 -0.070892 48 37 44
-0.101562 0.066406 -0.076545 53 48 50
-0.097656 0.066406 -0.081604 70 68 68
-0.093750 0.066406 -0.086266 66 65 64
-0.089844 0.066406 -0.090515 49 48 46
-0.085938 0.066406 -0.094458 71 71 69
-0.082031 0.066406 -0.098305 49 49 47
-0.078125 0.066406 -0.101963 17 17 15
-0.074219 0.066406 -0.105211 12 12 10
-0.070312 0.066406 -0.108138 30 30 28
-0.066406 0.066406 -0.110948 64 64 62
-0.062500 0.066406 -0.113571 77 77 75
-0.058594 0.066406 -0.116061 74 74 72
-0.054688 0.066406 -0.118446 45 45 43
-0.050781 0.066406 -0.120710 14 13 11
-0.046875 0.066406 -0.122870 4 3 2
-0.042969 0.066406 -0.124652 13 12 10
-0.039062 0.066406 -0.126151 21 21 19
-0.035156 0.066406 -0.127532 20 20 18
-0.031250 0.066406 -0.128852 50 50 48
-0.027344 0.066406 -0.130209 99 99 97
-0.023438 0.066406 -0.131504 109 109 107
-0.019531 0.066406 -0.132821 72 72 70
-0.015625 0.066406 -0.133962 44 44 42
-0.011719 0.066406 -0.134920 38 38 36
-0.007812 0.066406 -0.135755 29 29 27
-0.003906 0.066406 -0.136436 7 6 4
0.000000 0.066406 -0.137029 5 4 3
0.003906 0.066406 -0.137641 10 9 7
0.007812 0.066406 -0.138283 20 20 18
0.011719 0.066406 -0.138771 30 30 28
0.015625 0.066406 -0.139159 35 35 33
0.019531 0.066406 -0.139479 38 38 36
0.023438 0.066406 -0.139738 41 41 39
0.027344 0.066406 -0.139946 63 63 61
0.031250 0.066406 -0.140104 81 81 79
0.035156 0.066406 -0.140244 104 104 102
0.039062 0.066406 -0.140379 113 113 111
0.042969 0.066406 -0.140451 103 103 101
0.046875 0.066406 -0.140507 81 81 79
0.050781 0.066406 -0.140542 59 59 57
0.054688 0.066406 -0.140551 46 46 44
0.058594 0.066406 -0.140593 33 32 30
0.062500 0.066406 -0.140699 29 28 26
0.066406 0.066406 -0.140789 23 22 20
0.070312 0.066406 -0.140863 19 18 16
0.074219 0.066406 -0.141050 18 17 15
0.078125 0.066406 -0.141307 21 20 18
0.082031 0.066406 -0.141475 25 24 22
0.085938 0.066406 -0.141617 29 28 26
0.089844 0.066406 -0.141830 22 21 19
0.093750 0.066406 -0.142121 18 17 15
0.097656 0.066406 -0.142515 14 13 11
0.101562 0.066406 -0.143029 14 13 11
0.105469 0.066406 -0.143502 20 19 17
0.109375 0.066406 -0.143930 29 28 26
0.113281 0.066406 -0.144535 38 37 35
0.117188 0.066406 -0.145217 44 43 41
0.121094 0.066406 -0.145798 53 53 51
0.125000 0.066406 -0.146194 57 57 55
0.128906 0.066406 -0.146396 75 75 73
0.132812 0.066406 -0.146365 106 106 104
0.136719 0.066406 -0.146157 126 126 124
0.140625 0.066406 -0.145764 122 122 120
0.144531 0.066406 -0.145285 102 102 100
0.148438 0.066406 -0.144675 85 85 83
0.152344 0.066406 -0.143878 81 81 79
0.156250 0.066406 -0.142879 73 73 71
0.160156 0.066406 -0.141592 49 49 47
0.164062 0.066406 -0.140004 49 49 47
0.167969 0.066406 -0.138145 71 71 69
0.171875 0.066406 -0.136062 111 111 110
0.175781 0.066406 -0.133775 70 71 72
0.179688 0.066406 -0.131231 40 45 47
0.183594 0.066406 -0.128407 50 62 59
0.187500 0.066406 -0.125364 65 80 74
0.191406 0.066406 -0.121774 65 81 73
0.195312 0.066406 -0.117644 63 80 71
0.199219 0.066406 -0.113484 57 72 65
0.203125 0.066406 -0.109357 50 64 58
0.207031 0.066406 -0.105041 52 66 60
0.210938 0.066406 -0.100687 61 76 69
0.214844 0.066406 -0.096198 73 87 80
0.218750 0.066406 -0.091697 89 101 96
0.222656 0.066406 -0.087020 107 117 113
0.226562 0.066406 -0.082193 128 134 133
0.230469 0.066406 -0.076197 142 144 146
0.234375 0.066406 -0.070483 147 146 150
0.238281 0.066406 -0.067296 141 139 144
0.242188 0.066406 -0.063561 139 136 141
0.246094 0.066406 -0.093821 128 127 130
0.250000 0.066406 -0.102637 120 121 122
0.253906 0.066406 -0.107696 128 131 130
0.257812 0.066406 -0.110592 141 143 142
0.261719 0.066406 -0.112395 136 139 135
0.265625 0.066406 -0.113473 117 124 103
0.269531 0.066406 -0.113256 135 118 92
0.273438 0.066406 -0.111554 180 138 107
0.277344 0.066406 -0.110238 205 155 118
0.281250 0.066406 -0.108668 219 170 131
0.285156 0.066406 -0.106449 227 187 144
0.289062 0.066406 -0.103383 232 204 165
0.292969 0.066406 -0.098657 212 189 168
0.296875 0.066406 -0.093616 142 152 133
0.300781 0.066406 -0.091570 232 204 165
-0.207031 0.062500 0.021362 212 175 137
-0.203125 0.062500 0.016749 203 147 99
-0.199219 0.062500 0.013831 212 152 98
-0.195312 0.062500 0.012106 218 154 98
-0.191406 0.062500 0.010779 222 157 101
-0.187500 0.062500 0.010432 230 168 111
-0.183594 0.062500 0.012325 235 175 118
-0.179688 0.062500 0.016183 237 178 124
-0.175781 0.062500 0.020431 236 183 130
-0.171875 0.062500 0.027140 227 169 128
-0.167969 0.062500 0.036291 194 123 109
-0.164062 0.062500 0.006622 236 183 130
-0.125000 0.062500 -0.026765 230 227 226
-0.121094 0.062500 -0.043655 151 127 145
-0.117188 0.062500 -0.054308 130 94 113
-0.113281 0.062500 -0.061928 113 75 94
-0.109375 0.062500 -0.068514 77 50 66
-0.105469 0.062500 -0.073903 61 47 53
-0.101562 0.062500 -0.079087 52 46 48
-0.097656 0.062500 -0.083797 61 57 58
-0.093750 0.062500 -0.088257 54 52 52
-0.089844 0.062500 -0.092408 10 10 8
-0.085938 0.062500 -0.096230 27 27 25
-0.082031 0.062500 -0.099928 56 56 54
-0.078125 0.062500 -0.103434 76 76 74
-0.074219 0.062500 -0.106536 56 56 54
-0.070312 0.062500 -0.109315 22 22 20
-0.066406 0.062500 -0.111927 9 8 6
-0.062500 0.062500 -0.114388 17 17 15
-0.058594 0.062500 -0.116711 42 42 40
-0.054688 0.062500 -0.118935 74 74 72
-0.050781 0.062500 -0.121061 87 87 85
-0.046875 0.062500 -0.123080 68 68 66
-0.042969 0.062500 -0.124747 36 36 34
-0.039062 0.062500 -0.126136 15 14 12
-0.035156 0.062500 -0.127404 12 11 9
-0.031250 0.062500 -0.128623 14 14 12
-0.027344 0.062500 -0.129879 22 22 20
-0.023438 0.062500 -0.131087 21 21 19
-0.019531 0.062500 -0.132331 40 40 38
-0.015625 0.062500 -0.133429 98 98 96
-0.011719 0.062500 -0.134346 132 132 130
-0.007812 0.062500 -0.135147 114 114 112
-0.003906 0.062500 -0.135838 86 86 84
0.000000 0.062500 -0.136457 63 63 61
0.003906 0.062500 -0.137100 37 36 34
0.007812 0.062500 -0.137791 21 20 18
0.011719 0.062500 -0.138337 14 13 11
0.015625 0.062500 -0.138808 12 12 10
0.019531 0.062500 -0.139217 14 14 12
0.023438 0.062500 -0.139571 17 17 15
0.027344 0.062500 -0.139883 7 7 5
0.031250 0.062500 -0.140134 14 14 12
0.035156 0.062500 -0.140359 22 22 20
0.039062 0.062500 -0.140568 25 25 23
0.042969 0.062500 -0.140697 28 28 26
0.046875 0.062500 -0.140799 38 38 36
0.050781 0.062500 -0.140874 55 55 53
0.054688 0.062500 -0.140913 69 69 67
0.058594 0.062500 -0.140979 93 92 90
0.062500 0.062500 -0.141099 115 114 112
0.066406 0.062500 -0.141199 146 145 143
0.070312 0.062500 -0.141271 171 170 168
0.074219 0.062500 -0.141456 175 174 172
0.078125 0.062500 -0.141707 159 158 156
0.082031 0.062500 -0.141871 134 133 131
0.085938 0.062500 -0.142007 116 115 113
0.089844 0.062500 -0.142211 95 94 92
0.093750 0.062500 -0.142493 81 80 78
0.097656 0.062500 -0.142880 60 59 57
0.101562 0.062500 -0.143394 42 41 39
0.105469 0.062500 -0.143870 31 30 28
0.109375 0.062500 -0.144291 24 23 21
0.113281 0.062500 -0.144873 20 19 17
0.117188 0.062500 -0.145530 17 16 14
0.121094 0.062500 -0.146084 17 17 15
0.125000 0.062500 -0.146454 15 15 13
0.128906 0.062500 -0.146624 16 16 14
0.132812 0.062500 -0.146566 16 16 14
0.136719 0.062500 -0.146328 12 12 10
0.140625 0.062500 -0.145901 12 12 10
0.144531 0.062500 -0.145392 23 23 21
0.148438 0.062500 -0.144754 38 38 36
0.152344 0.062500 -0.143925 45 45 43
0.156250 0.062500 -0.142894 65 65 63
0.160156 0.062500 -0.141582 77 77 75
0.164062 0.062500 -0.139982 88 88 86
0.167969 0.062500 -0.138116 75 75 73
0.171875 0.062500 -0.136026 83 83 81
0.175781 0.062500 -0.133732 97 98 98
0.179688 0.062500 -0.131206 66 69 71
0.183594 0.062500 -0.128411 75 80 82
0.187500 0.062500 -0.125407 98 103 104
0.191406 0.062500 -0.121832 103 109 108
0.195312 0.062500 -0.117699 98 104 103
0.199219 0.062500 -0.113567 86 91 91
0.203125 0.062500 -0.109478 72 78 78
0.207031 0.062500 -0.105255 73 78 79
0.210938 0.062500 -0.101015 82 88 89
0.214844 0.062500 -0.096697 96 101 102
0.218750 0.062500 -0.092378 111 116 117
0.222656 0.062500 -0.087841 127 130 132
0.226562 0.062500 -0.083085 141 142 145
0.230469 0.062500 -0.077057 152 150 155
0.234375 0.062500 -0.071454 158 154 162
0.238281 0.062500 -0.068146 158 153 161
0.242188 0.062500 -0.063847 160 154 162
0.246094 0.062500 -0.086736 163 158 164
0.250000 0.062500 -0.099797 167 164 167
0.253906 0.062500 -0.105636 173 172 173
0.257812 0.062500 -0.109122 174 174 174
0.261719 0.062500 -0.111304 164 166 164
0.265625 0.062500 -0.112530 125 131 120
0.269531 0.062500 -0.112692 104 93 81
0.273438 0.062500 -0.111217 164 127 104
0.277344 0.062500 -0.110125 199 153 115
0.281250 0.062500 -0.108791 218 168 128
0.285156 0.062500 -0.106811 227 187 145
0.289062 0.062500 -0.103786 233 206 167
0.292969 0.062500 -0.099184 218 195 173
0.296875 0.062500 -0.093965 170 168 151
0.300781 0.062500 -0.091661 233 206 167
-0.207031 0.058594 0.024337 213 178 140
-0.203125 0.058594 0.018868 202 147 100
-0.199219 0.058594 0.016263 211 151 98
-0.195312 0.058594 0.014635 219 157 100
-0.191406 0.058594 0.013606 225 162 105
-0.187500 0.058594 0.013510 234 177 120
-0.183594 0.058594 0.015712 238 186 128
-0.179688 0.058594 0.020024 239 185 130
-0.175781 0.058594 0.024549 237 190 136
-0.171875 0.058594 0.032024 229 176 131
-0.167969 0.058594 0.040916 196 130 107
-0.164062 0.058594 0.012286 191 155 137
-0.128906 0.058594 -0.017381 237 234 232
-0.125000 0.058594 -0.036085 110 101 121
-0.121094 0.058594 -0.049369 95 83 102
-0.117188 0.058594 -0.059439 86 72 84
-0.113281 0.058594 -0.066049 109 88 100
-0.109375 0.058594 -0.071826 100 80 91
-0.105469 0.058594 -0.076854 83 68 74
-0.101562 0.058594 -0.081622 66 57 59
-0.097656 0.058594 -0.086087 59 53 54
-0.093750 0.058594 -0.090298 62 56 57
-0.089844 0.058594 -0.094331 23 21 22
-0.085938 0.058594 -0.098017 115 99 135
-0.082031 0.058594 -0.101459 21 20 21
-0.078125 0.058594 -0.104692 47 46 46
-0.074219 0.058594 -0.107544 65 65 65
-0.070312 0.058594 -0.110164 79 79 79
-0.066406 0.058594 -0.112619 36 36 34
-0.062500 0.058594 -0.114938 27 26 24
-0.058594 0.058594 -0.117170 10 9 8
-0.054688 0.058594 -0.119293 33 33 31
-0.050781 0.058594 -0.121301 18 17 15
-0.046875 0.058594 -0.123185 70 70 68
-0.042969 0.058594 -0.124732 97 97 95
-0.039062 0.058594 -0.126018 83 83 81
-0.035156 0.058594 -0.127186 52 52 50
-0.031250 0.058594 -0.128309 52 52 50
-0.027344 0.058594 -0.129479 22 22 20
-0.023438 0.058594 -0.130626 2 1 23
-0.019531 0.058594 -0.131804 16 16 14
-0.015625 0.058594 -0.132853 25 25 23
-0.011719 0.058594 -0.133731 16 16 14
-0.007812 0.058594 -0.134494 16 15 13
-0.003906 0.058594 -0.135185 49 49 49
0.000000 0.058594 -0.135811 90 90 90
0.003906 0.058594 -0.136468 128 128 128
0.007812 0.058594 -0.137200 131 131 131
0.011719 0.058594 -0.137802 110 110 110
0.015625 0.058594 -0.138350 86 86 86
0.019531 0.058594 -0.138853 67 67 67
0.023438 0.058594 -0.139313 54 54 54
0.027344 0.058594 -0.139728 42 42 42
0.031250 0.058594 -0.140077 28 28 28
0.035156 0.058594 -0.140394 16 16 16
0.039062 0.058594 -0.140688 15 15 15
0.042969 0.058594 -0.140897 16 16 16
0.046875 0.058594 -0.141058 13 13 13
0.050781 0.058594 -0.141189 10 10 10
0.054688 0.058594 -0.141272 11 11 11
0.058594 0.058594 -0.141360 14 14 12
0.062500 0.058594 -0.141493 17 17 15
0.066406 0.058594 -0.141597 23 23 21
0.070312 0.058594 -0.141664 31 31 29
0.074219 0.058594 -0.141845 40 40 38
0.078125 0.058594 -0.142089 47 47 45
0.082031 0.058594 -0.142248 51 51 49
0.085938 0.058594 -0.142375 53 53 51
0.089844 0.058594 -0.142565 61 61 59
0.093750 0.058594 -0.142833 72 72 70
0.097656 0.058594 -0.143201 88 88 86
0.101562 0.058594 -0.143706 104 104 102
0.105469 0.058594 -0.144167 113 113 111
0.109375 0.058594 -0.144569 115 115 113
0.113281 0.058594 -0.145129 113 113 111
0.117188 0.058594 -0.145753 109 109 107
0.121094 0.058594 -0.146283 100 100 98
0.125000 0.058594 -0.146637 77 77 75
0.128906 0.058594 -0.146785 49 49 47
0.132812 0.058594 -0.146710 32 32 30
0.136719 0.058594 -0.146452 28 28 26
0.140625 0.058594 -0.146000 25 25 23
0.144531 0.058594 -0.145468 18 18 16
0.148438 0.058594 -0.144802 10 10 8
0.152344 0.058594 -0.143944 17 17 15
0.156250 0.058594 -0.142876 13 13 11
0.160156 0.058594 -0.141526 20 20 18
0.164062 0.058594 -0.139893 17 17 15
0.167969 0.058594 -0.138002 21 21 19
0.171875 0.058594 -0.135903 48 48 46
0.175781 0.058594 -0.133605 118 117 117
0.179688 0.058594 -0.131079 87 86 90
0.183594 0.058594 -0.128299 99 97 104
0.187500 0.058594 -0.125329 122 121 126
0.191406 0.058594 -0.121770 125 124 128
0.195312 0.058594 -0.117640 117 116 119
0.199219 0.058594 -0.113535 102 100 104
0.203125 0.058594 -0.109494 85 84 88
0.207031 0.058594 -0.105369 84 83 87
0.210938 0.058594 -0.101264 92 92 95
0.214844 0.058594 -0.097115 103 103 106
0.218750 0.058594 -0.092957 116 115 119
0.222656 0.058594 -0.088506 128 128 131
0.226562 0.058594 -0.083794 140 139 143
0.230469 0.058594 -0.077858 151 148 153
0.234375 0.058594 -0.072519 159 155 161
0.238281 0.058594 -0.068795 162 157 163
0.242188 0.058594 -0.064834 164 158 165
0.246094 0.058594 -0.077540 168 162 167
0.250000 0.058594 -0.096812 179 175 178
0.253906 0.058594 -0.103272 187 185 187
0.257812 0.058594 -0.107346 180 180 180
0.261719 0.058594 -0.110030 172 173 172
0.265625 0.058594 -0.111553 142 146 142
0.269531 0.058594 -0.112110 91 90 85
0.273438 0.058594 -0.110877 147 123 102
0.277344 0.058594 -0.109991 192 151 115
0.281250 0.058594 -0.108896 215 166 128
0.285156 0.058594 -0.107120 227 186 146
0.289062 0.058594 -0.104378 233 204 167
0.292969 0.058594 -0.099717 220 195 173
0.296875 0.058594 -0.094382 194 186 171
0.300781 0.058594 -0.092016 233 204 167
-0.207031 0.054688 0.026911 210 169 133
-0.203125 0.054688 0.021128 203 142 99
-0.199219 0.054688 0.018793 216 152 103
-0.195312 0.054688 0.017182 223 158 106
-0.191406 0.054688 0.016493 227 160 106
-0.187500 0.054688 0.016530 238 181 126
-0.183594 0.054688 0.019000 243 196 143
-0.179688 0.054688 0.023403 242 190 139
-0.175781 0.054688 0.028624 240 193 142
-0.171875 0.054688 0.036544 232 179 132
-0.167969 0.054688 0.045140 207 142 112
-0.164062 0.054688 0.018551 238 214 201
-0.132812 0.054688 -0.020549 237 235 234
-0.128906 0.054688 -0.035602 112 97 120
-0.125000 0.054688 -0.045740 115 104 131
-0.121094 0.054688 -0.055066 88 82 108
-0.117188 0.054688 -0.063352 89 81 101
-0.113281 0.054688 -0.069480 118 103 118
-0.109375 0.054688 -0.074680 99 81 94
-0.105469 0.054688 -0.079427 85 73 78
-0.101562 0.054688 -0.083774 73 65 68
-0.097656 0.054688 -0.087923 57 49 50
-0.093750 0.054688 -0.091878 50 42 45
-0.089844 0.054688 -0.095715 68 63 66
-0.085938 0.054688 -0.099293 64 61 63
-0.082031 0.054688 -0.102664 25 24 25
-0.078125 0.054688 -0.105782 7 7 7
-0.074219 0.054688 -0.108498 17 16 17
-0.070312 0.054688 -0.110994 35 34 35
-0.066406 0.054688 -0.113344 83 83 81
-0.062500 0.054688 -0.115541 70 70 68
-0.058594 0.054688 -0.117697 50 49 47
-0.054688 0.054688 -0.119725 18 17 16
-0.050781 0.054688 -0.121597 12 12 10
-0.046875 0.054688 -0.123378 12 11 10
-0.042969 0.054688 -0.124807 28 28 26
-0.039062 0.054688 -0.125996 25 25 23
-0.035156 0.054688 -0.127077 78 78 76
-0.031250 0.054688 -0.128113 96 96 94
-0.027344 0.054688 -0.129211 94 94 92
-0.023438 0.054688 -0.130290 75 75 73
-0.019531 0.054688 -0.131392 54 54 52
-0.015625 0.054688 -0.132361 24 24 22
-0.011719 0.054688 -0.133150 11 10 8
-0.007812 0.054688 -0.133851 25 25 23
-0.003906 0.054688 -0.134515 16 15 15
0.000000 0.054688 -0.135117 19 18 18
0.003906 0.054688 -0.135771 18 17 17
0.007812 0.054688 -0.136529 14 13 13
0.011719 0.054688 -0.137164 20 20 20
0.015625 0.054688 -0.137760 45 45 45
0.019531 0.054688 -0.138336 76 76 76
0.023438 0.054688 -0.138896 96 96 96
0.027344 0.054688 -0.139413 134 134 134
0.031250 0.054688 -0.139866 118 118 118
0.035156 0.054688 -0.140286 99 99 99
0.039062 0.054688 -0.140662 85 85 85
0.042969 0.054688 -0.140948 70 70 70
0.046875 0.054688 -0.141175 52 52 52
0.050781 0.054688 -0.141376 40 40 40
0.054688 0.054688 -0.141516 35 35 35
0.058594 0.054688 -0.141648 33 33 31
0.062500 0.054688 -0.141814 32 32 30
0.066406 0.054688 -0.141940 28 28 26
0.070312 0.054688 -0.142022 21 21 19
0.074219 0.054688 -0.142219 14 14 12
0.078125 0.054688 -0.142460 13 13 11
0.082031 0.054688 -0.142617 16 16 14
0.085938 0.054688 -0.142740 21 21 19
0.089844 0.054688 -0.142916 24 24 22
0.093750 0.054688 -0.143169 22 22 20
0.097656 0.054688 -0.143514 19 19 17
0.101562 0.054688 -0.144000 18 18 16
0.105469 0.054688 -0.144433 18 18 16
0.109375 0.054688 -0.144809 20 20 18
0.113281 0.054688 -0.145340 23 23 21
0.117188 0.054688 -0.145930 26 26 24
0.121094 0.054688 -0.146427 46 46 44
0.125000 0.054688 -0.146759 61 61 59
0.128906 0.054688 -0.146887 83 83 81
0.132812 0.054688 -0.146791 103 103 101
0.136719 0.054688 -0.146511 119 119 117
0.140625 0.054688 -0.146043 131 131 129
0.144531 0.054688 -0.145500 140 140 138
0.148438 0.054688 -0.144817 145 145 143
0.152344 0.054688 -0.143936 131 131 129
0.156250 0.054688 -0.142843 104 104 102
0.160156 0.054688 -0.141473 90 90 88
0.164062 0.054688 -0.139819 89 89 87
0.167969 0.054688 -0.137906 103 103 101
0.171875 0.054688 -0.135795 117 117 116
0.175781 0.054688 -0.133480 136 135 135
0.179688 0.054688 -0.130943 85 82 86
0.183594 0.054688 -0.128167 101 96 104
0.187500 0.054688 -0.125229 121 117 123
0.191406 0.054688 -0.121715 121 118 122
0.195312 0.054688 -0.117626 112 109 113
0.199219 0.054688 -0.113584 97 94 97
0.203125 0.054688 -0.109619 81 79 82
0.207031 0.054688 -0.105599 78 76 80
0.210938 0.054688 -0.101603 85 83 86
0.214844 0.054688 -0.097599 93 92 95
0.218750 0.054688 -0.093573 104 103 106
0.222656 0.054688 -0.089157 116 114 117
0.226562 0.054688 -0.084555 128 126 129
0.230469 0.054688 -0.078776 138 135 139
0.234375 0.054688 -0.073606 147 144 147
0.238281 0.054688 -0.069807 152 149 152
0.242188 0.054688 -0.066298 155 151 155
0.246094 0.054688 -0.069613 162 158 161
0.250000 0.054688 -0.092968 177 173 175
0.253906 0.054688 -0.100268 184 182 183
0.257812 0.054688 -0.105178 177 177 177
0.261719 0.054688 -0.108599 176 176 176
0.265625 0.054688 -0.110503 168 169 168
0.269531 0.054688 -0.111321 117 120 115
0.273438 0.054688 -0.110430 128 122 94
0.277344 0.054688 -0.109764 183 149 114
0.281250 0.054688 -0.108976 212 163 130
0.285156 0.054688 -0.107528 227 185 148
0.289062 0.054688 -0.105023 234 203 170
0.292969 0.054688 -0.100443 231 211 187
0.296875 0.054688 -0.095523 236 232 217
0.300781 0.054688 -0.093096 178 173 150
-0.207031 0.050781 0.029383 206 153 122
-0.203125 0.050781 0.023369 215 146 106
-0.199219 0.050781 0.021248 234 173 128
-0.195312 0.050781 0.019838 235 173 127
-0.191406 0.050781 0.019314 226 149 101
-0.187500 0.050781 0.019512 234 168 113
-0.183594 0.050781 0.022256 243 194 141
-0.179688 0.050781 0.026619 242 189 138
-0.175781 0.050781 0.033081 240 189 138
-0.171875 0.050781 0.040562 233 176 127
-0.167969 0.050781 0.048554 208 145 111
-0.164062 0.050781 0.024808 238 210 192
-0.140625 0.050781 -0.011288 228 226 228
-0.136719 0.050781 -0.026337 228 227 230
-0.132812 0.050781 -0.036747 236 233 235
-0.128906 0.050781 -0.045252 219 214 215
-0.125000 0.050781 -0.052541 230 227 226
-0.121094 0.050781 -0.060023 229 226 224
-0.117188 0.050781 -0.066728 222 218 217
-0.113281 0.050781 -0.072367 219 211 213
-0.109375 0.050781 -0.077310 181 161 171
-0.105469 0.050781 -0.081766 121 95 105
-0.101562 0.050781 -0.085834 97 74 84
-0.097656 0.050781 -0.089745 93 67 82
-0.093750 0.050781 -0.093473 69 49 67
-0.089844 0.050781 -0.097043 64 53 67
-0.085938 0.050781 -0.100520 109 99 109
-0.082031 0.050781 -0.103829 115 111 115
-0.078125 0.050781 -0.106904 78 77 78
-0.074219 0.050781 -0.109570 35 34 35
-0.070312 0.050781 -0.111923 1 1 1
-0.066406 0.050781 -0.114167 22 21 19
-0.062500 0.050781 -0.116176 34 33 31
-0.058594 0.050781 -0.118141 63 63 61
-0.054688 0.050781 -0.120006 79 79 77
-0.050781 0.050781 -0.121690 63 63 61
-0.046875 0.050781 -0.123372 38 38 36
-0.042969 0.050781 -0.124728 17 17 15
-0.039062 0.050781 -0.125851 9 9 7
-0.035156 0.050781 -0.126904 13 13 11
-0.031250 0.050781 -0.127908 17 17 15
-0.027344 0.050781 -0.128958 31 31 29
-0.023438 0.050781 -0.129944 65 65 63
-0.019531 0.050781 -0.130926 98 98 96
-0.015625 0.050781 -0.131839 97 97 95
-0.011719 0.050781 -0.132589 86 86 84
-0.007812 0.050781 -0.133216 91 91 89
-0.003906 0.050781 -0.133829 66 66 66
0.000000 0.050781 -0.134434 45 45 45
0.003906 0.050781 -0.135101 20 20 20
0.007812 0.050781 -0.135876 6 5 5
0.011719 0.050781 -0.136545 3 2 2
0.015625 0.050781 -0.137203 5 5 5
0.019531 0.050781 -0.137851 12 12 12
0.023438 0.050781 -0.138505 18 18 18
0.027344 0.050781 -0.139116 15 15 15
0.031250 0.050781 -0.139654 12 12 12
0.035156 0.050781 -0.140166 14 14 14
0.039062 0.050781 -0.140618 24 24 24
0.042969 0.050781 -0.140980 39 39 39
0.046875 0.050781 -0.141273 56 56 56
0.050781 0.050781 -0.141535 75 75 75
0.054688 0.050781 -0.141717 88 88 88
0.058594 0.050781 -0.141878 125 125 123
0.062500 0.050781 -0.142071 133 133 131
0.066406 0.050781 -0.142220 139 139 137
0.070312 0.050781 -0.142309 134 134 132
0.074219 0.050781 -0.142506 117 117 115
0.078125 0.050781 -0.142742 99 99 97
0.082031 0.050781 -0.142884 86 86 84
0.085938 0.050781 -0.142997 80 80 78
0.089844 0.050781 -0.143170 51 51 49
0.093750 0.050781 -0.143428 48 48 46
0.097656 0.050781 -0.143793 43 43 41
0.101562 0.050781 -0.144298 37 37 35
0.105469 0.050781 -0.144730 32 32 30
0.109375 0.050781 -0.145094 28 28 26
0.113281 0.050781 -0.145604 25 25 23
0.117188 0.050781 -0.146156 24 24 22
0.121094 0.050781 -0.146609 20 20 18
0.125000 0.050781 -0.146900 20 20 18
0.128906 0.050781 -0.146989 18 18 16
0.132812 0.050781 -0.146866 14 14 12
0.136719 0.050781 -0.146560 12 12 10
0.140625 0.050781 -0.146073 15 15 13
0.144531 0.050781 -0.145512 24 24 22
0.148438 0.050781 -0.144808 31 31 29
0.152344 0.050781 -0.143905 41 41 39
0.156250 0.050781 -0.142784 48 48 46
0.160156 0.050781 -0.141395 65 65 63
0.164062 0.050781 -0.139724 56 56 54
0.167969 0.050781 -0.137795 43 43 41
0.171875 0.050781 -0.135666 56 56 54
0.175781 0.050781 -0.133327 116 115 115
0.179688 0.050781 -0.130780 81 79 81
0.183594 0.050781 -0.128016 99 94 101
0.187500 0.050781 -0.125107 117 112 118
0.191406 0.050781 -0.121644 115 112 115
0.195312 0.050781 -0.117607 106 103 106
0.199219 0.050781 -0.113646 91 89 91
0.203125 0.050781 -0.109761 77 75 77
0.207031 0.050781 -0.105845 74 72 75
0.210938 0.050781 -0.101960 79 77 79
0.214844 0.050781 -0.098078 85 83 86
0.218750 0.050781 -0.094179 93 92 94
0.222656 0.050781 -0.089829 103 102 103
0.226562 0.050781 -0.085278 113 111 113
0.230469 0.050781 -0.079790 123 121 123
0.234375 0.050781 -0.074754 133 131 133
0.238281 0.050781 -0.070826 141 139 141
0.242188 0.050781 -0.067540 148 145 147
0.246094 0.050781 -0.065735 157 154 156
0.250000 0.050781 -0.087782 172 168 170
0.253906 0.050781 -0.097353 180 178 178
0.257812 0.050781 -0.103107 178 178 178
0.261719 0.050781 -0.106789 185 185 185
0.265625 0.050781 -0.109569 191 191 191
0.269531 0.050781 -0.110671 165 166 165
0.273438 0.050781 -0.110056 116 121 95
0.277344 0.050781 -0.109653 163 135 100
0.281250 0.050781 -0.109178 207 160 129
0.285156 0.050781 -0.107852 226 183 147
0.289062 0.050781 -0.105355 233 199 166
0.292969 0.050781 -0.100850 234 212 188
0.296875 0.050781 -0.096406 242 237 222
0.300781 0.050781 -0.092790 179 165 144
-0.207031 0.046875 0.031066 211 157 127
-0.203125 0.046875 0.025410 224 157 116
-0.199219 0.046875 0.023430 241 188 142
-0.195312 0.046875 0.022233 242 189 146
-0.191406 0.046875 0.021851 231 161 116
-0.187500 0.046875 0.022242 235 170 121
-0.183594 0.046875 0.025379 243 196 150
-0.179688 0.046875 0.029942 242 192 149
-0.175781 0.046875 0.037099 241 191 150
-0.171875 0.046875 0.044086 237 187 147
-0.167969 0.046875 0.051720 224 177 146
-0.164062 0.046875 0.033133 191 155 137
-0.140625 0.046875 -0.026700 226 224 227
-0.136719 0.046875 -0.036452 173 168 169
-0.132812 0.046875 -0.044735 220 216 215
-0.128906 0.046875 -0.051329 237 234 232
-0.125000 0.046875 -0.057671 240 238 236
-0.121094 0.046875 -0.064089 243 240 238
-0.117188 0.046875 -0.069880 242 239 237
-0.113281 0.046875 -0.075195 242 239 238
-0.109375 0.046875 -0.079856 240 236 234
-0.105469 0.046875 -0.083943 232 224 222
-0.101562 0.046875 -0.087712 227 215 215
-0.097656 0.046875 -0.091445 225 213 217
-0.093750 0.046875 -0.094917 194 178 198
-0.089844 0.046875 -0.098248 120 104 144
-0.085938 0.046875 -0.101525 115 99 135
-0.082031 0.046875 -0.104669 149 138 161
-0.078125 0.046875 -0.107604 170 166 173
-0.074219 0.046875 -0.110175 131 131 132
-0.070312 0.046875 -0.112445 71 71 71
-0.066406 0.046875 -0.114644 32 32 30
-0.062500 0.046875 -0.116626 8 8 6
-0.058594 0.046875 -0.118515 9 9 7
-0.054688 0.046875 -0.120351 33 33 31
-0.050781 0.046875 -0.122004 49 49 47
-0.046875 0.046875 -0.123580 58 58 56
-0.042969 0.046875 -0.124842 71 71 69
-0.039062 0.046875 -0.125871 79 79 77
-0.035156 0.046875 -0.126875 30 30 28
-0.031250 0.046875 -0.127836 17 17 15
-0.027344 0.046875 -0.128813 4 3 1
-0.023438 0.046875 -0.129729 2 1 22
-0.019531 0.046875 -0.130625 9 9 7
-0.015625 0.046875 -0.131494 20 20 18
-0.011719 0.046875 -0.132206 39 39 37
-0.007812 0.046875 -0.132793 60 60 58
-0.003906 0.046875 -0.133368 81 81 81
0.000000 0.046875 -0.133951 85 85 85
0.003906 0.046875 -0.134584 106 106 106
0.007812 0.046875 -0.135300 133 133 133
0.011719 0.046875 -0.135915 138 138 138
0.015625 0.046875 -0.136557 108 108 108
0.019531 0.046875 -0.137228 67 67 67
0.023438 0.046875 -0.137938 40 40 40
0.027344 0.046875 -0.138614 12 12 12
0.031250 0.046875 -0.139218 13 13 13
0.035156 0.046875 -0.139795 14 14 14
0.039062 0.046875 -0.140310 13 13 13
0.042969 0.046875 -0.140751 11 11 11
0.046875 0.046875 -0.141110 10 10 10
0.050781 0.046875 -0.141418 14 14 14
0.054688 0.046875 -0.141635 18 18 18
0.058594 0.046875 -0.141817 18 18 16
0.062500 0.046875 -0.142027 19 19 17
0.066406 0.046875 -0.142209 20 20 18
0.070312 0.046875 -0.142324 22 22 20
0.074219 0.046875 -0.142544 26 26 24
0.078125 0.046875 -0.142806 35 35 33
0.082031 0.046875 -0.142960 48 48 46
0.085938 0.046875 -0.143066 57 57 55
0.089844 0.046875 -0.143242 86 86 84
0.093750 0.046875 -0.143507 93 93 91
0.097656 0.046875 -0.143883 104 104 102
0.101562 0.046875 -0.144392 118 118 116
0.105469 0.046875 -0.144819 133 133 131
0.109375 0.046875 -0.145182 146 146 144
0.113281 0.046875 -0.145678 156 156 154
0.117188 0.046875 -0.146210 161 161 159
0.121094 0.046875 -0.146644 136 136 134
0.125000 0.046875 -0.146923 111 111 109
0.128906 0.046875 -0.147007 79 79 77
0.132812 0.046875 -0.146889 57 57 55
0.136719 0.046875 -0.146590 48 48 46
0.140625 0.046875 -0.146109 41 41 39
0.144531 0.046875 -0.145548 29 29 27
0.148438 0.046875 -0.144841 19 19 17
0.152344 0.046875 -0.143931 24 24 22
0.156250 0.046875 -0.142792 20 20 18
0.160156 0.046875 -0.141386 29 29 27
0.164062 0.046875 -0.139701 28 28 26
0.167969 0.046875 -0.137756 30 30 28
0.171875 0.046875 -0.135611 51 51 49
0.175781 0.046875 -0.133253 103 103 102
0.179688 0.046875 -0.130699 69 67 68
0.183594 0.046875 -0.127939 91 88 91
0.187500 0.046875 -0.125053 109 105 109
0.191406 0.046875 -0.121644 109 106 108
0.195312 0.046875 -0.117676 101 99 101
0.199219 0.046875 -0.113809 87 85 87
0.203125 0.046875 -0.110011 75 73 74
0.207031 0.046875 -0.106179 71 69 71
0.210938 0.046875 -0.102354 74 73 74
0.214844 0.046875 -0.098560 79 77 79
0.218750 0.046875 -0.094751 85 84 85
0.222656 0.046875 -0.090446 93 92 93
0.226562 0.046875 -0.085946 101 100 101
0.230469 0.046875 -0.080795 109 108 109
0.234375 0.046875 -0.075805 118 117 118
0.238281 0.046875 -0.071851 125 124 125
0.242188 0.046875 -0.068449 130 129 130
0.246094 0.046875 -0.065570 138 136 137
0.250000 0.046875 -0.081740 150 147 149
0.253906 0.046875 -0.094149 161 160 160
0.257812 0.046875 -0.101024 174 173 173
0.261719 0.046875 -0.105130 192 192 192
0.265625 0.046875 -0.108545 206 206 205
0.269531 0.046875 -0.109808 200 200 200
0.273438 0.046875 -0.109508 144 148 138
0.277344 0.046875 -0.109500 132 114 84
0.281250 0.046875 -0.109303 199 156 126
0.285156 0.046875 -0.108221 224 185 147
0.289062 0.046875 -0.105877 232 197 164
0.292969 0.046875 -0.101629 233 208 182
0.296875 0.046875 -0.097276 239 228 210
0.300781 0.046875 -0.092610 210 194 173
0.304688 0.046875 -0.076492 233 208 182
-0.207031 0.042969 0.032631 217 166 134
-0.203125 0.042969 0.027461 225 157 117
-0.199219 0.042969 0.025575 237 173 126
-0.195312 0.042969 0.024397 242 183 140
-0.191406 0.042969 0.024159 242 182 141
-0.187500 0.042969 0.024747 245 192 153
-0.183594 0.042969 0.028197 248 204 170
-0.179688 0.042969 0.033333 247 198 167
-0.175781 0.042969 0.040674 245 194 166
-0.171875 0.042969 0.047384 243 197 172
-0.167969 0.042969 0.055379 242 209 189
-0.164062 0.042969 0.044846 238 214 201
-0.144531 0.042969 -0.024460 215 209 216
