ply
    format ascii 1.0
    element vertex 56648
    property float x
    property float y
    property float z
    property uchar red
    property uchar green
    property uchar blue
    end_header
-0.195312 0.144531 0.024994 235 183 149
-0.191406 0.144531 0.025837 235 184 150
-0.187500 0.144531 0.026828 233 179 146
-0.183594 0.144531 0.025086 226 167 136
-0.179688 0.144531 0.016336 217 155 128
-0.175781 0.144531 0.005694 191 129 108
-0.171875 0.144531 -0.002971 175 126 108
-0.167969 0.144531 -0.004283 168 136 126
-0.164062 0.144531 -0.002824 108 96 97
-0.160156 0.144531 0.021249 19 16 18
0.000000 0.144531 0.115387 237 87 51
0.003906 0.144531 0.119329 239 87 50
0.007812 0.144531 0.121507 240 88 51
0.011719 0.144531 0.122676 240 89 53
0.015625 0.144531 0.123234 242 92 55
0.019531 0.144531 0.123309 246 96 59
0.023438 0.144531 0.122806 250 99 61
0.027344 0.144531 0.122120 251 98 61
0.031250 0.144531 0.121400 252 99 61
0.035156 0.144531 0.120606 251 98 60
0.039062 0.144531 0.119864 251 97 59
0.042969 0.144531 0.118950 250 96 58
0.046875 0.144531 0.117887 250 96 58
0.050781 0.144531 0.116673 249 95 57
0.054688 0.144531 0.115339 249 95 57
0.058594 0.144531 0.113903 248 96 57
0.062500 0.144531 0.112413 248 96 57
0.066406 0.144531 0.110839 247 95 56
0.070312 0.144531 0.109214 247 95 56
0.074219 0.144531 0.107583 247 95 56
0.078125 0.144531 0.105979 247 95 56
0.082031 0.144531 0.104556 248 96 57
0.085938 0.144531 0.103442 248 96 57
0.089844 0.144531 0.102349 245 93 54
0.093750 0.144531 0.101192 246 94 55
0.097656 0.144531 0.100005 246 94 55
0.101562 0.144531 0.098563 246 94 55
0.105469 0.144531 0.097111 247 95 56
0.109375 0.144531 0.095668 247 95 57
0.113281 0.144531 0.094235 247 95 57
0.117188 0.144531 0.092850 247 95 57
0.121094 0.144531 0.091522 251 95 71
0.125000 0.144531 0.090275 247 99 64
0.128906 0.144531 0.088752 244 102 53
0.132812 0.144531 0.086888 246 103 46
0.136719 0.144531 0.084815 254 98 48
0.140625 0.144531 0.082442 254 95 55
0.144531 0.144531 0.080075 254 95 64
0.148438 0.144531 0.077740 244 99 69
0.152344 0.144531 0.075192 237 108 68
0.156250 0.144531 0.072413 233 103 51
0.160156 0.144531 0.068511 251 106 49
0.164062 0.144531 0.063087 254 97 42
0.167969 0.144531 0.056772 254 93 48
0.171875 0.144531 0.050239 243 97 63
0.175781 0.144531 0.042630 226 97 79
0.179688 0.144531 0.034478 228 81 77
0.183594 0.144531 0.025715 220 89 99
0.187500 0.144531 0.015021 210 93 107
0.191406 0.144531 -0.009747 182 59 81
0.195312 0.144531 -0.029742 185 89 90
0.199219 0.144531 -0.023855 204 133 119
0.203125 0.144531 -0.020877 220 151 131
0.207031 0.144531 -0.019540 229 163 137
0.210938 0.144531 -0.019843 234 174 147
0.214844 0.144531 -0.020241 236 177 149
0.218750 0.144531 -0.020768 237 180 151
0.222656 0.144531 -0.021980 238 180 152
0.226562 0.144531 -0.024208 236 176 148
0.230469 0.144531 -0.026976 232 172 145
0.234375 0.144531 -0.029686 224 164 137
0.238281 0.144531 -0.034730 211 163 145
-0.214844 0.140625 0.000407 225 200 172
-0.210938 0.140625 0.014504 220 174 141
-0.207031 0.140625 0.020314 228 174 141
-0.203125 0.140625 0.024569 232 178 145
-0.199219 0.140625 0.026336 235 184 150
-0.195312 0.140625 0.027644 235 185 150
-0.191406 0.140625 0.029022 234 183 149
-0.187500 0.140625 0.030548 229 175 143
-0.183594 0.140625 0.029375 217 155 126
-0.179688 0.140625 0.020024 204 140 117
-0.175781 0.140625 0.008125 171 114 96
-0.171875 0.140625 -0.001276 148 107 93
-0.167969 0.140625 -0.002876 148 125 115
0.000000 0.140625 0.112281 218 82 48
0.003906 0.140625 0.117147 234 86 49
0.007812 0.140625 0.120002 235 84 48
0.011719 0.140625 0.121798 233 82 46
0.015625 0.140625 0.122729 233 84 48
0.019531 0.140625 0.122935 237 88 51
0.023438 0.140625 0.122343 241 91 54
0.027344 0.140625 0.121568 249 97 60
0.031250 0.140625 0.120811 250 98 60
0.035156 0.140625 0.120029 250 97 59
0.039062 0.140625 0.119374 249 96 58
0.042969 0.140625 0.118565 248 95 57
0.046875 0.140625 0.117608 248 95 57
0.050781 0.140625 0.116505 248 94 56
0.054688 0.140625 0.115280 248 94 56
0.058594 0.140625 0.113954 248 96 57
0.062500 0.140625 0.112558 248 96 57
0.066406 0.140625 0.111068 248 96 57
0.070312 0.140625 0.109513 248 96 57
0.074219 0.140625 0.107944 248 96 57
0.078125 0.140625 0.106393 248 96 57
0.082031 0.140625 0.105021 248 96 57
0.085938 0.140625 0.103962 248 96 57
0.089844 0.140625 0.102907 246 94 55
0.093750 0.140625 0.101781 246 94 55
0.097656 0.140625 0.100604 246 94 55
0.101562 0.140625 0.099154 247 95 56
0.105469 0.140625 0.097677 247 95 56
0.109375 0.140625 0.096205 247 95 56
0.113281 0.140625 0.094754 248 96 58
0.117188 0.140625 0.093359 248 96 58
0.121094 0.140625 0.092040 251 96 69
0.125000 0.140625 0.090813 247 99 62
0.128906 0.140625 0.089307 244 102 53
0.132812 0.140625 0.087453 247 102 46
0.136719 0.140625 0.085374 254 98 48
0.140625 0.140625 0.082992 254 94 55
0.144531 0.140625 0.080612 254 95 64
0.148438 0.140625 0.078284 244 99 69
0.152344 0.140625 0.075769 236 109 68
0.156250 0.140625 0.073079 231 105 54
0.160156 0.140625 0.069274 250 107 49
0.164062 0.140625 0.063906 254 97 40
0.167969 0.140625 0.057780 254 93 46
0.171875 0.140625 0.051626 246 97 62
0.175781 0.140625 0.044385 227 96 77
0.179688 0.140625 0.036637 228 79 75
0.183594 0.140625 0.028190 220 86 95
0.187500 0.140625 0.017806 207 90 102
0.191406 0.140625 0.000281 182 59 79
0.195312 0.140625 -0.027543 183 84 86
0.199219 0.140625 -0.022335 203 128 115
0.203125 0.140625 -0.019618 219 147 127
0.207031 0.140625 -0.018463 228 160 135
0.210938 0.140625 -0.018921 233 173 146
0.214844 0.140625 -0.019495 235 176 147
0.218750 0.140625 -0.020161 237 179 150
0.222656 0.140625 -0.021340 237 179 152
0.226562 0.140625 -0.023388 237 176 149
0.230469 0.140625 -0.026086 233 173 146
0.234375 0.140625 -0.028749 225 165 137
0.238281 0.140625 -0.033365 212 164 146
-0.218750 0.136719 -0.013649 122 94 112
-0.214844 0.136719 0.005181 228 200 170
-0.210938 0.136719 0.017856 222 173 141
-0.207031 0.136719 0.023466 230 175 143
-0.203125 0.136719 0.027162 234 180 148
-0.199219 0.136719 0.028735 236 186 152
-0.195312 0.136719 0.030416 235 185 150
-0.191406 0.136719 0.032397 231 179 145
-0.187500 0.136719 0.034193 223 168 138
-0.183594 0.136719 0.032576 203 142 118
-0.179688 0.136719 0.022613 190 131 111
-0.175781 0.136719 0.010032 158 111 100
-0.171875 0.136719 0.001877 128 97 95
-0.167969 0.136719 0.000753 102 86 84
0.000000 0.136719 0.108834 170 73 41
0.003906 0.136719 0.114195 232 87 51
0.007812 0.136719 0.117979 235 86 49
0.011719 0.136719 0.120713 231 82 46
0.015625 0.136719 0.122212 229 82 47
0.019531 0.136719 0.122594 232 85 49
0.023438 0.136719 0.121903 237 88 51
0.027344 0.136719 0.121047 246 94 57
0.031250 0.136719 0.120265 247 95 58
0.035156 0.136719 0.119505 247 94 57
0.039062 0.136719 0.118936 247 95 57
0.042969 0.136719 0.118218 247 94 56
0.046875 0.136719 0.117365 246 93 55
0.050781 0.136719 0.116367 245 92 54
0.054688 0.136719 0.115246 245 92 54
0.058594 0.136719 0.114021 248 96 57
0.062500 0.136719 0.112712 248 96 57
0.066406 0.136719 0.111303 248 96 57
0.070312 0.136719 0.109825 248 96 57
0.074219 0.136719 0.108327 248 96 57
0.078125 0.136719 0.106835 248 96 57
0.082031 0.136719 0.105515 248 96 57
0.085938 0.136719 0.104509 248 96 57
0.089844 0.136719 0.103493 246 94 55
0.093750 0.136719 0.102395 246 94 55
0.097656 0.136719 0.101220 247 95 56
0.101562 0.136719 0.099752 247 95 56
0.105469 0.136719 0.098251 247 95 56
0.109375 0.136719 0.096747 248 96 57
0.113281 0.136719 0.095280 248 96 57
0.117188 0.136719 0.093884 248 96 58
0.121094 0.136719 0.092579 250 96 69
0.125000 0.136719 0.091377 247 99 62
0.128906 0.136719 0.089903 244 102 53
0.132812 0.136719 0.088065 248 102 46
0.136719 0.136719 0.085982 254 98 48
0.140625 0.136719 0.083596 254 93 55
0.144531 0.136719 0.081196 254 93 66
0.148438 0.136719 0.078886 244 99 69
0.152344 0.136719 0.076427 236 109 68
0.156250 0.136719 0.073829 231 107 55
0.160156 0.136719 0.070131 249 109 48
0.164062 0.136719 0.064896 254 97 40
0.167969 0.136719 0.058943 254 94 47
0.171875 0.136719 0.053022 250 97 61
0.175781 0.136719 0.046192 228 98 77
0.179688 0.136719 0.038921 227 85 78
0.183594 0.136719 0.030715 219 89 97
0.187500 0.136719 0.020897 203 88 98
0.191406 0.136719 0.008811 179 61 79
0.195312 0.136719 -0.020760 179 70 78
0.199219 0.136719 -0.021344 201 116 107
0.203125 0.136719 -0.018609 217 142 122
0.207031 0.136719 -0.017548 226 158 133
0.210938 0.136719 -0.018044 232 171 144
0.214844 0.136719 -0.018756 234 174 144
0.218750 0.136719 -0.019539 236 177 148
0.222656 0.136719 -0.020710 237 179 151
0.226562 0.136719 -0.022669 236 176 149
0.230469 0.136719 -0.025208 233 173 146
0.234375 0.136719 -0.027823 225 165 137
0.238281 0.136719 -0.032399 213 166 147
-0.218750 0.132812 -0.007983 140 96 106
-0.214844 0.132812 0.010562 224 186 158
-0.210938 0.132812 0.021325 224 173 141
-0.207031 0.132812 0.026577 232 178 146
-0.203125 0.132812 0.029677 235 182 149
-0.199219 0.132812 0.031135 236 186 152
-0.195312 0.132812 0.033336 234 183 149
-0.191406 0.132812 0.036076 226 173 142
-0.187500 0.132812 0.038376 215 159 132
-0.183594 0.132812 0.036882 187 130 110
-0.179688 0.132812 0.026351 172 120 105
-0.175781 0.132812 0.012807 142 104 100
-0.171875 0.132812 0.006412 86 66 76
0.003906 0.132812 0.110816 221 85 51
0.007812 0.132812 0.115835 234 88 52
0.011719 0.132812 0.119510 232 86 51
0.015625 0.132812 0.121650 229 84 50
0.019531 0.132812 0.122300 232 87 52
0.023438 0.132812 0.121516 239 92 56
0.027344 0.132812 0.120566 243 93 56
0.031250 0.132812 0.119761 245 94 56
0.035156 0.132812 0.119024 245 93 56
0.039062 0.132812 0.118540 245 93 56
0.042969 0.132812 0.117914 245 92 55
0.046875 0.132812 0.117163 244 92 54
0.050781 0.132812 0.116265 243 91 53
0.054688 0.132812 0.115238 244 91 53
0.058594 0.132812 0.114102 246 95 56
0.062500 0.132812 0.112868 246 95 56
0.066406 0.132812 0.111535 248 96 57
0.070312 0.132812 0.110132 248 96 57
0.074219 0.132812 0.108707 248 96 57
0.078125 0.132812 0.107284 248 96 57
0.082031 0.132812 0.106025 247 95 56
0.085938 0.132812 0.105078 247 95 56
0.089844 0.132812 0.104109 247 95 56
0.093750 0.132812 0.103044 247 95 56
0.097656 0.132812 0.101880 247 95 56
0.101562 0.132812 0.100407 247 95 56
0.105469 0.132812 0.098889 248 96 57
0.109375 0.132812 0.097364 248 96 57
0.113281 0.132812 0.095888 248 96 57
0.117188 0.132812 0.094504 249 97 59
0.121094 0.132812 0.093231 250 96 69
0.125000 0.132812 0.092068 246 100 62
0.128906 0.132812 0.090629 244 102 53
0.132812 0.132812 0.088796 248 102 46
0.136719 0.132812 0.086711 254 97 48
0.140625 0.132812 0.084337 254 93 57
0.144531 0.132812 0.081948 254 93 66
0.148438 0.132812 0.079683 244 99 68
0.152344 0.132812 0.077276 234 108 67
0.156250 0.132812 0.074732 231 107 55
0.160156 0.132812 0.071123 248 110 48
0.164062 0.132812 0.066032 254 97 39
0.167969 0.132812 0.060281 254 95 46
0.171875 0.132812 0.054534 252 98 62
0.175781 0.132812 0.048087 228 99 75
0.179688 0.132812 0.041207 229 96 85
0.183594 0.132812 0.033403 220 99 106
0.187500 0.132812 0.024168 202 91 99
0.191406 0.132812 0.014405 179 71 85
0.195312 0.132812 -0.011816 174 58 70
0.199219 0.132812 -0.020916 195 96 95
0.203125 0.132812 -0.018075 214 134 118
0.207031 0.132812 -0.017148 225 158 134
0.210938 0.132812 -0.017467 231 172 145
0.214844 0.132812 -0.018142 233 174 144
0.218750 0.132812 -0.018991 235 176 147
0.222656 0.132812 -0.020151 237 179 151
0.226562 0.132812 -0.022088 236 177 149
0.230469 0.132812 -0.024561 233 174 147
0.234375 0.132812 -0.027124 225 165 137
0.238281 0.132812 -0.031628 214 167 147
-0.218750 0.128906 -0.000559 196 159 143
-0.214844 0.128906 0.016481 231 196 165
-0.210938 0.128906 0.025284 228 178 146
-0.207031 0.128906 0.029645 234 181 147
-0.203125 0.128906 0.032069 235 184 150
-0.199219 0.128906 0.033673 235 185 151
-0.195312 0.128906 0.036451 231 179 146
-0.191406 0.128906 0.040083 219 164 135
-0.187500 0.128906 0.043356 201 146 122
-0.183594 0.128906 0.042021 162 112 98
-0.179688 0.128906 0.031459 145 102 95
-0.175781 0.128906 0.016409 132 106 103
-0.171875 0.128906 0.012437 51 43 46
0.003906 0.128906 0.107448 194 75 46
0.007812 0.128906 0.113633 221 84 51
0.011719 0.128906 0.118218 217 81 49
0.015625 0.128906 0.121022 214 79 48
0.019531 0.128906 0.121972 222 83 51
0.023438 0.128906 0.121121 233 89 55
0.027344 0.128906 0.120083 241 92 56
0.031250 0.128906 0.119281 245 94 57
0.035156 0.128906 0.118597 244 93 56
0.039062 0.128906 0.118212 244 93 55
0.042969 0.128906 0.117698 243 92 54
0.046875 0.128906 0.117062 244 92 55
0.050781 0.128906 0.116269 243 91 54
0.054688 0.128906 0.115338 243 91 54
0.058594 0.128906 0.114281 243 92 54
0.062500 0.128906 0.113107 244 94 55
0.066406 0.128906 0.111834 246 95 56
0.070312 0.128906 0.110491 247 96 57
0.074219 0.128906 0.109119 247 96 57
0.078125 0.128906 0.107753 247 95 56
0.082031 0.128906 0.106561 246 94 55
0.085938 0.128906 0.105682 245 93 54
0.089844 0.128906 0.104780 247 95 56
0.093750 0.128906 0.103780 247 95 56
0.097656 0.128906 0.102670 247 95 56
0.101562 0.128906 0.101237 248 96 57
0.105469 0.128906 0.099750 248 96 57
0.109375 0.128906 0.098252 248 96 57
0.113281 0.128906 0.096804 249 97 58
0.117188 0.128906 0.095467 249 97 58
0.121094 0.128906 0.094250 248 97 68
0.125000 0.128906 0.093139 246 100 62
0.128906 0.128906 0.091733 244 102 53
0.132812 0.128906 0.089889 248 102 46
0.136719 0.128906 0.087788 254 97 48
0.140625 0.128906 0.085426 254 92 57
0.144531 0.128906 0.083057 254 93 65
0.148438 0.128906 0.080855 244 99 70
0.152344 0.128906 0.078525 233 107 67
0.156250 0.128906 0.076012 228 107 54
0.160156 0.128906 0.072477 247 109 47
0.164062 0.128906 0.067487 254 97 37
0.167969 0.128906 0.061861 254 96 47
0.171875 0.128906 0.056221 254 100 62
0.175781 0.128906 0.050134 230 99 74
0.179688 0.128906 0.043613 230 104 89
0.183594 0.128906 0.036015 225 111 117
0.187500 0.128906 0.027447 207 98 104
0.191406 0.128906 0.017878 190 87 97
0.195312 0.128906 -0.002202 182 62 77
0.199219 0.128906 -0.020210 191 79 86
0.203125 0.128906 -0.018055 209 125 111
0.207031 0.128906 -0.017104 222 156 133
0.210938 0.128906 -0.017071 230 171 145
0.214844 0.128906 -0.017574 232 174 143
0.218750 0.128906 -0.018467 235 176 147
0.222656 0.128906 -0.019643 236 179 151
0.226562 0.128906 -0.021554 236 177 150
0.230469 0.128906 -0.023981 233 174 147
0.234375 0.128906 -0.026515 225 165 137
0.238281 0.128906 -0.031059 214 168 148
-0.218750 0.125000 0.005552 194 150 131
-0.214844 0.125000 0.021837 229 188 156
-0.210938 0.125000 0.028840 229 178 145
-0.207031 0.125000 0.032394 234 181 148
-0.203125 0.125000 0.034163 235 183 150
-0.199219 0.125000 0.035712 233 181 149
-0.195312 0.125000 0.039000 226 172 141
-0.191406 0.125000 0.043834 211 154 128
-0.187500 0.125000 0.048106 190 137 116
-0.183594 0.125000 0.047206 149 108 95
-0.179688 0.125000 0.037439 143 112 103
-0.175781 0.125000 0.023450 156 143 130
0.003906 0.125000 0.104702 220 85 51
0.007812 0.125000 0.111431 231 88 53
0.011719 0.125000 0.116971 224 83 50
0.015625 0.125000 0.120413 217 78 47
0.019531 0.125000 0.121637 223 80 47
0.023438 0.125000 0.120747 231 85 50
0.027344 0.125000 0.119664 242 93 57
0.031250 0.125000 0.118879 246 95 58
0.035156 0.125000 0.118255 245 94 57
0.039062 0.125000 0.117967 244 93 56
0.042969 0.125000 0.117560 245 93 56
0.046875 0.125000 0.117036 244 93 55
0.050781 0.125000 0.116334 243 92 54
0.054688 0.125000 0.115486 243 92 54
0.058594 0.125000 0.114504 240 91 52
0.062500 0.125000 0.113386 241 92 54
0.066406 0.125000 0.112167 244 94 56
0.070312 0.125000 0.110878 244 94 56
0.074219 0.125000 0.109559 245 95 56
0.078125 0.125000 0.108250 246 95 56
0.082031 0.125000 0.107116 244 93 54
0.085938 0.125000 0.106300 244 92 53
0.089844 0.125000 0.105465 247 95 56
0.093750 0.125000 0.104536 247 95 56
0.097656 0.125000 0.103491 247 95 56
0.101562 0.125000 0.102114 248 96 57
0.105469 0.125000 0.100677 248 96 57
0.109375 0.125000 0.099219 249 97 58
0.113281 0.125000 0.097819 249 97 58
0.117188 0.125000 0.096545 249 97 58
0.121094 0.125000 0.095397 248 97 68
0.125000 0.125000 0.094346 246 100 61
0.128906 0.125000 0.092974 244 102 53
0.132812 0.125000 0.091124 250 101 46
0.136719 0.125000 0.089019 254 96 48
0.140625 0.125000 0.086698 254 92 56
0.144531 0.125000 0.084375 254 93 65
0.148438 0.125000 0.082245 244 99 70
0.152344 0.125000 0.079980 232 106 66
0.156250 0.125000 0.077462 228 107 54
0.160156 0.125000 0.073984 247 109 47
0.164062 0.125000 0.069113 254 97 37
0.167969 0.125000 0.063618 254 97 48
0.171875 0.125000 0.058032 254 100 63
0.175781 0.125000 0.052195 229 99 73
0.179688 0.125000 0.045985 230 107 91
0.183594 0.125000 0.038643 227 121 126
0.187500 0.125000 0.030623 211 103 109
0.191406 0.125000 0.020926 200 99 108
0.195312 0.125000 0.005996 194 78 93
0.199219 0.125000 -0.017996 191 74 86
0.203125 0.125000 -0.018515 203 117 106
0.207031 0.125000 -0.017386 218 150 130
0.210938 0.125000 -0.016941 228 168 144
0.214844 0.125000 -0.017057 231 172 142
0.218750 0.125000 -0.017856 234 175 146
0.222656 0.125000 -0.019064 236 179 150
0.226562 0.125000 -0.021013 237 178 151
0.230469 0.125000 -0.023454 233 175 148
0.234375 0.125000 -0.025991 226 166 137
0.238281 0.125000 -0.030628 215 169 148
-0.222656 0.121094 -0.010372 167 131 123
-0.218750 0.121094 0.011373 199 148 130
-0.214844 0.121094 0.026733 227 178 148
-0.210938 0.121094 0.032548 230 177 144
-0.207031 0.121094 0.035012 234 181 148
-0.203125 0.121094 0.035850 233 180 149
-0.199219 0.121094 0.037092 229 175 145
-0.195312 0.121094 0.040739 220 163 136
-0.191406 0.121094 0.047014 201 142 119
-0.187500 0.121094 0.052403 181 133 112
-0.183594 0.121094 0.052526 146 115 101
-0.179688 0.121094 0.043700 134 117 110
0.003906 0.121094 0.102767 222 83 51
0.007812 0.121094 0.109286 242 90 53
0.011719 0.121094 0.115860 237 87 50
0.015625 0.121094 0.119840 231 78 44
0.019531 0.121094 0.121323 236 77 40
0.023438 0.121094 0.120440 240 78 39
0.027344 0.121094 0.119316 249 92 49
0.031250 0.121094 0.118526 251 94 49
0.035156 0.121094 0.117955 251 93 47
0.039062 0.121094 0.117762 250 89 44
0.042969 0.121094 0.117456 248 86 41
0.046875 0.121094 0.117043 248 86 39
0.050781 0.121094 0.116434 249 91 44
0.054688 0.121094 0.115671 249 96 49
0.058594 0.121094 0.114766 249 87 58
0.062500 0.121094 0.113718 249 85 55
0.066406 0.121094 0.112565 249 82 51
0.070312 0.121094 0.111334 250 83 52
0.074219 0.121094 0.110071 251 87 59
0.078125 0.121094 0.108812 251 89 60
0.082031 0.121094 0.107728 252 88 61
0.085938 0.121094 0.106955 253 86 58
0.089844 0.121094 0.106167 253 85 59
0.093750 0.121094 0.105292 254 85 60
0.097656 0.121094 0.104296 254 86 61
0.101562 0.121094 0.102969 254 87 64
0.105469 0.121094 0.101577 254 88 65
0.109375 0.121094 0.100159 254 89 68
0.113281 0.121094 0.098813 254 89 68
0.117188 0.121094 0.097624 254 89 68
0.121094 0.121094 0.096553 244 101 69
0.125000 0.121094 0.095559 245 101 67
0.128906 0.121094 0.094219 245 101 66
0.132812 0.121094 0.092356 245 101 64
0.136719 0.121094 0.090253 247 101 62
0.140625 0.121094 0.087987 247 101 60
0.144531 0.121094 0.085746 247 102 58
0.148438 0.121094 0.083700 247 102 57
0.152344 0.121094 0.081484 247 105 59
0.156250 0.121094 0.078970 242 101 55
0.160156 0.121094 0.075580 242 104 57
0.164062 0.121094 0.070833 248 112 64
0.167969 0.121094 0.065410 244 109 62
0.171875 0.121094 0.059905 235 103 55
0.175781 0.121094 0.054266 239 107 62
0.179688 0.121094 0.048315 245 105 66
0.183594 0.121094 0.041268 225 130 120
0.187500 0.121094 0.033426 218 118 112
0.191406 0.121094 0.023675 206 111 111
0.195312 0.121094 0.011556 201 98 108
0.199219 0.121094 -0.013593 191 72 90
0.203125 0.121094 -0.019692 199 111 103
0.207031 0.121094 -0.018137 215 147 128
0.210938 0.121094 -0.017240 226 165 141
0.214844 0.121094 -0.016823 231 171 141
0.218750 0.121094 -0.017380 234 175 146
0.222656 0.121094 -0.018616 236 179 150
0.226562 0.121094 -0.020582 237 179 151
0.230469 0.121094 -0.023077 234 176 148
0.234375 0.121094 -0.025667 226 166 137
0.238281 0.121094 -0.030314 215 169 148
-0.222656 0.117188 -0.003977 222 203 181
-0.218750 0.117188 0.018794 211 163 138
-0.214844 0.117188 0.030955 226 172 143
-0.210938 0.117188 0.036004 230 176 144
-0.207031 0.117188 0.036770 233 180 149
-0.203125 0.117188 0.035811 231 178 147
-0.199219 0.117188 0.036447 223 167 138
-0.195312 0.117188 0.040298 212 154 129
-0.191406 0.117188 0.048772 187 128 108
-0.187500 0.117188 0.055347 174 128 111
-0.183594 0.117188 0.056224 151 127 117
-0.179688 0.117188 0.048278 92 85 87
0.003906 0.117188 0.101117 157 68 44
0.007812 0.117188 0.107106 223 93 59
0.011719 0.117188 0.114759 221 90 57
0.015625 0.117188 0.119304 218 83 53
0.019531 0.117188 0.121009 231 87 55
0.023438 0.117188 0.120159 243 97 60
0.027344 0.117188 0.119013 235 84 44
0.031250 0.117188 0.118197 244 89 49
0.035156 0.117188 0.117668 251 95 54
0.039062 0.117188 0.117561 250 99 58
0.042969 0.117188 0.117351 250 96 54
0.046875 0.117188 0.117046 250 89 45
0.050781 0.117188 0.116535 246 82 39
0.054688 0.117188 0.115865 242 78 35
0.058594 0.117188 0.115038 238 94 52
0.062500 0.117188 0.114062 239 95 53
0.066406 0.117188 0.112972 242 96 55
0.070312 0.117188 0.111788 247 100 61
0.074219 0.117188 0.110569 250 101 63
0.078125 0.117188 0.109337 251 99 61
0.082031 0.117188 0.108271 248 93 59
0.085938 0.117188 0.107498 246 89 55
0.089844 0.117188 0.106702 248 89 57
0.093750 0.117188 0.105825 250 88 57
0.097656 0.117188 0.104828 251 87 57
0.101562 0.117188 0.103506 253 85 58
0.105469 0.117188 0.102124 253 83 57
0.109375 0.117188 0.100724 253 83 57
0.113281 0.117188 0.099426 254 86 60
0.117188 0.117188 0.098338 254 86 62
0.121094 0.117188 0.097368 254 90 60
0.125000 0.117188 0.096465 254 91 61
0.128906 0.117188 0.095203 254 92 60
0.132812 0.117188 0.093386 254 94 59
0.136719 0.117188 0.091344 254 96 58
0.140625 0.117188 0.089164 254 98 58
0.144531 0.117188 0.086995 254 100 59
0.148438 0.117188 0.085008 254 102 58
0.152344 0.117188 0.082813 251 103 57
0.156250 0.117188 0.080287 245 100 55
0.160156 0.117188 0.076977 242 104 57
0.164062 0.117188 0.072376 246 111 64
0.167969 0.117188 0.067081 238 110 63
0.171875 0.117188 0.061649 230 105 57
0.175781 0.117188 0.056060 233 110 64
0.179688 0.117188 0.050155 241 110 69
0.183594 0.117188 0.043349 227 143 131
0.187500 0.117188 0.035615 226 134 126
0.191406 0.117188 0.026230 216 130 127
0.195312 0.117188 0.014844 209 121 128
0.199219 0.117188 -0.008637 189 76 94
0.203125 0.117188 -0.020965 193 103 98
0.207031 0.117188 -0.019032 211 146 125
0.210938 0.117188 -0.017800 223 162 137
0.214844 0.117188 -0.016986 229 169 139
0.218750 0.117188 -0.017152 233 175 146
0.222656 0.117188 -0.018377 236 179 150
0.226562 0.117188 -0.020326 237 180 152
0.230469 0.117188 -0.022822 234 176 148
0.234375 0.117188 -0.025446 226 165 136
0.238281 0.117188 -0.030108 215 170 148
-0.222656 0.113281 0.004869 217 186 163
-0.218750 0.113281 0.026739 212 160 132
-0.214844 0.113281 0.034939 227 172 140
-0.210938 0.113281 0.039109 231 177 145
-0.207031 0.113281 0.037307 232 180 149
-0.203125 0.113281 0.034596 227 173 143
-0.199219 0.113281 0.034180 213 154 126
-0.195312 0.113281 0.037509 201 141 116
-0.191406 0.113281 0.049300 167 108 93
-0.187500 0.113281 0.057156 165 119 111
-0.183594 0.113281 0.057731 155 131 127
0.003906 0.113281 0.099556 102 63 48
0.007812 0.113281 0.105166 194 109 81
0.011719 0.113281 0.113655 191 97 69
0.015625 0.113281 0.118749 187 76 54
0.019531 0.113281 0.120626 204 76 52
0.023438 0.113281 0.119816 216 86 58
0.027344 0.113281 0.118636 240 110 76
0.031250 0.113281 0.117759 242 104 69
0.035156 0.113281 0.117249 237 93 59
0.039062 0.113281 0.117202 237 86 50
0.042969 0.113281 0.117070 240 84 48
0.046875 0.113281 0.116852 247 87 50
0.050781 0.113281 0.116425 249 90 54
0.054688 0.113281 0.115844 249 93 56
0.058594 0.113281 0.115090 220 95 47
0.062500 0.113281 0.114181 219 95 47
0.066406 0.113281 0.113143 219 93 46
0.070312 0.113281 0.111988 222 94 47
0.074219 0.113281 0.110784 225 96 49
0.078125 0.113281 0.109546 232 98 53
0.082031 0.113281 0.108465 238 102 57
0.085938 0.113281 0.107652 243 102 59
0.089844 0.113281 0.106812 239 94 52
0.093750 0.113281 0.105900 244 93 55
0.097656 0.113281 0.104871 245 92 55
0.101562 0.113281 0.103537 245 89 52
0.105469 0.113281 0.102144 244 85 49
0.109375 0.113281 0.100732 246 84 49
0.113281 0.113281 0.099454 251 88 53
0.117188 0.113281 0.098447 253 92 57
0.121094 0.113281 0.097566 253 84 50
0.125000 0.113281 0.096740 254 86 51
0.128906 0.113281 0.095561 254 87 50
0.132812 0.113281 0.093810 254 90 52
0.136719 0.113281 0.091856 254 94 53
0.140625 0.113281 0.089783 254 97 55
0.144531 0.113281 0.087704 254 99 56
0.148438 0.113281 0.085773 254 102 57
0.152344 0.113281 0.083600 254 101 57
0.156250 0.113281 0.081070 248 100 54
0.160156 0.113281 0.077847 246 104 58
0.164062 0.113281 0.073385 246 109 65
0.167969 0.113281 0.068213 241 108 65
0.171875 0.113281 0.062870 232 105 62
0.175781 0.113281 0.057280 236 109 69
0.179688 0.113281 0.051403 242 109 73
0.183594 0.113281 0.044701 226 148 135
0.187500 0.113281 0.036870 229 146 137
0.191406 0.113281 0.027864 224 146 142
0.195312 0.113281 0.016826 215 143 146
0.199219 0.113281 -0.004331 187 88 102
0.203125 0.113281 -0.022067 185 95 88
0.207031 0.113281 -0.019740 207 142 118
0.210938 0.113281 -0.018279 221 159 132
0.214844 0.113281 -0.017215 228 167 137
0.218750 0.113281 -0.017025 233 174 145
0.222656 0.113281 -0.018244 236 178 149
0.226562 0.113281 -0.020205 237 180 151
0.230469 0.113281 -0.022682 234 176 148
0.234375 0.113281 -0.025390 226 165 135
0.238281 0.113281 -0.030218 215 170 148
-0.222656 0.109375 0.016042 210 165 140
-0.218750 0.109375 0.033528 216 161 131
-0.214844 0.109375 0.039649 229 176 143
-0.210938 0.109375 0.041952 231 178 145
-0.207031 0.109375 0.037331 230 177 146
-0.203125 0.109375 0.033356 221 167 137
-0.199219 0.109375 0.031566 198 136 111
-0.195312 0.109375 0.034045 184 126 104
-0.191406 0.109375 0.048324 151 104 89
-0.187500 0.109375 0.057236 160 130 122
-0.183594 0.109375 0.057576 131 111 108
0.003906 0.109375 0.098027 73 61 51
0.007812 0.109375 0.103144 187 143 125
0.011719 0.109375 0.112383 167 102 89
0.015625 0.109375 0.118115 158 59 51
0.019531 0.109375 0.120205 178 53 45
0.023438 0.109375 0.119442 190 66 52
0.027344 0.109375 0.118233 196 80 59
0.031250 0.109375 0.117295 206 89 63
0.035156 0.109375 0.116783 218 93 67
0.039062 0.109375 0.116770 231 99 71
0.042969 0.109375 0.116701 242 101 73
0.046875 0.109375 0.116557 246 98 70
0.050781 0.109375 0.116202 241 91 62
0.054688 0.109375 0.115715 238 84 55
0.058594 0.109375 0.115046 238 100 60
0.062500 0.109375 0.114209 237 99 58
0.066406 0.109375 0.113231 234 97 56
0.070312 0.109375 0.112117 232 94 53
0.074219 0.109375 0.110939 229 92 51
0.078125 0.109375 0.109711 228 92 48
0.082031 0.109375 0.108632 231 92 49
0.085938 0.109375 0.107794 232 93 49
0.089844 0.109375 0.106922 234 96 51
0.093750 0.109375 0.105972 237 98 53
0.097656 0.109375 0.104904 241 100 53
0.101562 0.109375 0.103552 239 99 52
0.105469 0.109375 0.102145 236 95 48
0.109375 0.109375 0.100734 235 94 47
0.113281 0.109375 0.099487 238 98 49
0.117188 0.109375 0.098566 242 101 53
0.121094 0.109375 0.097758 242 93 43
0.125000 0.109375 0.096993 243 93 43
0.128906 0.109375 0.095872 246 96 43
0.132812 0.109375 0.094169 248 98 45
0.136719 0.109375 0.092307 253 99 47
0.140625 0.109375 0.090320 254 101 49
0.144531 0.109375 0.088307 254 101 52
0.148438 0.109375 0.086401 254 103 53
0.152344 0.109375 0.084234 254 102 56
0.156250 0.109375 0.081691 252 99 55
0.160156 0.109375 0.078526 252 100 59
0.164062 0.109375 0.074178 253 104 64
0.167969 0.109375 0.069137 251 103 67
0.171875 0.109375 0.063908 247 100 66
0.175781 0.109375 0.058295 248 103 70
0.179688 0.109375 0.052399 251 101 74
0.183594 0.109375 0.045696 221 148 135
0.187500 0.109375 0.037867 230 153 144
0.191406 0.109375 0.028966 227 155 150
0.195312 0.109375 0.018467 220 154 155
0.199219 0.109375 -0.001064 188 96 107
0.203125 0.109375 -0.022900 179 82 76
0.207031 0.109375 -0.020183 203 131 107
0.210938 0.109375 -0.018542 218 152 124
0.214844 0.109375 -0.017259 226 163 134
0.218750 0.109375 -0.016832 232 173 144
0.222656 0.109375 -0.018072 236 178 148
0.226562 0.109375 -0.020065 237 180 151
0.230469 0.109375 -0.022523 234 176 147
0.234375 0.109375 -0.025348 225 164 133
0.238281 0.109375 -0.030127 216 171 148
-0.226562 0.105469 -0.000710 185 143 131
-0.222656 0.105469 0.025628 221 177 144
-0.218750 0.105469 0.038649 222 167 135
-0.214844 0.105469 0.043843 230 176 142
-0.210938 0.105469 0.043954 229 175 142
-0.207031 0.105469 0.037087 225 170 140
-0.203125 0.105469 0.031794 212 155 125
-0.199219 0.105469 0.028854 173 113 93
-0.195312 0.105469 0.030713 155 104 90
-0.191406 0.105469 0.046197 136 105 97
-0.187500 0.105469 0.055200 137 130 122
0.003906 0.105469 0.096480 50 40 35
0.007812 0.105469 0.100963 145 108 103
0.011719 0.105469 0.110883 138 76 74
0.015625 0.105469 0.117269 140 42 43
0.019531 0.105469 0.119582 167 41 42
0.023438 0.105469 0.118905 183 60 57
0.027344 0.105469 0.117692 199 79 71
0.031250 0.105469 0.116698 208 95 83
0.035156 0.105469 0.116182 207 94 78
0.039062 0.105469 0.116209 206 89 72
0.042969 0.105469 0.116227 206 85 66
0.046875 0.105469 0.116179 209 87 65
0.050781 0.105469 0.115918 213 87 65
0.054688 0.105469 0.115531 214 86 63
0.058594 0.105469 0.114939 235 74 51
0.062500 0.105469 0.114158 238 79 55
0.066406 0.105469 0.113210 245 87 61
0.070312 0.105469 0.112111 246 94 66
0.074219 0.105469 0.110942 247 98 68
0.078125 0.105469 0.109722 247 99 67
0.082031 0.105469 0.108646 244 96 61
0.085938 0.105469 0.107782 241 95 58
0.089844 0.105469 0.106890 233 92 50
0.093750 0.105469 0.105915 236 96 53
0.097656 0.105469 0.104821 238 102 54
0.101562 0.105469 0.103478 237 103 54
0.105469 0.105469 0.102075 234 103 51
0.109375 0.105469 0.100676 232 103 48
0.113281 0.105469 0.099463 230 104 48
0.117188 0.105469 0.098610 231 106 50
0.121094 0.105469 0.097876 219 108 39
0.125000 0.105469 0.097202 220 107 40
0.128906 0.105469 0.096173 223 109 41
0.132812 0.105469 0.094534 226 108 41
0.136719 0.105469 0.092772 232 107 42
0.140625 0.105469 0.090887 238 107 45
0.144531 0.105469 0.088928 241 106 48
0.148438 0.105469 0.087028 246 103 50
0.152344 0.105469 0.084848 251 105 54
0.156250 0.105469 0.082278 253 100 56
0.160156 0.105469 0.079121 254 99 58
0.164062 0.105469 0.074861 254 99 63
0.167969 0.105469 0.069950 254 97 66
0.171875 0.105469 0.064803 253 95 68
0.175781 0.105469 0.059189 253 96 72
0.179688 0.105469 0.053289 250 92 71
0.183594 0.105469 0.046491 217 146 133
0.187500 0.105469 0.038980 228 155 146
0.191406 0.105469 0.030086 226 158 153
0.195312 0.105469 0.020313 219 157 157
0.199219 0.105469 0.001120 188 101 109
0.203125 0.105469 -0.023454 175 66 67
0.207031 0.105469 -0.020458 196 111 93
0.210938 0.105469 -0.018673 212 142 114
0.214844 0.105469 -0.017100 224 160 131
0.218750 0.105469 -0.016470 231 173 144
0.222656 0.105469 -0.017711 235 178 146
0.226562 0.105469 -0.019719 236 180 149
0.230469 0.105469 -0.022185 233 175 145
0.234375 0.105469 -0.025131 225 163 131
0.238281 0.105469 -0.029828 216 171 147
-0.226562 0.101562 0.008012 198 153 132
-0.222656 0.101562 0.033200 223 176 140
-0.218750 0.101562 0.043453 224 168 135
-0.214844 0.101562 0.047574 229 174 141
-0.210938 0.101562 0.045827 226 169 137
-0.207031 0.101562 0.037230 217 158 129
-0.203125 0.101562 0.030799 199 141 113
-0.199219 0.101562 0.027597 155 103 84
-0.195312 0.101562 0.029222 141 103 91
-0.191406 0.101562 0.044118 122 105 105
-0.187500 0.101562 0.052253 48 42 46
0.003906 0.101562 0.094915 30 22 20
0.007812 0.101562 0.098485 116 67 68
0.011719 0.101562 0.108952 128 52 54
0.015625 0.101562 0.116169 135 30 34
0.019531 0.101562 0.118872 162 30 33
0.023438 0.101562 0.118407 172 38 40
0.027344 0.101562 0.117267 182 53 54
0.031250 0.101562 0.116276 189 68 67
0.035156 0.101562 0.115806 194 78 74
0.039062 0.101562 0.115917 200 83 78
0.042969 0.101562 0.116046 205 89 82
0.046875 0.101562 0.116115 207 91 81
0.050781 0.101562 0.115970 196 84 72
0.054688 0.101562 0.115681 185 76 63
0.058594 0.101562 0.115168 214 67 58
0.062500 0.101562 0.114454 219 71 60
0.066406 0.101562 0.113545 221 73 60
0.070312 0.101562 0.112466 223 75 59
0.074219 0.101562 0.111307 226 80 61
0.078125 0.101562 0.110088 229 84 62
0.082031 0.101562 0.108995 230 85 62
0.085938 0.101562 0.108071 228 87 58
0.089844 0.101562 0.107136 229 87 57
0.093750 0.101562 0.106153 230 89 56
0.097656 0.101562 0.105075 234 93 55
0.101562 0.101562 0.103799 235 94 54
0.105469 0.101562 0.102468 235 97 54
0.109375 0.101562 0.101144 234 96 53
0.113281 0.101562 0.099998 232 95 51
0.117188 0.101562 0.099202 231 94 49
0.121094 0.101562 0.098515 211 109 45
0.125000 0.101562 0.097903 213 109 45
0.128906 0.101562 0.096925 217 110 44
0.132812 0.101562 0.095303 221 111 44
0.136719 0.101562 0.093589 226 110 44
0.140625 0.101562 0.091759 231 107 44
0.144531 0.101562 0.089843 235 106 46
0.148438 0.101562 0.087930 239 103 48
0.152344 0.101562 0.085709 248 108 55
0.156250 0.101562 0.083096 249 104 55
0.160156 0.101562 0.079941 251 101 58
0.164062 0.101562 0.075762 253 99 61
0.167969 0.101562 0.070984 253 99 64
0.171875 0.101562 0.065922 253 99 69
0.175781 0.101562 0.060324 252 98 71
0.179688 0.101562 0.054504 248 92 67
0.183594 0.101562 0.047642 210 143 130
0.187500 0.101562 0.040168 227 157 148
0.191406 0.101562 0.031481 225 163 158
0.195312 0.101562 0.022152 220 165 164
0.199219 0.101562 0.004676 193 117 124
0.203125 0.101562 -0.023362 175 57 65
0.207031 0.101562 -0.020500 191 89 80
0.210938 0.101562 -0.018567 207 130 104
0.214844 0.101562 -0.016653 221 156 128
0.218750 0.101562 -0.015700 230 171 142
0.222656 0.101562 -0.016902 234 177 144
0.226562 0.101562 -0.018952 236 180 148
0.230469 0.101562 -0.021502 233 175 143
0.234375 0.101562 -0.024597 224 161 129
0.238281 0.101562 -0.029318 216 169 145
-0.226562 0.097656 0.017320 216 178 147
-0.222656 0.097656 0.040644 226 180 142
-0.218750 0.097656 0.048792 225 168 134
-0.214844 0.097656 0.051293 227 171 138
-0.210938 0.097656 0.047603 221 161 130
-0.207031 0.097656 0.037279 205 142 115
-0.203125 0.097656 0.029974 186 131 104
-0.199219 0.097656 0.026969 153 111 92
-0.195312 0.097656 0.029336 150 125 118
-0.191406 0.097656 0.042040 117 108 109
0.003906 0.097656 0.093290 21 14 13
0.007812 0.097656 0.095762 114 57 61
0.011719 0.097656 0.106594 137 55 60
0.015625 0.097656 0.114903 147 38 42
0.019531 0.097656 0.118115 176 39 44
0.023438 0.097656 0.117969 186 46 50
0.027344 0.097656 0.117023 194 57 60
0.031250 0.097656 0.116181 198 65 67
0.035156 0.097656 0.115867 200 69 70
0.039062 0.097656 0.116113 200 69 70
0.042969 0.097656 0.116379 200 73 72
0.046875 0.097656 0.116581 199 79 77
0.050781 0.097656 0.116553 197 82 78
0.054688 0.097656 0.116363 193 80 76
0.058594 0.097656 0.115934 192 71 69
0.062500 0.097656 0.115303 197 79 73
0.066406 0.097656 0.114461 205 82 75
0.070312 0.097656 0.113431 202 83 73
0.074219 0.097656 0.112314 201 81 70
0.078125 0.097656 0.111115 201 79 67
0.082031 0.097656 0.110007 202 77 62
0.085938 0.097656 0.109024 203 74 60
0.089844 0.097656 0.108051 219 86 69
0.093750 0.097656 0.107047 221 82 63
0.097656 0.097656 0.105982 223 79 60
0.101562 0.097656 0.104771 229 79 59
0.105469 0.097656 0.103521 236 82 58
0.109375 0.097656 0.102282 239 82 59
0.113281 0.097656 0.101201 237 80 58
0.117188 0.097656 0.100445 237 79 54
0.121094 0.097656 0.099753 226 92 51
0.125000 0.097656 0.099155 229 95 52
0.128906 0.097656 0.098187 233 97 52
0.132812 0.097656 0.096565 235 100 53
0.136719 0.097656 0.094893 239 101 51
0.140625 0.097656 0.093077 242 101 52
0.144531 0.097656 0.091176 242 102 50
0.148438 0.097656 0.089258 242 102 50
0.152344 0.097656 0.087005 247 106 57
0.156250 0.097656 0.084365 246 105 58
0.160156 0.097656 0.081219 244 104 59
0.164062 0.097656 0.077141 240 103 58
0.167969 0.097656 0.072552 241 105 62
0.171875 0.097656 0.067585 242 107 66
0.175781 0.097656 0.061982 240 108 68
0.179688 0.097656 0.056113 238 102 64
0.183594 0.097656 0.049100 209 144 131
0.187500 0.097656 0.041520 233 162 154
0.191406 0.097656 0.033196 231 172 168
0.195312 0.097656 0.023673 228 179 178
0.199219 0.097656 0.009439 210 151 155
0.203125 0.097656 -0.021875 185 72 84
0.207031 0.097656 -0.020082 192 69 73
0.210938 0.097656 -0.017865 205 119 99
0.214844 0.097656 -0.015691 218 151 124
0.218750 0.097656 -0.014523 228 167 138
0.222656 0.097656 -0.015719 233 174 140
0.226562 0.097656 -0.017892 235 178 146
0.230469 0.097656 -0.020557 232 173 141
0.234375 0.097656 -0.023743 223 159 127
0.238281 0.097656 -0.028474 217 170 146
-0.226562 0.093750 0.026550 218 179 145
-0.222656 0.093750 0.046260 225 178 138
-0.218750 0.093750 0.053303 224 167 133
-0.214844 0.093750 0.054350 224 168 135
-0.210938 0.093750 0.049135 215 154 125
-0.207031 0.093750 0.037396 192 127 104
-0.203125 0.093750 0.029155 172 119 97
-0.199219 0.093750 0.026134 147 107 96
-0.195312 0.093750 0.029706 116 94 99
-0.191406 0.093750 0.040730 35 26 29
0.007812 0.093750 0.093252 121 64 69
0.011719 0.093750 0.103785 150 74 79
0.015625 0.093750 0.113222 154 54 59
0.019531 0.093750 0.117072 182 56 62
0.023438 0.093750 0.117477 195 64 69
0.027344 0.093750 0.116880 204 72 76
0.031250 0.093750 0.116308 208 78 81
0.035156 0.093750 0.116286 207 77 80
0.039062 0.093750 0.116817 204 72 74
0.042969 0.093750 0.117365 200 67 69
0.046875 0.093750 0.117835 196 64 66
0.050781 0.093750 0.118032 194 60 62
0.054688 0.093750 0.118015 190 56 58
0.058594 0.093750 0.117710 189 56 56
0.062500 0.093750 0.117142 191 63 62
0.066406 0.093750 0.116302 192 70 68
0.070312 0.093750 0.115248 193 75 72
0.074219 0.093750 0.114082 193 77 74
0.078125 0.093750 0.112802 194 76 74
0.082031 0.093750 0.111598 198 77 73
0.085938 0.093750 0.110499 202 81 77
0.089844 0.093750 0.109433 195 72 67
0.093750 0.093750 0.108369 198 67 63
0.097656 0.093750 0.107324 199 63 58
0.101562 0.093750 0.106185 205 62 58
0.105469 0.093750 0.104994 215 65 60
0.109375 0.093750 0.103826 218 65 61
0.113281 0.093750 0.102778 216 64 59
0.117188 0.093750 0.102032 218 65 59
0.121094 0.093750 0.101334 224 70 56
0.125000 0.093750 0.100713 235 76 61
0.128906 0.093750 0.099724 241 81 63
0.132812 0.093750 0.098070 245 85 63
0.136719 0.093750 0.096382 248 89 64
0.140625 0.093750 0.094563 250 93 62
0.144531 0.093750 0.092662 251 96 60
0.148438 0.093750 0.090747 251 98 59
0.152344 0.093750 0.088500 250 103 61
0.156250 0.093750 0.085874 246 106 61
0.160156 0.093750 0.082744 240 106 59
0.164062 0.093750 0.078731 234 106 57
0.167969 0.093750 0.074269 231 109 58
0.171875 0.093750 0.069400 232 113 62
0.175781 0.093750 0.063908 230 115 62
0.179688 0.093750 0.058031 227 109 59
0.183594 0.093750 0.050849 209 147 134
0.187500 0.093750 0.043368 237 167 158
0.191406 0.093750 0.035289 235 176 172
0.195312 0.093750 0.026193 232 184 183
0.199219 0.093750 0.014189 222 170 174
0.203125 0.093750 -0.018077 195 100 111
0.207031 0.093750 -0.019334 187 56 70
0.210938 0.093750 -0.016373 200 108 96
0.214844 0.093750 -0.014174 214 146 120
0.218750 0.093750 -0.013011 225 161 131
0.222656 0.093750 -0.014207 231 169 136
0.226562 0.093750 -0.016532 234 175 143
0.230469 0.093750 -0.019352 231 171 139
0.234375 0.093750 -0.022679 222 155 124
0.238281 0.093750 -0.027511 215 164 142
-0.230469 0.089844 -0.009295 174 127 107
-0.226562 0.089844 0.032462 217 169 138
-0.222656 0.089844 0.050131 224 174 136
-0.218750 0.089844 0.057324 223 167 131
-0.214844 0.089844 0.057183 220 163 128
-0.210938 0.089844 0.050958 206 144 115
-0.207031 0.089844 0.037923 176 114 91
-0.203125 0.089844 0.028420 162 113 94
-0.199219 0.089844 0.025637 146 111 100
-0.195312 0.089844 0.030238 61 49 49
0.007812 0.089844 0.091143 98 53 58
0.011719 0.089844 0.100436 143 83 87
0.015625 0.089844 0.111011 143 65 68
0.019531 0.089844 0.115656 173 67 71
0.023438 0.089844 0.116673 189 74 78
0.027344 0.089844 0.116467 200 79 83
0.031250 0.089844 0.116258 204 80 84
0.035156 0.089844 0.116584 203 77 81
0.039062 0.089844 0.117455 202 71 76
0.042969 0.089844 0.118307 201 66 71
0.046875 0.089844 0.119028 201 62 68
0.050781 0.089844 0.119453 200 59 64
0.054688 0.089844 0.119619 198 57 62
0.058594 0.089844 0.119442 192 58 61
0.062500 0.089844 0.118903 191 61 65
0.066406 0.089844 0.118006 190 64 66
0.070312 0.089844 0.116878 190 63 66
0.074219 0.089844 0.115587 188 61 64
0.078125 0.089844 0.114223 188 60 62
0.082031 0.089844 0.112986 189 63 66
0.085938 0.089844 0.111828 192 72 75
0.089844 0.089844 0.110713 197 82 84
0.093750 0.089844 0.109683 200 83 86
0.097656 0.089844 0.108772 204 87 90
0.101562 0.089844 0.107747 209 90 93
0.105469 0.089844 0.106591 213 85 87
0.109375 0.089844 0.105476 211 73 77
0.113281 0.089844 0.104471 201 63 67
0.117188 0.089844 0.103701 195 63 64
0.121094 0.089844 0.102996 217 62 65
0.125000 0.089844 0.102378 229 74 74
0.128906 0.089844 0.101418 237 81 79
0.132812 0.089844 0.099768 242 86 79
0.136719 0.089844 0.098012 245 90 79
0.140625 0.089844 0.096203 248 92 75
0.144531 0.089844 0.094354 250 91 68
0.148438 0.089844 0.092450 246 92 63
0.152344 0.089844 0.090244 249 97 64
0.156250 0.089844 0.087676 248 101 64
0.160156 0.089844 0.084599 245 104 63
0.164062 0.089844 0.080679 241 105 60
0.167969 0.089844 0.076354 239 106 59
0.171875 0.089844 0.071638 237 106 58
0.175781 0.089844 0.066271 237 108 58
0.179688 0.089844 0.060514 236 106 58
0.183594 0.089844 0.053344 206 152 138
0.187500 0.089844 0.045898 240 174 165
0.191406 0.089844 0.038029 242 190 186
0.195312 0.089844 0.029365 242 193 193
0.199219 0.089844 0.019545 235 190 195
0.203125 0.089844 -0.008473 215 136 146
0.207031 0.089844 -0.018719 183 59 77
0.210938 0.089844 -0.014991 191 101 91
0.214844 0.089844 -0.012557 206 137 113
0.218750 0.089844 -0.011281 218 151 123
0.222656 0.089844 -0.012401 228 164 131
0.226562 0.089844 -0.014873 232 171 139
0.230469 0.089844 -0.017840 230 169 138
0.234375 0.089844 -0.021327 222 156 125
0.238281 0.089844 -0.026287 214 160 139
-0.230469 0.085938 0.001232 223 190 159
-0.226562 0.085938 0.038336 228 180 144
-0.222656 0.085938 0.053304 229 174 136
-0.218750 0.085938 0.060643 225 163 126
-0.214844 0.085938 0.059774 216 150 116
-0.210938 0.085938 0.052828 196 128 103
-0.207031 0.085938 0.038687 156 99 78
-0.203125 0.085938 0.027717 146 106 88
-0.199219 0.085938 0.025102 125 101 89
-0.195312 0.085938 0.029469 13 11 9
0.007812 0.085938 0.089491 79 41 44
0.011719 0.085938 0.097007 143 88 91
0.015625 0.085938 0.107832 144 76 78
0.019531 0.085938 0.113011 173 78 81
0.023438 0.085938 0.114548 190 83 86
0.027344 0.085938 0.114736 203 86 89
0.031250 0.085938 0.114926 208 86 90
0.035156 0.085938 0.115616 208 81 86
0.039062 0.085938 0.116867 207 76 81
0.042969 0.085938 0.118122 209 73 79
0.046875 0.085938 0.119221 210 71 78
0.050781 0.085938 0.120033 210 72 79
0.054688 0.085938 0.120544 211 75 82
0.058594 0.085938 0.120631 205 81 87
0.062500 0.085938 0.120287 203 85 91
0.066406 0.085938 0.119507 201 85 91
0.070312 0.085938 0.118428 197 82 88
0.074219 0.085938 0.117072 194 77 83
0.078125 0.085938 0.115651 191 73 78
0.082031 0.085938 0.114383 192 72 77
0.085938 0.085938 0.113218 196 76 80
0.089844 0.085938 0.112104 202 79 84
0.093750 0.085938 0.111090 209 88 94
0.097656 0.085938 0.110186 214 104 109
0.101562 0.085938 0.109136 216 120 123
0.105469 0.085938 0.107973 218 129 131
0.109375 0.085938 0.106898 222 134 136
0.113281 0.085938 0.105925 219 131 134
0.117188 0.085938 0.105127 215 139 137
0.121094 0.085938 0.104430 221 116 117
0.125000 0.085938 0.103803 227 117 118
0.128906 0.085938 0.102851 218 105 103
0.132812 0.085938 0.101214 209 93 88
0.136719 0.085938 0.099400 209 89 80
0.140625 0.085938 0.097582 216 95 81
0.144531 0.085938 0.095735 230 103 85
0.148438 0.085938 0.093815 241 110 88
0.152344 0.085938 0.091609 240 105 78
0.156250 0.085938 0.089071 241 102 73
0.160156 0.085938 0.086044 242 99 67
0.164062 0.085938 0.082214 243 96 63
0.167969 0.085938 0.078025 245 96 60
0.171875 0.085938 0.073500 250 97 62
0.175781 0.085938 0.068314 252 97 60
0.179688 0.085938 0.062620 252 96 60
0.183594 0.085938 0.055508 203 159 144
0.187500 0.085938 0.048385 239 189 179
0.191406 0.085938 0.040612 244 211 206
0.195312 0.085938 0.032120 246 215 214
0.199219 0.085938 0.022268 240 216 220
0.203125 0.085938 -0.000800 229 185 194
0.207031 0.085938 -0.017368 186 82 97
0.210938 0.085938 -0.012957 186 104 90
0.214844 0.085938 -0.010565 197 128 104
0.218750 0.085938 -0.009416 211 139 112
0.222656 0.085938 -0.010501 224 157 126
0.226562 0.085938 -0.013070 230 166 135
0.230469 0.085938 -0.016199 230 169 137
0.234375 0.085938 -0.019816 223 160 128
0.238281 0.085938 -0.024918 208 148 130
-0.230469 0.082031 0.013117 232 197 166
-0.226562 0.082031 0.045050 222 164 120
-0.222656 0.082031 0.056160 220 156 115
-0.218750 0.082031 0.063478 220 157 116
-0.214844 0.082031 0.062224 209 144 108
-0.210938 0.082031 0.054596 186 124 99
-0.207031 0.082031 0.039114 143 93 75
-0.203125 0.082031 0.026406 133 102 89
-0.199219 0.082031 0.024567 75 65 58
-0.195312 0.082031 0.028336 0 0 0
0.007812 0.082031 0.088229 65 32 36
0.011719 0.082031 0.094056 139 90 91
0.015625 0.082031 0.104025 140 83 84
0.019531 0.082031 0.109577 167 84 85
0.023438 0.082031 0.111627 185 88 90
0.027344 0.082031 0.112325 201 91 95
0.031250 0.082031 0.113032 208 92 97
0.035156 0.082031 0.114188 207 87 93
0.039062 0.082031 0.116031 205 82 88
0.042969 0.082031 0.117900 205 79 85
0.046875 0.082031 0.119506 205 78 85
0.050781 0.082031 0.120690 205 81 88
0.054688 0.082031 0.121462 208 89 95
0.058594 0.082031 0.121732 209 100 107
0.062500 0.082031 0.121489 210 109 116
0.066406 0.082031 0.120730 206 113 120
0.070312 0.082031 0.119578 202 113 120
0.074219 0.082031 0.118014 199 111 118
0.078125 0.082031 0.116351 198 110 116
0.082031 0.082031 0.114931 200 110 117
0.085938 0.082031 0.113707 205 113 121
0.089844 0.082031 0.112556 211 119 127
0.093750 0.082031 0.111476 214 128 137
0.097656 0.082031 0.110465 210 140 147
0.101562 0.082031 0.109441 197 144 148
0.105469 0.082031 0.108508 177 137 140
0.109375 0.082031 0.107702 165 135 135
0.113281 0.082031 0.106855 157 136 133
0.117188 0.082031 0.106061 164 151 144
0.121094 0.082031 0.105364 202 176 170
0.125000 0.082031 0.104567 211 182 174
0.128906 0.082031 0.103429 213 171 164
0.132812 0.082031 0.101783 215 154 145
0.136719 0.082031 0.100036 216 141 131
0.140625 0.082031 0.098225 208 134 119
0.144531 0.082031 0.096286 201 121 103
0.148438 0.082031 0.094204 200 110 89
0.152344 0.082031 0.091835 204 105 81
0.156250 0.082031 0.089187 211 103 80
0.160156 0.082031 0.086044 220 104 78
0.164062 0.082031 0.082119 231 106 78
0.167969 0.082031 0.077909 244 107 80
0.171875 0.082031 0.073579 250 104 77
0.175781 0.082031 0.068667 247 97 71
0.179688 0.082031 0.063150 241 90 63
0.183594 0.082031 0.056299 181 144 130
0.187500 0.082031 0.049544 210 174 163
0.191406 0.082031 0.042133 222 200 195
0.195312 0.082031 0.033530 232 215 212
0.199219 0.082031 0.023314 233 221 224
0.203125 0.082031 0.002773 219 199 206
0.207031 0.082031 -0.016184 162 96 100
0.210938 0.082031 -0.011311 173 101 80
0.214844 0.082031 -0.008595 193 126 100
0.218750 0.082031 -0.007415 208 137 109
0.222656 0.082031 -0.008471 222 154 123
0.226562 0.082031 -0.011082 228 162 132
0.230469 0.082031 -0.014313 229 166 134
0.234375 0.082031 -0.018084 222 159 125
0.238281 0.082031 -0.023301 197 131 116
-0.230469 0.078125 0.028001 227 188 150
-0.226562 0.078125 0.051030 206 144 102
-0.222656 0.078125 0.059890 212 151 108
-0.218750 0.078125 0.066428 220 162 118
-0.214844 0.078125 0.064427 196 135 96
-0.210938 0.078125 0.055982 146 93 71
-0.207031 0.078125 0.040221 91 58 52
-0.203125 0.078125 0.026229 83 64 66
-0.199219 0.078125 0.023941 19 16 17
0.007812 0.078125 0.087102 63 29 34
0.011719 0.078125 0.091725 142 94 95
0.015625 0.078125 0.099816 142 90 91
0.019531 0.078125 0.105017 167 91 92
0.023438 0.078125 0.107220 187 96 98
0.027344 0.078125 0.108158 208 105 110
0.031250 0.078125 0.108814 217 114 120
0.035156 0.078125 0.109273 218 115 122
0.039062 0.078125 0.109960 214 111 118
0.042969 0.078125 0.110375 209 107 115
0.046875 0.078125 0.110731 206 105 113
0.050781 0.078125 0.111139 202 106 115
0.054688 0.078125 0.111660 204 115 123
0.058594 0.078125 0.112045 209 127 137
0.062500 0.078125 0.112088 209 138 148
0.066406 0.078125 0.111955 206 141 150
