ply
    format ascii 1.0
    element vertex 66086
    property float x
    property float y
    property float z
    property uchar red
    property uchar green
    property uchar blue
    end_header
0.191406 -0.539062 -0.093015 14 24 73
0.195312 -0.539062 -0.093262 13 24 72
0.199219 -0.539062 -0.093525 13 24 71
0.203125 -0.539062 -0.093619 14 26 72
0.207031 -0.539062 -0.093066 15 28 74
0.210938 -0.539062 -0.091603 16 30 74
0.214844 -0.539062 -0.090368 18 32 74
0.218750 -0.539062 -0.088755 19 33 74
0.222656 -0.539062 -0.086511 20 34 73
0.226562 -0.539062 -0.083073 23 36 74
0.230469 -0.539062 -0.079007 24 35 70
0.234375 -0.539062 -0.074331 31 42 76
0.238281 -0.539062 -0.066712 31 40 72
0.242188 -0.539062 -0.054907 38 44 70
-0.089844 -0.542969 -0.078661 10 17 40
-0.085938 -0.542969 -0.089049 18 28 57
-0.082031 -0.542969 -0.094996 13 21 44
-0.078125 -0.542969 -0.099516 10 17 40
-0.074219 -0.542969 -0.102476 13 22 49
-0.070312 -0.542969 -0.104575 12 23 50
-0.066406 -0.542969 -0.106778 11 22 48
-0.062500 -0.542969 -0.108448 11 22 48
-0.058594 -0.542969 -0.109239 12 22 49
-0.054688 -0.542969 -0.109072 12 23 49
-0.050781 -0.542969 -0.109107 12 22 49
-0.046875 -0.542969 -0.108904 12 22 49
-0.042969 -0.542969 -0.108022 12 23 51
-0.039062 -0.542969 -0.106139 12 23 52
-0.035156 -0.542969 -0.104513 11 22 51
-0.031250 -0.542969 -0.102377 11 20 49
-0.027344 -0.542969 -0.099559 12 21 49
-0.023438 -0.542969 -0.094997 14 22 50
-0.019531 -0.542969 -0.089663 13 20 43
-0.015625 -0.542969 -0.078984 20 25 50
0.152344 -0.542969 -0.050750 21 19 48
0.156250 -0.542969 -0.060390 23 27 76
0.160156 -0.542969 -0.067558 16 22 73
0.164062 -0.542969 -0.073524 11 17 62
0.167969 -0.542969 -0.079074 12 18 65
0.171875 -0.542969 -0.083166 12 19 66
0.175781 -0.542969 -0.086448 12 21 68
0.179688 -0.542969 -0.088773 14 24 72
0.183594 -0.542969 -0.090976 14 24 73
0.187500 -0.542969 -0.092935 14 25 73
0.191406 -0.542969 -0.093962 13 24 73
0.195312 -0.542969 -0.094206 13 24 71
0.199219 -0.542969 -0.094466 13 24 71
0.203125 -0.542969 -0.094559 14 26 72
0.207031 -0.542969 -0.094010 15 28 73
0.210938 -0.542969 -0.092564 15 28 72
0.214844 -0.542969 -0.091343 17 30 73
0.218750 -0.542969 -0.089753 18 32 73
0.222656 -0.542969 -0.087489 20 33 73
0.226562 -0.542969 -0.083959 22 35 75
0.230469 -0.542969 -0.080013 23 34 70
0.234375 -0.542969 -0.075482 27 37 70
0.238281 -0.542969 -0.067661 29 38 68
0.242188 -0.542969 -0.056804 41 46 72
-0.089844 -0.546875 -0.079597 10 16 38
-0.085938 -0.546875 -0.089649 18 28 58
-0.082031 -0.546875 -0.095549 13 20 44
-0.078125 -0.546875 -0.100058 10 16 38
-0.074219 -0.546875 -0.103004 12 21 47
-0.070312 -0.546875 -0.105096 12 22 49
-0.066406 -0.546875 -0.107279 12 23 49
-0.062500 -0.546875 -0.108918 12 23 49
-0.058594 -0.546875 -0.109683 12 22 48
-0.054688 -0.546875 -0.109469 12 22 49
-0.050781 -0.546875 -0.109492 12 22 48
-0.046875 -0.546875 -0.109273 11 22 49
-0.042969 -0.546875 -0.108342 12 22 50
-0.039062 -0.546875 -0.106328 11 22 50
-0.035156 -0.546875 -0.104660 11 21 51
-0.031250 -0.546875 -0.102575 11 21 50
-0.027344 -0.546875 -0.099408 12 21 48
-0.023438 -0.546875 -0.095207 14 22 48
-0.019531 -0.546875 -0.088653 12 19 40
-0.015625 -0.546875 -0.076021 18 23 45
0.152344 -0.546875 -0.032702 11 16 57
0.156250 -0.546875 -0.058873 17 19 62
0.160156 -0.546875 -0.067826 16 23 72
0.164062 -0.546875 -0.074074 11 16 57
0.167969 -0.546875 -0.079622 11 18 63
0.171875 -0.546875 -0.083925 11 19 66
0.175781 -0.546875 -0.087231 12 21 69
0.179688 -0.546875 -0.089551 14 24 72
0.183594 -0.546875 -0.091779 13 24 71
0.187500 -0.546875 -0.093764 13 24 71
0.191406 -0.546875 -0.094798 13 24 72
0.195312 -0.546875 -0.095043 13 24 72
0.199219 -0.546875 -0.095300 13 25 72
0.203125 -0.546875 -0.095388 14 26 72
0.207031 -0.546875 -0.094840 14 27 71
0.210938 -0.546875 -0.093408 15 28 71
0.214844 -0.546875 -0.092204 16 30 73
0.218750 -0.546875 -0.090635 18 32 74
0.222656 -0.546875 -0.088360 20 34 75
0.226562 -0.546875 -0.084773 23 37 77
0.230469 -0.546875 -0.080917 23 35 72
0.234375 -0.546875 -0.076429 27 37 70
0.238281 -0.546875 -0.068759 29 38 68
0.242188 -0.546875 -0.058186 38 42 68
-0.089844 -0.550781 -0.080325 10 16 39
-0.085938 -0.550781 -0.090101 18 28 57
-0.082031 -0.550781 -0.095998 13 20 44
-0.078125 -0.550781 -0.100502 10 16 39
-0.074219 -0.550781 -0.103446 12 21 47
-0.070312 -0.550781 -0.105527 12 22 49
-0.066406 -0.550781 -0.107696 12 23 49
-0.062500 -0.550781 -0.109307 12 23 49
-0.058594 -0.550781 -0.110055 12 22 48
-0.054688 -0.550781 -0.109807 12 22 49
-0.050781 -0.550781 -0.109829 12 22 50
-0.046875 -0.550781 -0.109601 12 23 51
-0.042969 -0.550781 -0.108629 12 23 52
-0.039062 -0.550781 -0.106525 12 22 51
-0.035156 -0.550781 -0.104827 12 23 53
-0.031250 -0.550781 -0.102749 12 22 52
-0.027344 -0.550781 -0.099114 12 21 48
-0.023438 -0.550781 -0.095049 14 22 47
-0.019531 -0.550781 -0.087003 13 20 41
-0.015625 -0.550781 -0.078067 19 26 48
0.156250 -0.550781 -0.055499 16 15 52
0.160156 -0.550781 -0.067378 22 28 80
0.164062 -0.550781 -0.074538 12 17 58
0.167969 -0.550781 -0.080089 12 19 66
0.171875 -0.550781 -0.084638 11 20 67
0.175781 -0.550781 -0.087913 12 22 71
0.179688 -0.550781 -0.090189 13 24 73
0.183594 -0.550781 -0.092451 13 23 70
0.187500 -0.550781 -0.094484 13 23 70
0.191406 -0.550781 -0.095527 13 24 71
0.195312 -0.550781 -0.095769 13 25 72
0.199219 -0.550781 -0.096031 13 26 72
0.203125 -0.550781 -0.096116 13 26 71
0.207031 -0.550781 -0.095574 14 27 71
0.210938 -0.550781 -0.094159 15 28 72
0.214844 -0.550781 -0.092977 16 30 74
0.218750 -0.550781 -0.091422 17 31 73
0.222656 -0.550781 -0.089154 19 32 73
0.226562 -0.550781 -0.085525 22 35 75
0.230469 -0.550781 -0.081712 23 34 70
0.234375 -0.550781 -0.077231 26 37 70
0.238281 -0.550781 -0.069902 32 41 73
0.242188 -0.550781 -0.059112 38 44 70
-0.089844 -0.554688 -0.080766 10 17 40
-0.085938 -0.554688 -0.090442 16 24 52
-0.082031 -0.554688 -0.096333 12 20 43
-0.078125 -0.554688 -0.100847 10 17 40
-0.074219 -0.554688 -0.103805 12 21 48
-0.070312 -0.554688 -0.105863 12 22 49
-0.066406 -0.554688 -0.108009 12 22 48
-0.062500 -0.554688 -0.109594 12 22 47
-0.058594 -0.554688 -0.110331 11 21 47
-0.054688 -0.554688 -0.110053 12 22 49
-0.050781 -0.554688 -0.110070 12 22 50
-0.046875 -0.554688 -0.109826 11 21 49
-0.042969 -0.554688 -0.108815 11 22 50
-0.039062 -0.554688 -0.106593 11 22 51
-0.035156 -0.554688 -0.104866 12 23 53
-0.031250 -0.554688 -0.102779 13 23 53
-0.027344 -0.554688 -0.099042 12 21 47
-0.023438 -0.554688 -0.094638 14 23 47
-0.019531 -0.554688 -0.086377 13 20 42
-0.015625 -0.554688 -0.072789 14 19 39
0.156250 -0.554688 -0.056563 23 27 76
0.160156 -0.554688 -0.066649 24 28 76
0.164062 -0.554688 -0.074704 11 16 54
0.167969 -0.554688 -0.080463 11 18 62
0.171875 -0.554688 -0.085260 10 18 62
0.175781 -0.554688 -0.088494 11 20 67
0.179688 -0.554688 -0.090766 13 22 70
0.183594 -0.554688 -0.093049 12 22 68
0.187500 -0.554688 -0.095098 13 23 69
0.191406 -0.554688 -0.096148 13 24 71
0.195312 -0.554688 -0.096390 14 26 73
0.199219 -0.554688 -0.096654 14 27 73
0.203125 -0.554688 -0.096739 14 27 71
0.207031 -0.554688 -0.096205 14 28 72
0.210938 -0.554688 -0.094800 15 28 72
0.214844 -0.554688 -0.093629 16 29 72
0.218750 -0.554688 -0.092079 17 30 71
0.222656 -0.554688 -0.089827 19 32 72
0.226562 -0.554688 -0.086181 22 35 75
0.230469 -0.554688 -0.082389 22 34 69
0.234375 -0.554688 -0.077895 26 37 69
0.238281 -0.554688 -0.070716 34 44 75
0.242188 -0.554688 -0.059639 41 46 72
-0.089844 -0.558594 -0.081012 10 17 41
-0.085938 -0.558594 -0.090713 15 23 49
-0.082031 -0.558594 -0.096609 12 19 43
-0.078125 -0.558594 -0.101123 10 17 41
-0.074219 -0.558594 -0.104087 12 22 49
-0.070312 -0.558594 -0.106125 12 22 49
-0.066406 -0.558594 -0.108261 11 21 47
-0.062500 -0.558594 -0.109839 11 20 45
-0.058594 -0.558594 -0.110571 11 20 46
-0.054688 -0.558594 -0.110267 11 21 49
-0.050781 -0.558594 -0.110287 11 22 50
-0.046875 -0.558594 -0.110031 11 21 49
-0.042969 -0.558594 -0.108988 11 22 51
-0.039062 -0.558594 -0.106650 12 23 53
-0.035156 -0.558594 -0.104924 13 24 55
-0.031250 -0.558594 -0.102545 13 24 54
-0.027344 -0.558594 -0.099195 12 21 47
-0.023438 -0.558594 -0.093866 15 24 49
-0.019531 -0.558594 -0.085964 17 25 51
0.156250 -0.558594 -0.057612 17 19 62
0.160156 -0.558594 -0.066689 13 15 45
0.164062 -0.558594 -0.074570 11 16 51
0.167969 -0.558594 -0.080833 13 20 66
0.171875 -0.558594 -0.085624 11 19 64
0.175781 -0.558594 -0.088865 12 20 67
0.179688 -0.558594 -0.091227 13 22 69
0.183594 -0.558594 -0.093529 13 22 69
0.187500 -0.558594 -0.095593 14 23 70
0.191406 -0.558594 -0.096653 14 25 70
0.195312 -0.558594 -0.096899 14 26 72
0.199219 -0.558594 -0.097169 14 27 72
0.203125 -0.558594 -0.097260 14 28 72
0.207031 -0.558594 -0.096742 15 28 72
0.210938 -0.558594 -0.095347 15 28 71
0.214844 -0.558594 -0.094185 15 29 71
0.218750 -0.558594 -0.092650 17 30 71
0.222656 -0.558594 -0.090417 19 33 73
0.226562 -0.558594 -0.086753 23 36 76
0.230469 -0.558594 -0.082970 22 33 67
0.234375 -0.558594 -0.078469 25 35 67
0.238281 -0.558594 -0.071422 32 42 72
0.242188 -0.558594 -0.060169 38 42 68
-0.089844 -0.562500 -0.081012 10 17 41
-0.085938 -0.562500 -0.090830 15 24 50
-0.082031 -0.562500 -0.096801 13 20 44
-0.078125 -0.562500 -0.101298 10 17 41
-0.074219 -0.562500 -0.104266 12 21 47
-0.070312 -0.562500 -0.106281 12 22 49
-0.066406 -0.562500 -0.108427 12 21 47
-0.062500 -0.562500 -0.110004 11 21 46
-0.058594 -0.562500 -0.110733 11 20 47
-0.054688 -0.562500 -0.110416 11 21 49
-0.050781 -0.562500 -0.110454 12 22 50
-0.046875 -0.562500 -0.110187 12 22 51
-0.042969 -0.562500 -0.109117 12 23 53
-0.039062 -0.562500 -0.106703 12 24 54
-0.035156 -0.562500 -0.105009 13 24 55
-0.031250 -0.562500 -0.102424 14 25 55
-0.027344 -0.562500 -0.099447 13 22 47
-0.023438 -0.562500 -0.092801 15 24 47
-0.019531 -0.562500 -0.083133 19 27 53
0.156250 -0.562500 -0.031349 16 15 52
0.160156 -0.562500 -0.065288 17 21 52
0.164062 -0.562500 -0.074560 13 18 54
0.167969 -0.562500 -0.080796 13 20 66
0.171875 -0.562500 -0.085842 11 19 63
0.175781 -0.562500 -0.089180 11 19 64
0.179688 -0.562500 -0.091551 13 21 68
0.183594 -0.562500 -0.093895 13 23 70
0.187500 -0.562500 -0.095971 14 24 71
0.191406 -0.562500 -0.097044 14 24 69
0.195312 -0.562500 -0.097301 13 24 68
0.199219 -0.562500 -0.097588 14 26 69
0.203125 -0.562500 -0.097690 14 27 70
0.207031 -0.562500 -0.097190 14 28 71
0.210938 -0.562500 -0.095807 15 28 71
0.214844 -0.562500 -0.094659 16 29 72
0.218750 -0.562500 -0.093129 17 31 73
0.222656 -0.562500 -0.090904 20 34 75
0.226562 -0.562500 -0.087239 22 36 75
0.230469 -0.562500 -0.083464 21 32 66
0.234375 -0.562500 -0.078951 24 35 67
0.238281 -0.562500 -0.071997 30 39 69
0.242188 -0.562500 -0.060680 35 39 63
-0.089844 -0.566406 -0.080876 10 17 40
-0.085938 -0.566406 -0.090777 15 23 48
-0.082031 -0.566406 -0.096918 12 20 43
-0.078125 -0.566406 -0.101424 10 17 40
-0.074219 -0.566406 -0.104409 12 20 46
-0.070312 -0.566406 -0.106389 12 22 49
-0.066406 -0.566406 -0.108546 12 22 48
-0.062500 -0.566406 -0.110125 12 21 47
-0.058594 -0.566406 -0.110863 11 21 47
-0.054688 -0.566406 -0.110544 11 21 47
-0.050781 -0.566406 -0.110601 11 20 47
-0.046875 -0.566406 -0.110326 11 21 48
-0.042969 -0.566406 -0.109227 12 23 52
-0.039062 -0.566406 -0.106746 12 23 53
-0.035156 -0.566406 -0.105081 13 24 54
-0.031250 -0.566406 -0.102484 15 26 56
-0.027344 -0.566406 -0.099518 14 23 47
-0.023438 -0.566406 -0.092026 15 22 43
-0.019531 -0.566406 -0.081508 13 18 39
0.160156 -0.566406 -0.061511 24 28 76
0.164062 -0.566406 -0.073371 10 15 46
0.167969 -0.566406 -0.080837 11 17 56
0.171875 -0.566406 -0.085810 11 18 60
0.175781 -0.566406 -0.089444 11 19 62
0.179688 -0.566406 -0.091732 13 22 68
0.183594 -0.566406 -0.094094 14 24 70
0.187500 -0.566406 -0.096218 14 24 69
0.191406 -0.566406 -0.097322 13 23 67
0.195312 -0.566406 -0.097597 13 24 67
0.199219 -0.566406 -0.097910 13 25 68
0.203125 -0.566406 -0.098027 14 26 69
0.207031 -0.566406 -0.097549 14 27 70
0.210938 -0.566406 -0.096183 14 27 69
0.214844 -0.566406 -0.095053 15 29 71
0.218750 -0.566406 -0.093529 16 30 71
0.222656 -0.566406 -0.091323 19 33 73
0.226562 -0.566406 -0.087662 21 35 74
0.230469 -0.566406 -0.083876 21 34 68
0.234375 -0.566406 -0.079335 26 38 72
0.238281 -0.566406 -0.072454 30 41 71
0.242188 -0.566406 -0.061215 41 46 72
-0.089844 -0.570312 -0.080848 10 17 40
-0.085938 -0.570312 -0.090741 15 22 46
-0.082031 -0.570312 -0.096953 13 19 43
-0.078125 -0.570312 -0.101492 10 17 40
-0.074219 -0.570312 -0.104487 12 20 46
-0.070312 -0.570312 -0.106442 13 22 50
-0.066406 -0.570312 -0.108614 12 22 48
-0.062500 -0.570312 -0.110204 12 22 48
-0.058594 -0.570312 -0.110962 12 21 48
-0.054688 -0.570312 -0.110646 12 21 48
-0.050781 -0.570312 -0.110731 11 21 47
-0.046875 -0.570312 -0.110453 11 21 48
-0.042969 -0.570312 -0.109341 13 23 52
-0.039062 -0.570312 -0.106786 13 24 53
-0.035156 -0.570312 -0.105099 14 25 55
-0.031250 -0.570312 -0.102495 16 27 57
-0.027344 -0.570312 -0.099304 15 24 48
-0.023438 -0.570312 -0.091879 17 24 45
-0.019531 -0.570312 -0.082351 16 22 45
0.160156 -0.570312 -0.067173 13 15 45
0.164062 -0.570312 -0.072282 14 19 56
0.167969 -0.570312 -0.080538 14 21 63
0.171875 -0.570312 -0.085542 14 21 65
0.175781 -0.570312 -0.089456 13 21 65
0.179688 -0.570312 -0.091725 14 23 69
0.183594 -0.570312 -0.094205 14 24 69
0.187500 -0.570312 -0.096374 14 23 68
0.191406 -0.570312 -0.097489 13 23 66
0.195312 -0.570312 -0.097790 13 24 67
0.199219 -0.570312 -0.098130 13 25 68
0.203125 -0.570312 -0.098271 14 26 70
0.207031 -0.570312 -0.097817 14 27 71
0.210938 -0.570312 -0.096470 14 27 70
0.214844 -0.570312 -0.095361 15 28 70
0.218750 -0.570312 -0.093848 15 29 69
0.222656 -0.570312 -0.091660 17 31 70
0.226562 -0.570312 -0.088012 19 33 72
0.230469 -0.570312 -0.084242 21 34 69
0.234375 -0.570312 -0.079749 25 38 72
0.238281 -0.570312 -0.072920 29 40 70
0.242188 -0.570312 -0.061552 38 42 68
-0.089844 -0.574219 -0.080788 10 16 40
-0.085938 -0.574219 -0.090580 14 20 43
-0.082031 -0.574219 -0.096909 13 19 43
-0.078125 -0.574219 -0.101489 10 16 40
-0.074219 -0.574219 -0.104490 11 20 45
-0.070312 -0.574219 -0.106432 13 22 49
-0.066406 -0.574219 -0.108625 12 22 48
-0.062500 -0.574219 -0.110236 12 22 48
-0.058594 -0.574219 -0.111023 12 22 47
-0.054688 -0.574219 -0.110718 12 22 48
-0.050781 -0.574219 -0.110832 12 21 48
-0.046875 -0.574219 -0.110540 11 21 47
-0.042969 -0.574219 -0.109421 12 22 50
-0.039062 -0.574219 -0.106782 13 23 51
-0.035156 -0.574219 -0.105070 14 25 54
-0.031250 -0.574219 -0.102647 16 26 56
-0.027344 -0.574219 -0.099121 15 23 47
-0.023438 -0.574219 -0.091464 19 25 48
-0.019531 -0.574219 -0.081103 24 33 58
0.160156 -0.574219 -0.044586 17 21 52
0.164062 -0.574219 -0.071596 8 11 42
0.167969 -0.574219 -0.079634 10 15 50
0.171875 -0.574219 -0.085134 11 17 54
0.175781 -0.574219 -0.089250 11 18 59
0.179688 -0.574219 -0.091692 13 22 66
0.183594 -0.574219 -0.094209 14 24 69
0.187500 -0.574219 -0.096404 14 24 68
0.191406 -0.574219 -0.097548 13 23 66
0.195312 -0.574219 -0.097891 13 23 66
0.199219 -0.574219 -0.098264 12 24 66
0.203125 -0.574219 -0.098438 13 25 67
0.207031 -0.574219 -0.098013 13 26 69
0.210938 -0.574219 -0.096681 14 27 70
0.214844 -0.574219 -0.095595 15 29 71
0.218750 -0.574219 -0.094100 16 30 71
0.222656 -0.574219 -0.091932 17 32 72
0.226562 -0.574219 -0.088310 20 34 74
0.230469 -0.574219 -0.084561 21 34 70
0.234375 -0.574219 -0.080090 24 37 70
0.238281 -0.574219 -0.073361 26 38 66
0.242188 -0.574219 -0.061959 35 39 63
-0.089844 -0.578125 -0.081121 10 17 40
-0.085938 -0.578125 -0.090505 14 21 44
-0.082031 -0.578125 -0.096828 13 20 44
-0.078125 -0.578125 -0.101452 10 17 40
-0.074219 -0.578125 -0.104465 11 19 44
-0.070312 -0.578125 -0.106401 12 21 47
-0.066406 -0.578125 -0.108613 12 21 47
-0.062500 -0.578125 -0.110251 12 22 47
-0.058594 -0.578125 -0.111073 12 21 46
-0.054688 -0.578125 -0.110792 11 21 46
-0.050781 -0.578125 -0.110939 11 21 46
-0.046875 -0.578125 -0.110639 11 20 45
-0.042969 -0.578125 -0.109524 11 21 48
-0.039062 -0.578125 -0.106818 12 22 50
-0.035156 -0.578125 -0.105067 14 25 54
-0.031250 -0.578125 -0.102657 16 26 55
-0.027344 -0.578125 -0.098753 15 22 46
-0.023438 -0.578125 -0.090698 20 25 47
-0.019531 -0.578125 -0.078018 22 27 50
0.164062 -0.578125 -0.068369 10 15 46
0.167969 -0.578125 -0.078687 12 16 49
0.171875 -0.578125 -0.084608 11 17 51
0.175781 -0.578125 -0.088735 12 20 61
0.179688 -0.578125 -0.091582 14 24 68
0.183594 -0.578125 -0.094117 15 25 70
0.187500 -0.578125 -0.096372 14 25 68
0.191406 -0.578125 -0.097541 13 24 67
0.195312 -0.578125 -0.097911 13 24 68
0.199219 -0.578125 -0.098317 13 24 68
0.203125 -0.578125 -0.098530 13 25 67
0.207031 -0.578125 -0.098138 13 26 68
0.210938 -0.578125 -0.096829 14 27 69
0.214844 -0.578125 -0.095767 14 28 69
0.218750 -0.578125 -0.094290 15 29 70
0.222656 -0.578125 -0.092144 17 32 73
0.226562 -0.578125 -0.088542 20 34 74
0.230469 -0.578125 -0.084803 21 34 71
0.234375 -0.578125 -0.080336 24 36 71
0.238281 -0.578125 -0.073730 25 37 66
0.242188 -0.578125 -0.062435 29 38 64
-0.089844 -0.582031 -0.080982 10 17 41
-0.085938 -0.582031 -0.090058 14 21 43
-0.082031 -0.582031 -0.096689 13 20 44
-0.078125 -0.582031 -0.101335 10 17 41
-0.074219 -0.582031 -0.104380 11 19 43
-0.070312 -0.582031 -0.106331 12 21 46
-0.066406 -0.582031 -0.108566 11 20 45
-0.062500 -0.582031 -0.110237 12 21 45
-0.058594 -0.582031 -0.111099 11 21 46
-0.054688 -0.582031 -0.110844 11 21 46
-0.050781 -0.582031 -0.111018 11 21 47
-0.046875 -0.582031 -0.110710 11 21 47
-0.042969 -0.582031 -0.109585 12 22 49
-0.039062 -0.582031 -0.106838 12 23 51
-0.035156 -0.582031 -0.104985 14 25 55
-0.031250 -0.582031 -0.102408 16 27 55
-0.027344 -0.582031 -0.098216 15 22 46
-0.023438 -0.582031 -0.091032 20 26 49
-0.019531 -0.582031 -0.074514 22 26 48
0.164062 -0.582031 -0.070222 14 19 56
0.167969 -0.582031 -0.076849 21 25 61
0.171875 -0.582031 -0.083899 13 17 50
0.175781 -0.582031 -0.088380 13 21 63
0.179688 -0.582031 -0.091358 14 24 67
0.183594 -0.582031 -0.093939 14 24 66
0.187500 -0.582031 -0.096264 13 23 64
0.191406 -0.582031 -0.097451 13 23 64
0.195312 -0.582031 -0.097854 13 24 66
0.199219 -0.582031 -0.098299 13 25 67
0.203125 -0.582031 -0.098552 13 25 68
0.207031 -0.582031 -0.098193 14 26 68
0.210938 -0.582031 -0.096909 14 27 68
0.214844 -0.582031 -0.095872 14 27 68
0.218750 -0.582031 -0.094417 15 28 69
0.222656 -0.582031 -0.092291 17 31 71
0.226562 -0.582031 -0.088691 19 33 72
0.230469 -0.582031 -0.084979 20 32 68
0.234375 -0.582031 -0.080562 22 34 70
0.238281 -0.582031 -0.074122 27 39 70
0.242188 -0.582031 -0.062922 33 43 72
-0.089844 -0.585938 -0.081760 11 18 41
-0.085938 -0.585938 -0.089561 14 21 42
-0.082031 -0.585938 -0.096455 13 20 43
-0.078125 -0.585938 -0.101099 11 18 41
-0.074219 -0.585938 -0.104288 11 20 44
-0.070312 -0.585938 -0.106231 12 22 48
-0.066406 -0.585938 -0.108493 11 21 46
-0.062500 -0.585938 -0.110196 11 21 45
-0.058594 -0.585938 -0.111105 11 21 45
-0.054688 -0.585938 -0.110885 11 20 45
-0.050781 -0.585938 -0.111088 11 21 46
-0.046875 -0.585938 -0.110785 11 21 48
-0.042969 -0.585938 -0.109665 12 23 51
-0.039062 -0.585938 -0.106904 12 23 52
-0.035156 -0.585938 -0.104938 14 25 54
-0.031250 -0.585938 -0.102325 16 27 55
-0.027344 -0.585938 -0.097962 15 22 45
-0.023438 -0.585938 -0.090928 21 28 51
-0.019531 -0.585938 -0.066181 24 33 58
0.164062 -0.585938 -0.059217 8 11 42
0.167969 -0.585938 -0.075855 16 19 45
0.171875 -0.585938 -0.083005 10 13 39
0.175781 -0.585938 -0.087933 12 19 58
0.179688 -0.585938 -0.091066 13 22 63
0.183594 -0.585938 -0.093662 13 23 63
0.187500 -0.585938 -0.096092 13 24 63
0.191406 -0.585938 -0.097328 13 23 64
0.195312 -0.585938 -0.097756 13 24 66
0.199219 -0.585938 -0.098245 13 25 66
0.203125 -0.585938 -0.098539 13 25 67
0.207031 -0.585938 -0.098221 13 26 68
0.210938 -0.585938 -0.096963 14 27 68
0.214844 -0.585938 -0.095956 14 28 68
0.218750 -0.585938 -0.094523 15 29 70
0.222656 -0.585938 -0.092412 17 31 71
0.226562 -0.585938 -0.088830 19 33 71
0.230469 -0.585938 -0.085154 19 32 67
0.234375 -0.585938 -0.080755 22 34 69
0.238281 -0.585938 -0.074485 26 39 70
0.242188 -0.585938 -0.063539 36 45 76
-0.089844 -0.589844 -0.081016 11 18 40
-0.085938 -0.589844 -0.088840 15 21 42
-0.082031 -0.589844 -0.096143 13 20 43
-0.078125 -0.589844 -0.100765 11 18 40
-0.074219 -0.589844 -0.104157 11 20 44
-0.070312 -0.589844 -0.106095 13 23 49
-0.066406 -0.589844 -0.108381 12 22 47
-0.062500 -0.589844 -0.110106 12 22 47
-0.058594 -0.589844 -0.111059 12 22 47
-0.054688 -0.589844 -0.110877 11 21 47
-0.050781 -0.589844 -0.111122 11 21 47
-0.046875 -0.589844 -0.110829 11 22 48
-0.042969 -0.589844 -0.109705 12 24 53
-0.039062 -0.589844 -0.106952 13 24 54
-0.035156 -0.589844 -0.104885 14 25 54
-0.031250 -0.589844 -0.102238 17 27 56
-0.027344 -0.589844 -0.097773 16 23 46
-0.023438 -0.589844 -0.090393 24 29 52
0.164062 -0.589844 -0.024911 15 23 64
0.167969 -0.589844 -0.073433 24 26 53
0.171875 -0.589844 -0.082332 17 19 49
0.175781 -0.589844 -0.087292 15 23 64
0.179688 -0.589844 -0.090666 14 23 64
0.183594 -0.589844 -0.093281 13 23 62
0.187500 -0.589844 -0.095820 12 23 61
0.191406 -0.589844 -0.097140 13 23 63
0.195312 -0.589844 -0.097607 13 24 66
0.199219 -0.589844 -0.098136 13 25 66
0.203125 -0.589844 -0.098469 13 26 67
0.207031 -0.589844 -0.098195 14 27 68
0.210938 -0.589844 -0.096970 14 27 69
0.214844 -0.589844 -0.095997 15 28 70
0.218750 -0.589844 -0.094586 16 30 71
0.222656 -0.589844 -0.092486 18 32 72
0.226562 -0.589844 -0.088904 19 33 70
0.230469 -0.589844 -0.085267 20 33 68
0.234375 -0.589844 -0.080898 23 35 70
0.238281 -0.589844 -0.074862 26 39 71
0.242188 -0.589844 -0.064175 29 38 64
-0.089844 -0.593750 -0.079078 11 18 40
-0.085938 -0.593750 -0.088050 13 18 39
-0.082031 -0.593750 -0.095862 13 20 41
-0.078125 -0.593750 -0.100373 11 18 40
-0.074219 -0.593750 -0.103990 12 20 43
-0.070312 -0.593750 -0.105974 13 23 48
-0.066406 -0.593750 -0.108278 12 21 47
-0.062500 -0.593750 -0.110019 12 22 46
-0.058594 -0.593750 -0.111011 12 21 46
-0.054688 -0.593750 -0.110865 11 21 47
-0.050781 -0.593750 -0.111150 11 21 48
-0.046875 -0.593750 -0.110854 11 22 49
-0.042969 -0.593750 -0.109716 13 24 53
-0.039062 -0.593750 -0.106983 13 24 54
-0.035156 -0.593750 -0.104794 13 24 53
-0.031250 -0.593750 -0.102171 17 26 55
-0.027344 -0.593750 -0.097760 16 22 45
-0.023438 -0.593750 -0.089520 24 28 50
0.167969 -0.593750 -0.071233 21 25 61
0.171875 -0.593750 -0.081433 21 22 56
0.175781 -0.593750 -0.086449 16 22 61
0.179688 -0.593750 -0.090198 13 21 59
0.183594 -0.593750 -0.092936 13 22 60
0.187500 -0.593750 -0.095444 12 22 59
0.191406 -0.593750 -0.096894 12 22 61
0.195312 -0.593750 -0.097416 13 23 63
0.199219 -0.593750 -0.097982 13 24 64
0.203125 -0.593750 -0.098370 13 24 65
0.207031 -0.593750 -0.098151 13 25 65
0.210938 -0.593750 -0.096965 14 26 67
0.214844 -0.593750 -0.096031 15 28 68
0.218750 -0.593750 -0.094647 16 29 69
0.222656 -0.593750 -0.092565 17 31 69
0.226562 -0.593750 -0.088988 18 31 67
0.230469 -0.593750 -0.085425 19 32 66
0.234375 -0.593750 -0.081099 22 34 69
0.238281 -0.593750 -0.075195 26 40 72
0.242188 -0.593750 -0.064528 33 43 72
-0.089844 -0.597656 -0.077141 12 19 42
-0.085938 -0.597656 -0.088004 16 23 47
-0.082031 -0.597656 -0.095583 15 23 47
-0.078125 -0.597656 -0.100061 12 19 42
-0.074219 -0.597656 -0.103862 12 20 44
-0.070312 -0.597656 -0.105832 13 23 48
-0.066406 -0.597656 -0.108145 12 22 47
-0.062500 -0.597656 -0.109904 12 21 46
-0.058594 -0.597656 -0.110932 11 20 45
-0.054688 -0.597656 -0.110820 11 20 45
-0.050781 -0.597656 -0.111144 11 21 48
-0.046875 -0.597656 -0.110840 12 22 50
-0.042969 -0.597656 -0.109754 13 24 54
-0.039062 -0.597656 -0.107074 13 24 54
-0.035156 -0.597656 -0.104759 13 23 51
-0.031250 -0.597656 -0.102459 16 25 52
-0.027344 -0.597656 -0.097827 17 23 45
-0.023438 -0.597656 -0.086601 27 30 52
0.167969 -0.597656 -0.069480 16 19 45
0.171875 -0.597656 -0.079031 24 25 61
0.175781 -0.597656 -0.085883 15 20 55
0.179688 -0.597656 -0.089372 12 18 53
0.183594 -0.597656 -0.092574 12 20 57
0.187500 -0.597656 -0.094982 12 21 59
0.191406 -0.597656 -0.096515 13 23 63
0.195312 -0.597656 -0.097165 13 25 65
0.199219 -0.597656 -0.097804 13 25 67
0.203125 -0.597656 -0.098251 13 25 66
0.207031 -0.597656 -0.098098 13 24 64
0.210938 -0.597656 -0.096963 13 26 66
0.214844 -0.597656 -0.096073 14 27 68
0.218750 -0.597656 -0.094726 15 28 68
0.222656 -0.597656 -0.092664 17 30 69
0.226562 -0.597656 -0.089124 18 32 68
0.230469 -0.597656 -0.085679 20 33 68
0.234375 -0.597656 -0.081347 22 34 69
0.238281 -0.597656 -0.075647 28 42 75
0.242188 -0.597656 -0.064761 36 45 76
-0.089844 -0.601562 -0.075064 11 18 40
-0.085938 -0.601562 -0.087534 14 22 47
-0.082031 -0.601562 -0.095307 14 22 46
-0.078125 -0.601562 -0.099774 11 18 40
-0.074219 -0.601562 -0.103784 11 19 42
-0.070312 -0.601562 -0.105705 12 21 46
-0.066406 -0.601562 -0.107997 12 21 46
-0.062500 -0.601562 -0.109788 12 21 46
-0.058594 -0.601562 -0.110848 11 20 45
-0.054688 -0.601562 -0.110758 11 20 46
-0.050781 -0.601562 -0.111120 11 22 49
-0.046875 -0.601562 -0.110797 12 23 51
-0.042969 -0.601562 -0.109741 13 24 54
-0.039062 -0.601562 -0.107107 13 24 54
-0.035156 -0.601562 -0.104632 13 22 50
-0.031250 -0.601562 -0.102554 16 24 51
-0.027344 -0.601562 -0.096813 18 25 47
-0.023438 -0.601562 -0.084784 30 33 54
0.167969 -0.601562 -0.070550 24 26 53
0.171875 -0.601562 -0.077094 30 29 68
0.175781 -0.601562 -0.084559 17 21 56
0.179688 -0.601562 -0.088569 13 18 53
0.183594 -0.601562 -0.091964 13 21 60
0.187500 -0.601562 -0.094426 12 21 60
0.191406 -0.601562 -0.096082 13 23 63
0.195312 -0.601562 -0.096859 14 25 65
0.199219 -0.601562 -0.097574 13 25 66
0.203125 -0.601562 -0.098088 14 26 67
0.207031 -0.601562 -0.098002 13 26 66
0.210938 -0.601562 -0.096928 14 26 67
0.214844 -0.601562 -0.096093 14 27 68
0.218750 -0.601562 -0.094787 15 27 67
0.222656 -0.601562 -0.092749 16 29 67
0.226562 -0.601562 -0.089223 18 31 68
0.230469 -0.601562 -0.085855 20 34 69
0.234375 -0.601562 -0.081543 23 36 72
0.238281 -0.601562 -0.075949 28 42 77
0.242188 -0.601562 -0.066011 33 41 75
-0.089844 -0.605469 -0.078269 10 17 38
-0.085938 -0.605469 -0.087963 15 24 53
-0.082031 -0.605469 -0.095612 13 21 45
-0.078125 -0.605469 -0.099448 10 17 38
-0.074219 -0.605469 -0.103714 11 19 42
-0.070312 -0.605469 -0.105618 12 21 47
-0.066406 -0.605469 -0.107849 12 21 46
-0.062500 -0.605469 -0.109653 12 21 46
-0.058594 -0.605469 -0.110732 11 20 46
-0.054688 -0.605469 -0.110656 11 21 48
-0.050781 -0.605469 -0.111051 12 22 50
-0.046875 -0.605469 -0.110724 12 23 51
-0.042969 -0.605469 -0.109704 13 24 53
-0.039062 -0.605469 -0.107159 13 24 52
-0.035156 -0.605469 -0.104547 13 23 51
-0.031250 -0.605469 -0.102433 15 25 51
-0.027344 -0.605469 -0.095124 19 26 48
-0.023438 -0.605469 -0.086062 24 27 47
0.167969 -0.605469 -0.025081 12 16 48
0.171875 -0.605469 -0.074002 18 18 50
0.175781 -0.605469 -0.082940 16 20 52
0.179688 -0.605469 -0.087596 12 16 48
0.183594 -0.605469 -0.091084 13 20 59
0.187500 -0.605469 -0.093938 12 21 59
0.191406 -0.605469 -0.095637 14 23 64
0.195312 -0.605469 -0.096510 14 25 67
0.199219 -0.605469 -0.097328 13 24 64
0.203125 -0.605469 -0.097936 13 25 65
0.207031 -0.605469 -0.097917 13 25 65
0.210938 -0.605469 -0.096904 13 25 65
0.214844 -0.605469 -0.096125 13 25 65
0.218750 -0.605469 -0.094861 14 26 64
0.222656 -0.605469 -0.092860 15 27 64
0.226562 -0.605469 -0.089395 17 29 64
0.230469 -0.605469 -0.086090 19 31 66
0.234375 -0.605469 -0.081838 23 35 70
0.238281 -0.605469 -0.076157 26 37 72
0.242188 -0.605469 -0.068394 30 37 72
-0.089844 -0.609375 -0.071413 10 16 37
-0.085938 -0.609375 -0.088218 18 29 65
-0.082031 -0.609375 -0.095518 13 21 45
-0.078125 -0.609375 -0.099269 10 16 37
-0.074219 -0.609375 -0.103461 12 20 45
-0.070312 -0.609375 -0.105489 13 23 49
-0.066406 -0.609375 -0.107686 12 21 47
-0.062500 -0.609375 -0.109493 12 21 46
-0.058594 -0.609375 -0.110578 11 21 47
-0.054688 -0.609375 -0.110525 11 21 48
-0.050781 -0.609375 -0.110957 12 22 50
-0.046875 -0.609375 -0.110622 12 23 51
-0.042969 -0.609375 -0.109637 13 24 53
-0.039062 -0.609375 -0.107222 13 24 52
-0.035156 -0.609375 -0.104491 14 23 51
-0.031250 -0.609375 -0.102277 16 25 52
-0.027344 -0.609375 -0.094387 21 30 53
-0.023438 -0.609375 -0.083725 27 30 52
0.171875 -0.609375 -0.071602 24 25 61
0.175781 -0.609375 -0.080892 22 26 64
0.179688 -0.609375 -0.086705 12 16 48
0.183594 -0.609375 -0.090101 12 18 55
0.187500 -0.609375 -0.093448 12 19 57
0.191406 -0.609375 -0.095114 13 23 64
0.195312 -0.609375 -0.096123 15 25 67
0.199219 -0.609375 -0.097064 13 24 64
0.203125 -0.609375 -0.097763 13 25 65
0.207031 -0.609375 -0.097812 13 25 66
0.210938 -0.609375 -0.096862 13 25 65
0.214844 -0.609375 -0.096144 13 26 65
0.218750 -0.609375 -0.094942 15 27 67
0.222656 -0.609375 -0.092994 17 30 69
0.226562 -0.609375 -0.089583 18 32 68
0.230469 -0.609375 -0.086337 19 32 66
0.234375 -0.609375 -0.082177 23 36 71
0.238281 -0.609375 -0.076684 26 36 70
0.242188 -0.609375 -0.069488 32 39 77
0.246094 -0.609375 -0.044448 23 36 71
-0.089844 -0.613281 -0.034718 9 15 35
-0.085938 -0.613281 -0.087168 16 25 58
-0.082031 -0.613281 -0.094961 13 20 42
-0.078125 -0.613281 -0.099239 9 15 35
-0.074219 -0.613281 -0.103066 12 21 45
-0.070312 -0.613281 -0.105348 13 24 50
-0.066406 -0.613281 -0.107536 12 22 48
-0.062500 -0.613281 -0.109346 12 21 47
-0.058594 -0.613281 -0.110419 11 21 47
-0.054688 -0.613281 -0.110378 11 21 48
-0.050781 -0.613281 -0.110839 11 21 48
-0.046875 -0.613281 -0.110505 12 22 49
-0.042969 -0.613281 -0.109544 13 23 52
-0.039062 -0.613281 -0.107175 14 24 53
-0.035156 -0.613281 -0.104211 14 24 52
-0.031250 -0.613281 -0.101699 16 26 52
-0.027344 -0.613281 -0.094867 23 34 57
-0.023438 -0.613281 -0.082359 30 33 54
0.171875 -0.613281 -0.074709 30 29 68
0.175781 -0.613281 -0.079495 24 26 61
0.179688 -0.613281 -0.085428 14 18 51
0.183594 -0.613281 -0.089317 13 20 59
0.187500 -0.613281 -0.092789 12 19 58
0.191406 -0.613281 -0.094549 13 21 62
0.195312 -0.613281 -0.095728 14 23 64
0.199219 -0.613281 -0.096793 13 23 63
0.203125 -0.613281 -0.097592 13 24 65
0.207031 -0.613281 -0.097717 14 25 66
0.210938 -0.613281 -0.096833 13 26 66
0.214844 -0.613281 -0.096181 14 27 67
0.218750 -0.613281 -0.095044 15 28 67
0.222656 -0.613281 -0.093148 17 30 68
0.226562 -0.613281 -0.089790 18 31 67
0.230469 -0.613281 -0.086583 18 31 63
0.234375 -0.613281 -0.082531 22 34 67
0.238281 -0.613281 -0.077353 23 31 64
0.242188 -0.613281 -0.069787 25 31 65
0.246094 -0.613281 -0.054253 22 34 67
-0.085938 -0.617188 -0.086397 20 28 59
-0.082031 -0.617188 -0.094317 16 23 45
-0.078125 -0.617188 -0.099312 9 15 34
-0.074219 -0.617188 -0.102825 11 20 44
-0.070312 -0.617188 -0.105228 13 23 49
-0.066406 -0.617188 -0.107341 12 22 47
-0.062500 -0.617188 -0.109182 12 21 47
-0.058594 -0.617188 -0.110258 11 21 48
-0.054688 -0.617188 -0.110222 12 22 49
-0.050781 -0.617188 -0.110707 12 22 50
-0.046875 -0.617188 -0.110388 12 22 50
-0.042969 -0.617188 -0.109473 13 24 52
-0.039062 -0.617188 -0.107154 14 25 54
-0.035156 -0.617188 -0.104181 15 25 53
-0.031250 -0.617188 -0.101286 18 28 54
-0.027344 -0.617188 -0.094731 23 33 57
-0.023438 -0.617188 -0.078339 24 27 47
0.171875 -0.617188 -0.038646 18 18 50
0.175781 -0.617188 -0.076967 20 21 47
0.179688 -0.617188 -0.084348 16 21 54
0.183594 -0.617188 -0.088457 15 21 62
0.187500 -0.617188 -0.092063 12 19 58
0.191406 -0.617188 -0.094021 13 21 62
0.195312 -0.617188 -0.095350 14 23 65
0.199219 -0.617188 -0.096568 12 22 61
0.203125 -0.617188 -0.097456 12 23 62
0.207031 -0.617188 -0.097650 13 24 63
0.210938 -0.617188 -0.096845 13 25 65
0.214844 -0.617188 -0.096260 14 27 67
0.218750 -0.617188 -0.095186 15 27 65
0.222656 -0.617188 -0.093347 16 28 65
0.226562 -0.617188 -0.090059 17 30 65
0.230469 -0.617188 -0.086921 18 30 62
0.234375 -0.617188 -0.082976 22 34 67
0.238281 -0.617188 -0.078096 22 31 62
0.242188 -0.617188 -0.070560 21 26 57
0.246094 -0.617188 -0.058373 25 28 50
-0.085938 -0.621094 -0.085850 15 18 42
-0.082031 -0.621094 -0.093951 15 20 40
-0.078125 -0.621094 -0.099306 9 14 32
-0.074219 -0.621094 -0.102788 11 20 44
-0.070312 -0.621094 -0.105128 12 22 47
-0.066406 -0.621094 -0.107141 11 21 46
-0.062500 -0.621094 -0.109007 11 21 46
-0.058594 -0.621094 -0.110092 11 21 46
-0.054688 -0.621094 -0.110063 11 21 48
-0.050781 -0.621094 -0.110572 12 23 51
-0.046875 -0.621094 -0.110253 12 23 51
-0.042969 -0.621094 -0.109360 13 24 52
-0.039062 -0.621094 -0.107025 15 26 54
-0.035156 -0.621094 -0.104096 16 26 53
-0.031250 -0.621094 -0.101063 20 30 55
-0.027344 -0.621094 -0.094640 23 31 56
-0.023438 -0.621094 -0.071844 16 26 53
0.175781 -0.621094 -0.071297 22 26 64
0.179688 -0.621094 -0.082424 18 22 52
0.183594 -0.621094 -0.087523 15 20 57
0.187500 -0.621094 -0.091390 11 17 53
0.191406 -0.621094 -0.093585 12 20 59
0.195312 -0.621094 -0.094947 13 23 64
0.199219 -0.621094 -0.096307 12 21 60
0.203125 -0.621094 -0.097314 12 22 60
0.207031 -0.621094 -0.097584 12 23 62
0.210938 -0.621094 -0.096860 13 25 65
0.214844 -0.621094 -0.096350 14 26 65
0.218750 -0.621094 -0.095350 14 26 63
0.222656 -0.621094 -0.093566 15 28 65
0.226562 -0.621094 -0.090308 18 31 67
0.230469 -0.621094 -0.087282 19 32 64
0.234375 -0.621094 -0.083486 23 36 69
0.238281 -0.621094 -0.078854 24 35 67
0.242188 -0.621094 -0.071066 23 30 60
0.246094 -0.621094 -0.059486 28 33 56
-0.085938 -0.625000 -0.085959 14 16 38
-0.082031 -0.625000 -0.093823 15 20 40
-0.078125 -0.625000 -0.099156 9 14 33
-0.074219 -0.625000 -0.102758 12 21 45
-0.070312 -0.625000 -0.104984 12 22 48
-0.066406 -0.625000 -0.106958 11 21 46
-0.062500 -0.625000 -0.108857 11 21 46
-0.058594 -0.625000 -0.109921 11 20 46
-0.054688 -0.625000 -0.109894 11 20 47
-0.050781 -0.625000 -0.110422 12 22 49
-0.046875 -0.625000 -0.110098 12 22 50
-0.042969 -0.625000 -0.109217 13 24 52
-0.039062 -0.625000 -0.106825 15 25 53
-0.035156 -0.625000 -0.103879 16 25 51
-0.031250 -0.625000 -0.100812 20 29 54
-0.027344 -0.625000 -0.094538 23 30 54
0.175781 -0.625000 -0.071441 24 26 61
0.179688 -0.625000 -0.080546 14 18 44
0.183594 -0.625000 -0.086617 13 17 48
0.187500 -0.625000 -0.090664 11 16 48
0.191406 -0.625000 -0.093262 12 20 56
0.195312 -0.625000 -0.094580 13 23 63
0.199219 -0.625000 -0.096096 12 21 60
0.203125 -0.625000 -0.097219 12 23 62
0.207031 -0.625000 -0.097561 13 24 64
0.210938 -0.625000 -0.096914 13 25 65
0.214844 -0.625000 -0.096476 13 25 64
0.218750 -0.625000 -0.095564 13 25 62
0.222656 -0.625000 -0.093853 15 28 64
0.226562 -0.625000 -0.090647 17 31 66
0.230469 -0.625000 -0.087768 18 30 63
0.234375 -0.625000 -0.084044 22 35 67
0.238281 -0.625000 -0.079579 23 35 66
0.242188 -0.625000 -0.071962 24 32 62
0.246094 -0.625000 -0.060497 25 29 51
-0.085938 -0.628906 -0.086217 16 19 44
-0.082031 -0.628906 -0.093428 15 20 42
-0.078125 -0.628906 -0.099039 9 14 33
-0.074219 -0.628906 -0.102685 11 20 45
-0.070312 -0.628906 -0.104768 12 21 47
-0.066406 -0.628906 -0.106720 11 20 45
-0.062500 -0.628906 -0.108655 11 20 45
-0.058594 -0.628906 -0.109728 10 20 45
-0.054688 -0.628906 -0.109711 10 20 45
-0.050781 -0.628906 -0.110250 11 21 48
-0.046875 -0.628906 -0.109953 12 22 49
-0.042969 -0.628906 -0.109062 13 23 52
-0.039062 -0.628906 -0.106593 14 24 52
-0.035156 -0.628906 -0.103788 16 24 51
-0.031250 -0.628906 -0.100622 22 31 56
-0.027344 -0.628906 -0.093821 23 31 56
0.175781 -0.628906 -0.074487 20 21 47
0.179688 -0.628906 -0.080417 19 25 60
0.183594 -0.628906 -0.086082 14 20 53
0.187500 -0.628906 -0.089744 11 17 47
0.191406 -0.628906 -0.092935 12 20 54
0.195312 -0.628906 -0.094290 13 22 60
0.199219 -0.628906 -0.095912 12 21 58
0.203125 -0.628906 -0.097124 12 22 60
0.207031 -0.628906 -0.097529 13 23 62
0.210938 -0.628906 -0.096955 12 24 62
0.214844 -0.628906 -0.096592 12 24 61
0.218750 -0.628906 -0.095764 13 24 61
0.222656 -0.628906 -0.094134 14 27 63
0.226562 -0.628906 -0.090996 16 29 63
0.230469 -0.628906 -0.088240 17 29 61
0.234375 -0.628906 -0.084547 21 34 65
0.238281 -0.628906 -0.080182 23 35 65
0.242188 -0.628906 -0.073023 26 35 65
0.246094 -0.628906 -0.061161 25 28 50
-0.085938 -0.632812 -0.086518 15 18 42
-0.082031 -0.632812 -0.093198 15 20 42
-0.078125 -0.632812 -0.099036 9 14 34
-0.074219 -0.632812 -0.102536 11 20 45
-0.070312 -0.632812 -0.104570 11 21 47
-0.066406 -0.632812 -0.106543 11 20 45
-0.062500 -0.632812 -0.108469 11 20 45
-0.058594 -0.632812 -0.109560 10 20 45
-0.054688 -0.632812 -0.109562 11 20 46
-0.050781 -0.632812 -0.110103 11 21 48
-0.046875 -0.632812 -0.109800 12 22 50
-0.042969 -0.632812 -0.108893 13 24 54
-0.039062 -0.632812 -0.106417 14 23 51
-0.035156 -0.632812 -0.103606 16 24 51
-0.031250 -0.632812 -0.100475 21 29 56
-0.027344 -0.632812 -0.094352 21 28 54
0.175781 -0.632812 -0.056032 11 16 45
0.179688 -0.632812 -0.078249 16 20 55
0.183594 -0.632812 -0.085221 13 18 48
0.187500 -0.632812 -0.089022 11 16 45
0.191406 -0.632812 -0.092358 12 21 54
0.195312 -0.632812 -0.094009 13 23 59
0.199219 -0.632812 -0.095723 12 22 59
0.203125 -0.632812 -0.097050 13 24 62
0.207031 -0.632812 -0.097508 13 24 63
0.210938 -0.632812 -0.097016 13 24 62
0.214844 -0.632812 -0.096736 13 25 63
0.218750 -0.632812 -0.095990 14 26 63
0.222656 -0.632812 -0.094442 15 27 63
0.226562 -0.632812 -0.091381 16 28 63
0.230469 -0.632812 -0.088728 17 30 62
0.234375 -0.632812 -0.085131 21 34 66
0.238281 -0.632812 -0.080881 23 35 64
0.242188 -0.632812 -0.073672 29 38 67
0.246094 -0.632812 -0.061830 28 33 56
-0.085938 -0.636719 -0.086970 17 20 45
-0.082031 -0.636719 -0.093042 15 21 42
-0.078125 -0.636719 -0.098840 9 14 34
-0.074219 -0.636719 -0.102327 11 20 45
-0.070312 -0.636719 -0.104355 11 21 46
-0.066406 -0.636719 -0.106400 11 20 45
-0.062500 -0.636719 -0.108317 11 21 46
-0.058594 -0.636719 -0.109402 11 20 46
-0.054688 -0.636719 -0.109401 11 20 46
-0.050781 -0.636719 -0.109943 11 21 48
-0.046875 -0.636719 -0.109620 12 22 50
-0.042969 -0.636719 -0.108762 14 25 56
-0.039062 -0.636719 -0.106317 14 24 54
-0.035156 -0.636719 -0.103600 15 24 51
-0.031250 -0.636719 -0.100184 18 26 53
-0.027344 -0.636719 -0.093301 20 27 58
0.179688 -0.636719 -0.074981 13 14 43
0.183594 -0.636719 -0.084085 14 19 46
0.187500 -0.636719 -0.088502 12 16 43
0.191406 -0.636719 -0.091686 13 21 55
0.195312 -0.636719 -0.093721 13 22 58
0.199219 -0.636719 -0.095502 12 23 59
0.203125 -0.636719 -0.096960 13 24 62
0.207031 -0.636719 -0.097479 13 24 62
0.210938 -0.636719 -0.097070 13 24 61
0.214844 -0.636719 -0.096862 13 25 62
0.218750 -0.636719 -0.096199 13 25 63
0.222656 -0.636719 -0.094746 14 26 62
0.226562 -0.636719 -0.091767 15 28 62
0.230469 -0.636719 -0.089212 18 30 63
0.234375 -0.636719 -0.085735 22 35 67
0.238281 -0.636719 -0.081612 24 36 65
0.242188 -0.636719 -0.074417 29 37 65
0.246094 -0.636719 -0.063039 25 29 51
-0.085938 -0.640625 -0.087041 15 18 42
-0.082031 -0.640625 -0.093163 14 19 40
-0.078125 -0.640625 -0.098784 9 14 33
-0.074219 -0.640625 -0.102196 11 19 43
-0.070312 -0.640625 -0.104214 11 20 45
-0.066406 -0.640625 -0.106283 11 20 45
-0.062500 -0.640625 -0.108188 11 21 46
-0.058594 -0.640625 -0.109283 11 20 46
-0.054688 -0.640625 -0.109278 11 20 46
-0.050781 -0.640625 -0.109815 11 21 48
-0.046875 -0.640625 -0.109469 12 23 51
-0.042969 -0.640625 -0.108670 14 26 56
-0.039062 -0.640625 -0.106113 15 26 56
-0.035156 -0.640625 -0.103741 16 26 52
-0.031250 -0.640625 -0.099848 19 28 54
-0.027344 -0.640625 -0.091708 23 32 69
0.179688 -0.640625 -0.073742 19 25 60
0.183594 -0.640625 -0.082885 22 26 59
0.187500 -0.640625 -0.088078 14 18 46
0.191406 -0.640625 -0.091150 13 21 55
0.195312 -0.640625 -0.093409 12 21 57
0.199219 -0.640625 -0.095269 12 22 59
0.203125 -0.640625 -0.096871 12 23 59
0.207031 -0.640625 -0.097465 11 22 58
0.210938 -0.640625 -0.097132 12 22 58
0.214844 -0.640625 -0.096987 12 23 60
0.218750 -0.640625 -0.096398 12 24 60
0.222656 -0.640625 -0.095044 13 25 60
0.226562 -0.640625 -0.092149 15 26 60
0.230469 -0.640625 -0.089667 17 29 62
0.234375 -0.640625 -0.086290 21 34 66
0.238281 -0.640625 -0.082268 24 36 65
0.242188 -0.640625 -0.075163 30 40 66
0.246094 -0.640625 -0.064149 23 27 47
-0.085938 -0.644531 -0.085943 14 17 38
-0.082031 -0.644531 -0.093523 14 19 40
-0.078125 -0.644531 -0.098732 10 15 36
-0.074219 -0.644531 -0.102099 11 20 45
-0.070312 -0.644531 -0.104143 11 19 44
-0.066406 -0.644531 -0.106204 11 19 44
-0.062500 -0.644531 -0.108099 11 20 44
-0.058594 -0.644531 -0.109181 10 19 44
-0.054688 -0.644531 -0.109151 11 20 46
-0.050781 -0.644531 -0.109668 12 23 50
-0.046875 -0.644531 -0.109286 12 24 52
-0.042969 -0.644531 -0.108552 14 26 56
-0.039062 -0.644531 -0.105818 14 25 54
-0.035156 -0.644531 -0.103898 14 24 49
-0.031250 -0.644531 -0.099256 18 27 53
-0.027344 -0.644531 -0.090697 13 18 48
0.179688 -0.644531 -0.075682 16 20 55
0.183594 -0.644531 -0.081332 24 26 55
0.187500 -0.644531 -0.087457 13 17 43
0.191406 -0.644531 -0.090854 13 20 53
0.195312 -0.644531 -0.093135 12 21 58
0.199219 -0.644531 -0.095041 12 23 61
0.203125 -0.644531 -0.096770 12 23 61
0.207031 -0.644531 -0.097431 12 23 61
0.210938 -0.644531 -0.097172 13 25 63
0.214844 -0.644531 -0.097096 13 25 64
0.218750 -0.644531 -0.096586 13 25 63
0.222656 -0.644531 -0.095336 14 27 64
0.226562 -0.644531 -0.092525 16 29 65
0.230469 -0.644531 -0.090149 18 30 65
0.234375 -0.644531 -0.086873 21 34 67
0.238281 -0.644531 -0.082910 23 35 65
0.242188 -0.644531 -0.075848 31 42 68
0.246094 -0.644531 -0.065144 25 29 50
-0.085938 -0.648438 -0.085274 12 14 35
-0.082031 -0.648438 -0.093900 12 17 37
-0.078125 -0.648438 -0.098661 10 15 35
-0.074219 -0.648438 -0.102097 11 20 45
-0.070312 -0.648438 -0.104106 11 19 44
-0.066406 -0.648438 -0.106169 11 19 44
-0.062500 -0.648438 -0.108075 10 19 44
-0.058594 -0.648438 -0.109123 10 19 43
-0.054688 -0.648438 -0.109049 10 19 44
-0.050781 -0.648438 -0.109532 11 21 48
-0.046875 -0.648438 -0.109099 11 21 49
-0.042969 -0.648438 -0.108376 12 23 51
-0.039062 -0.648438 -0.105594 13 24 52
-0.035156 -0.648438 -0.103764 14 24 49
-0.031250 -0.648438 -0.098277 22 31 58
-0.027344 -0.648438 -0.090360 13 17 42
0.179688 -0.648438 -0.071497 13 14 43
0.183594 -0.648438 -0.080179 33 34 64
0.187500 -0.648438 -0.086536 17 20 48
0.191406 -0.648438 -0.090380 13 20 54
0.195312 -0.648438 -0.092798 12 20 57
0.199219 -0.648438 -0.094765 12 22 60
0.203125 -0.648438 -0.096625 12 23 61
0.207031 -0.648438 -0.097363 13 24 63
0.210938 -0.648438 -0.097168 13 25 64
0.214844 -0.648438 -0.097160 13 24 63
0.218750 -0.648438 -0.096723 13 24 61
0.222656 -0.648438 -0.095570 14 26 63
0.226562 -0.648438 -0.092850 15 28 64
0.230469 -0.648438 -0.090586 17 30 64
0.234375 -0.648438 -0.087364 20 32 66
0.238281 -0.648438 -0.083523 22 33 63
0.242188 -0.648438 -0.076711 30 40 67
0.246094 -0.648438 -0.065708 25 30 51
-0.085938 -0.652344 -0.084458 17 21 47
-0.082031 -0.652344 -0.094036 14 19 42
-0.078125 -0.652344 -0.098643 10 15 36
-0.074219 -0.652344 -0.102093 12 20 45
-0.070312 -0.652344 -0.104078 12 21 47
-0.066406 -0.652344 -0.106076 11 21 47
-0.062500 -0.652344 -0.108043 11 21 46
-0.058594 -0.652344 -0.109071 10 19 45
-0.054688 -0.652344 -0.108952 10 20 45
-0.050781 -0.652344 -0.109390 12 22 50
-0.046875 -0.652344 -0.108884 11 22 49
-0.042969 -0.652344 -0.108134 12 22 49
-0.039062 -0.652344 -0.105470 14 25 54
-0.035156 -0.652344 -0.103285 15 25 51
-0.031250 -0.652344 -0.097095 26 38 66
-0.027344 -0.652344 -0.089535 20 27 54
0.179688 -0.652344 -0.044964 15 22 59
0.183594 -0.652344 -0.079060 26 25 50
0.187500 -0.652344 -0.085599 22 25 56
0.191406 -0.652344 -0.089641 15 22 59
0.195312 -0.652344 -0.092352 12 21 57
0.199219 -0.652344 -0.094492 12 22 59
0.203125 -0.652344 -0.096435 11 22 59
0.207031 -0.652344 -0.097259 12 23 61
0.210938 -0.652344 -0.097144 12 23 61
0.214844 -0.652344 -0.097201 12 22 58
0.218750 -0.652344 -0.096823 12 23 59
0.222656 -0.652344 -0.095765 13 25 60
0.226562 -0.652344 -0.093135 14 26 61
0.230469 -0.652344 -0.090998 16 27 62
0.234375 -0.652344 -0.087839 18 30 63
0.238281 -0.652344 -0.084075 20 30 59
0.242188 -0.652344 -0.077974 28 38 65
0.246094 -0.652344 -0.066550 26 31 53
-0.085938 -0.656250 -0.084992 14 17 38
-0.082031 -0.656250 -0.093302 14 19 43
-0.078125 -0.656250 -0.098612 9 14 36
-0.074219 -0.656250 -0.102004 12 20 46
-0.070312 -0.656250 -0.104037 12 21 48
-0.066406 -0.656250 -0.106008 12 21 48
-0.062500 -0.656250 -0.108013 11 21 47
-0.058594 -0.656250 -0.109020 10 20 46
-0.054688 -0.656250 -0.108835 11 21 47
-0.050781 -0.656250 -0.109220 13 25 54
-0.046875 -0.656250 -0.108630 13 24 54
-0.042969 -0.656250 -0.107808 12 23 51
-0.039062 -0.656250 -0.105129 15 26 55
-0.035156 -0.656250 -0.102502 15 24 50
-0.031250 -0.656250 -0.096157 21 32 60
-0.027344 -0.656250 -0.086448 16 21 44
0.183594 -0.656250 -0.077053 15 12 29
0.187500 -0.656250 -0.084691 26 29 63
0.191406 -0.656250 -0.088865 16 25 63
0.195312 -0.656250 -0.091889 12 20 57
0.199219 -0.656250 -0.094203 11 21 58
0.203125 -0.656250 -0.096193 11 21 57
0.207031 -0.656250 -0.097127 12 23 60
0.210938 -0.656250 -0.097085 13 24 62
0.214844 -0.656250 -0.097200 13 24 61
0.218750 -0.656250 -0.096889 13 24 61
0.222656 -0.656250 -0.095929 14 26 62
0.226562 -0.656250 -0.093389 15 27 63
0.230469 -0.656250 -0.091355 16 28 64
0.234375 -0.656250 -0.088226 18 30 65
0.238281 -0.656250 -0.084560 19 30 60
0.242188 -0.656250 -0.078602 28 39 66
0.246094 -0.656250 -0.066975 27 31 54
-0.085938 -0.660156 -0.093884 12 14 35
-0.082031 -0.660156 -0.093481 12 18 42
-0.078125 -0.660156 -0.098550 10 15 37
-0.074219 -0.660156 -0.101834 12 20 48
-0.070312 -0.660156 -0.103932 12 21 49
-0.066406 -0.660156 -0.105945 11 21 48
-0.062500 -0.660156 -0.107951 11 21 48
-0.058594 -0.660156 -0.108958 10 20 46
-0.054688 -0.660156 -0.108727 10 20 47
-0.050781 -0.660156 -0.109077 12 23 52
-0.046875 -0.660156 -0.108400 12 23 52
-0.042969 -0.660156 -0.107477 12 22 50
-0.039062 -0.660156 -0.104769 15 26 54
-0.035156 -0.660156 -0.101639 15 23 49
-0.031250 -0.660156 -0.096859 22 30 57
-0.027344 -0.660156 -0.083627 17 21 44
0.183594 -0.660156 -0.072151 22 20 35
0.187500 -0.660156 -0.082872 33 39 76
0.191406 -0.660156 -0.088037 16 25 65
0.195312 -0.660156 -0.091354 12 20 57
0.199219 -0.660156 -0.093817 11 20 56
0.203125 -0.660156 -0.095885 10 19 54
0.207031 -0.660156 -0.096949 11 21 59
0.210938 -0.660156 -0.096995 14 25 64
0.214844 -0.660156 -0.097172 13 25 63
0.218750 -0.660156 -0.096924 13 24 61
0.222656 -0.660156 -0.096060 13 25 61
0.226562 -0.660156 -0.093647 15 27 63
0.230469 -0.660156 -0.091643 16 29 65
0.234375 -0.660156 -0.088439 18 30 65
0.238281 -0.660156 -0.085070 19 30 61
0.242188 -0.660156 -0.078999 28 39 67
0.246094 -0.660156 -0.067353 25 29 52
-0.085938 -0.664062 -0.060151 17 21 47
-0.082031 -0.664062 -0.093347 15 21 47
-0.078125 -0.664062 -0.098194 11 17 41
-0.074219 -0.664062 -0.101383 12 20 48
-0.070312 -0.664062 -0.103584 12 21 48
-0.066406 -0.664062 -0.105764 11 21 48
-0.062500 -0.664062 -0.107785 12 22 50
-0.058594 -0.664062 -0.108826 11 22 50
-0.054688 -0.664062 -0.108547 10 21 49
-0.050781 -0.664062 -0.108865 11 22 52
-0.046875 -0.664062 -0.108151 12 23 52
-0.042969 -0.664062 -0.107113 13 23 52
-0.039062 -0.664062 -0.104371 16 26 55
-0.035156 -0.664062 -0.100917 16 25 51
-0.031250 -0.664062 -0.096288 25 34 62
0.183594 -0.664062 -0.071087 26 25 50
0.187500 -0.664062 -0.081286 31 39 73
0.191406 -0.664062 -0.087204 15 24 60
0.195312 -0.664062 -0.090795 12 21 57
0.199219 -0.664062 -0.093521 11 21 58
0.203125 -0.664062 -0.095553 10 19 55
0.207031 -0.664062 -0.096739 11 21 59
0.210938 -0.664062 -0.096880 14 25 64
0.214844 -0.664062 -0.097114 13 23 61
0.218750 -0.664062 -0.096924 12 22 58
0.222656 -0.664062 -0.096132 13 24 59
0.226562 -0.664062 -0.093842 14 27 64
0.230469 -0.664062 -0.091878 16 29 66
0.234375 -0.664062 -0.088826 18 31 66
0.238281 -0.664062 -0.085623 19 30 61
0.242188 -0.664062 -0.079193 26 36 65
0.246094 -0.664062 -0.070482 22 26 48
-0.082031 -0.667969 -0.089357 11 15 34
-0.078125 -0.667969 -0.097154 12 18 41
-0.074219 -0.667969 -0.100939 12 21 47
-0.070312 -0.667969 -0.103202 12 21 47
-0.066406 -0.667969 -0.105572 11 21 47
-0.062500 -0.667969 -0.107541 12 22 51
-0.058594 -0.667969 -0.108635 12 23 53
-0.054688 -0.667969 -0.108339 11 22 52
-0.050781 -0.667969 -0.108652 12 23 54
-0.046875 -0.667969 -0.107863 12 24 54
-0.042969 -0.667969 -0.106605 13 23 52
-0.039062 -0.667969 -0.103742 16 26 54
-0.035156 -0.667969 -0.100617 19 27 54
-0.031250 -0.667969 -0.093553 30 38 69
