ply
    format ascii 1.0
    element vertex 65738
    property float x
    property float y
    property float z
    property uchar red
    property uchar green
    property uchar blue
    end_header
0.183594 -0.261719 -0.030255 12 25 66
0.187500 -0.261719 -0.025748 12 25 59
0.191406 -0.261719 -0.021912 11 19 44
0.195312 -0.261719 -0.013702 10 16 35
0.199219 -0.261719 -0.003836 49 59 97
0.203125 -0.261719 0.004253 148 133 154
0.230469 -0.261719 0.105527 114 97 135
0.234375 -0.261719 0.095829 182 153 181
0.238281 -0.261719 0.086085 199 158 170
0.242188 -0.261719 0.074924 174 108 105
0.246094 -0.261719 0.069661 149 73 63
0.250000 -0.261719 0.069126 62 21 20
0.253906 -0.261719 0.077995 37 11 11
-0.148438 -0.265625 0.018677 100 60 58
-0.144531 -0.265625 0.017301 131 75 69
-0.140625 -0.265625 0.024449 154 87 76
-0.136719 -0.265625 0.036154 177 104 92
-0.132812 -0.265625 0.030952 134 65 60
-0.089844 -0.265625 -0.035704 18 25 56
-0.085938 -0.265625 -0.046798 18 27 64
-0.082031 -0.265625 -0.055016 15 24 64
-0.078125 -0.265625 -0.061546 14 23 64
-0.074219 -0.265625 -0.066630 14 25 67
-0.070312 -0.265625 -0.070996 14 25 69
-0.066406 -0.265625 -0.074928 13 25 70
-0.062500 -0.265625 -0.078608 13 24 69
-0.058594 -0.265625 -0.081500 13 25 71
-0.054688 -0.265625 -0.083665 14 26 73
-0.050781 -0.265625 -0.085831 14 27 74
-0.046875 -0.265625 -0.087667 14 27 75
-0.042969 -0.265625 -0.088772 14 28 75
-0.039062 -0.265625 -0.089266 14 28 76
-0.035156 -0.265625 -0.089764 14 28 76
-0.031250 -0.265625 -0.090181 14 28 75
-0.027344 -0.265625 -0.090038 13 27 74
-0.023438 -0.265625 -0.089382 14 28 74
-0.019531 -0.265625 -0.088685 14 28 75
-0.015625 -0.265625 -0.087840 14 28 75
-0.011719 -0.265625 -0.086462 14 28 74
-0.007812 -0.265625 -0.084448 14 27 72
-0.003906 -0.265625 -0.082577 13 27 70
0.000000 -0.265625 -0.080222 13 26 66
0.003906 -0.265625 -0.077226 13 26 63
0.007812 -0.265625 -0.073045 12 24 58
0.011719 -0.265625 -0.068996 12 22 53
0.015625 -0.265625 -0.063864 12 21 50
0.019531 -0.265625 -0.057711 12 19 45
0.023438 -0.265625 -0.047989 16 24 50
0.085938 -0.265625 0.004159 13 20 74
0.089844 -0.265625 -0.006407 15 27 91
0.093750 -0.265625 -0.013504 14 26 89
0.097656 -0.265625 -0.018695 14 27 93
0.101562 -0.265625 -0.022921 15 30 101
0.105469 -0.265625 -0.026928 14 30 102
0.109375 -0.265625 -0.030469 13 30 102
0.113281 -0.265625 -0.033094 13 30 102
0.117188 -0.265625 -0.035102 13 32 104
0.121094 -0.265625 -0.037131 14 33 106
0.125000 -0.265625 -0.038986 14 34 109
0.128906 -0.265625 -0.040257 14 34 108
0.132812 -0.265625 -0.041076 14 34 109
0.136719 -0.265625 -0.041974 14 34 109
0.140625 -0.265625 -0.042857 14 34 108
0.144531 -0.265625 -0.043205 14 34 108
0.148438 -0.265625 -0.042959 14 35 109
0.152344 -0.265625 -0.043038 14 34 107
0.156250 -0.265625 -0.043213 14 32 104
0.160156 -0.265625 -0.042378 14 32 103
0.164062 -0.265625 -0.040903 14 31 100
0.167969 -0.265625 -0.039893 15 31 98
0.171875 -0.265625 -0.038855 14 30 93
0.175781 -0.265625 -0.036694 13 28 83
0.179688 -0.265625 -0.033619 14 29 79
0.183594 -0.265625 -0.030264 12 25 65
0.187500 -0.265625 -0.025609 12 24 57
0.191406 -0.265625 -0.021687 11 19 43
0.195312 -0.265625 -0.013725 12 18 42
0.199219 -0.265625 -0.004862 72 83 126
0.203125 -0.265625 0.008382 152 137 159
0.230469 -0.265625 0.098677 143 126 159
0.234375 -0.265625 0.090633 196 170 192
0.238281 -0.265625 0.081826 198 155 167
0.242188 -0.265625 0.072792 185 122 120
0.246094 -0.265625 0.069942 146 78 72
0.250000 -0.265625 0.069521 73 31 30
0.253906 -0.265625 0.062725 88 42 39
-0.144531 -0.269531 0.021012 148 92 81
-0.140625 -0.269531 0.021030 152 87 75
-0.136719 -0.269531 0.031354 174 103 90
-0.132812 -0.269531 0.043437 149 76 70
-0.089844 -0.269531 -0.033221 17 24 52
-0.085938 -0.269531 -0.045629 20 31 68
-0.082031 -0.269531 -0.054164 15 24 61
-0.078125 -0.269531 -0.060665 13 22 61
-0.074219 -0.269531 -0.065916 14 24 65
-0.070312 -0.269531 -0.070336 14 25 69
-0.066406 -0.269531 -0.074320 13 25 69
-0.062500 -0.269531 -0.078088 13 24 68
-0.058594 -0.269531 -0.081034 13 25 70
-0.054688 -0.269531 -0.083259 13 26 72
-0.050781 -0.269531 -0.085476 14 26 73
-0.046875 -0.269531 -0.087364 14 27 74
-0.042969 -0.269531 -0.088507 14 27 74
-0.039062 -0.269531 -0.089026 14 26 72
-0.035156 -0.269531 -0.089547 13 27 73
-0.031250 -0.269531 -0.089974 14 27 74
-0.027344 -0.269531 -0.089837 13 27 73
-0.023438 -0.269531 -0.089181 13 26 72
-0.019531 -0.269531 -0.088489 13 27 74
-0.015625 -0.269531 -0.087657 13 27 73
-0.011719 -0.269531 -0.086286 13 26 71
-0.007812 -0.269531 -0.084265 13 26 69
-0.003906 -0.269531 -0.082403 13 26 68
0.000000 -0.269531 -0.080043 13 26 64
0.003906 -0.269531 -0.077069 13 25 60
0.007812 -0.269531 -0.072876 12 23 55
0.011719 -0.269531 -0.068738 12 21 52
0.015625 -0.269531 -0.063529 12 20 48
0.019531 -0.269531 -0.057078 12 19 43
0.023438 -0.269531 -0.047538 17 24 51
0.085938 -0.269531 0.005378 15 21 74
0.089844 -0.269531 -0.004709 15 26 88
0.093750 -0.269531 -0.011977 13 24 82
0.097656 -0.269531 -0.017487 14 26 90
0.101562 -0.269531 -0.021922 14 30 99
0.105469 -0.269531 -0.026019 13 29 99
0.109375 -0.269531 -0.029680 13 29 99
0.113281 -0.269531 -0.032399 13 30 102
0.117188 -0.269531 -0.034471 14 32 105
0.121094 -0.269531 -0.036552 14 33 106
0.125000 -0.269531 -0.038474 14 34 108
0.128906 -0.269531 -0.039794 13 34 108
0.132812 -0.269531 -0.040650 14 35 110
0.136719 -0.269531 -0.041586 14 34 109
0.140625 -0.269531 -0.042511 13 33 106
0.144531 -0.269531 -0.042893 13 33 105
0.148438 -0.269531 -0.042680 14 34 106
0.152344 -0.269531 -0.042798 15 34 107
0.156250 -0.269531 -0.043007 15 33 105
0.160156 -0.269531 -0.042216 14 32 102
0.164062 -0.269531 -0.040785 14 30 98
0.167969 -0.269531 -0.039801 14 31 96
0.171875 -0.269531 -0.038781 15 31 92
0.175781 -0.269531 -0.036635 14 29 84
0.179688 -0.269531 -0.033531 15 30 79
0.183594 -0.269531 -0.030247 12 24 61
0.187500 -0.269531 -0.025577 11 23 53
0.191406 -0.269531 -0.021507 11 19 44
0.195312 -0.269531 -0.013529 13 20 47
0.199219 -0.269531 -0.005230 78 87 133
0.203125 -0.269531 0.009959 152 137 163
0.230469 -0.269531 0.089837 173 154 181
0.234375 -0.269531 0.082554 203 176 195
0.238281 -0.269531 0.076864 188 141 154
0.242188 -0.269531 0.071953 176 111 113
0.246094 -0.269531 0.069662 111 59 62
0.250000 -0.269531 0.070549 48 27 34
-0.144531 -0.273438 0.024286 112 69 60
-0.140625 -0.273438 0.019823 131 73 63
-0.136719 -0.273438 0.026574 164 93 83
-0.132812 -0.273438 0.036652 158 83 76
-0.128906 -0.273438 0.040061 150 75 68
-0.089844 -0.273438 -0.031495 15 20 43
-0.085938 -0.273438 -0.044399 21 32 68
-0.082031 -0.273438 -0.053378 14 23 59
-0.078125 -0.273438 -0.059902 13 22 60
-0.074219 -0.273438 -0.065282 14 25 65
-0.070312 -0.273438 -0.069667 14 26 68
-0.066406 -0.273438 -0.073704 14 25 69
-0.062500 -0.273438 -0.077561 13 24 68
-0.058594 -0.273438 -0.080556 13 25 70
-0.054688 -0.273438 -0.082842 13 26 72
-0.050781 -0.273438 -0.085105 13 26 71
-0.046875 -0.273438 -0.087038 13 26 71
-0.042969 -0.273438 -0.088218 13 26 71
-0.039062 -0.273438 -0.088761 13 25 70
-0.035156 -0.273438 -0.089304 13 25 70
-0.031250 -0.273438 -0.089739 13 26 72
-0.027344 -0.273438 -0.089608 13 26 71
-0.023438 -0.273438 -0.088954 13 26 71
-0.019531 -0.273438 -0.088270 13 27 73
-0.015625 -0.273438 -0.087449 13 27 72
-0.011719 -0.273438 -0.086084 13 26 70
-0.007812 -0.273438 -0.084061 13 26 70
-0.003906 -0.273438 -0.082203 13 26 68
0.000000 -0.273438 -0.079833 13 26 64
0.003906 -0.273438 -0.076873 13 25 60
0.007812 -0.273438 -0.072681 12 23 55
0.011719 -0.273438 -0.068504 12 21 51
0.015625 -0.273438 -0.063287 12 21 49
0.019531 -0.273438 -0.056329 12 19 43
0.023438 -0.273438 -0.046893 18 24 50
0.085938 -0.273438 0.007971 10 13 54
0.089844 -0.273438 -0.002661 15 24 83
0.093750 -0.273438 -0.010303 13 24 80
0.097656 -0.273438 -0.016231 15 29 92
0.101562 -0.273438 -0.020804 15 31 100
0.105469 -0.273438 -0.025048 13 30 99
0.109375 -0.273438 -0.028856 13 29 100
0.113281 -0.273438 -0.031664 13 31 103
0.117188 -0.273438 -0.033786 14 33 105
0.121094 -0.273438 -0.035923 13 33 106
0.125000 -0.273438 -0.037904 14 34 109
0.128906 -0.273438 -0.039275 14 34 109
0.132812 -0.273438 -0.040170 14 35 110
0.136719 -0.273438 -0.041142 13 34 108
0.140625 -0.273438 -0.042103 13 32 104
0.144531 -0.273438 -0.042516 13 32 103
0.148438 -0.273438 -0.042341 14 33 104
0.152344 -0.273438 -0.042501 15 34 106
0.156250 -0.273438 -0.042743 15 34 105
0.160156 -0.273438 -0.042000 15 32 101
0.164062 -0.273438 -0.040626 14 31 98
0.167969 -0.273438 -0.039670 15 31 95
0.171875 -0.273438 -0.038679 15 30 90
0.175781 -0.273438 -0.036582 14 28 81
0.179688 -0.273438 -0.033472 15 29 76
0.183594 -0.273438 -0.030234 11 22 57
0.187500 -0.273438 -0.025677 11 21 51
0.191406 -0.273438 -0.021593 14 23 51
0.195312 -0.273438 -0.013965 14 22 50
0.199219 -0.273438 -0.006138 56 64 110
0.203125 -0.273438 0.011338 137 123 158
0.230469 -0.273438 0.083814 174 151 176
0.234375 -0.273438 0.076031 195 161 181
0.238281 -0.273438 0.072595 174 120 136
0.242188 -0.273438 0.070724 143 78 84
0.246094 -0.273438 0.070476 79 44 47
0.250000 -0.273438 0.069140 62 21 20
-0.140625 -0.277344 0.024932 58 29 31
-0.136719 -0.277344 0.024498 112 52 51
-0.132812 -0.277344 0.030273 146 73 68
-0.128906 -0.277344 0.045162 168 90 82
-0.125000 -0.277344 0.049731 146 70 67
-0.089844 -0.277344 -0.031332 14 18 38
-0.085938 -0.277344 -0.042949 22 34 68
-0.082031 -0.277344 -0.052351 14 23 58
-0.078125 -0.277344 -0.058986 13 22 58
-0.074219 -0.277344 -0.064569 14 24 63
-0.070312 -0.277344 -0.068993 14 25 66
-0.066406 -0.277344 -0.073091 13 24 66
-0.062500 -0.277344 -0.077023 13 24 66
-0.058594 -0.277344 -0.080065 13 25 69
-0.054688 -0.277344 -0.082420 13 25 70
-0.050781 -0.277344 -0.084728 13 25 70
-0.046875 -0.277344 -0.086708 13 25 70
-0.042969 -0.277344 -0.087924 13 25 70
-0.039062 -0.277344 -0.088492 13 25 70
-0.035156 -0.277344 -0.089053 13 26 71
-0.031250 -0.277344 -0.089493 13 27 72
-0.027344 -0.277344 -0.089372 13 26 71
-0.023438 -0.277344 -0.088725 13 26 71
-0.019531 -0.277344 -0.088045 13 26 72
-0.015625 -0.277344 -0.087225 13 26 71
-0.011719 -0.277344 -0.085862 13 26 70
-0.007812 -0.277344 -0.083839 13 26 69
-0.003906 -0.277344 -0.081985 13 26 66
0.000000 -0.277344 -0.079619 13 25 63
0.003906 -0.277344 -0.076657 13 25 60
0.007812 -0.277344 -0.072489 12 23 55
0.011719 -0.277344 -0.068273 12 21 51
0.015625 -0.277344 -0.063045 13 22 50
0.019531 -0.277344 -0.055668 12 19 43
0.023438 -0.277344 -0.046566 16 22 46
0.085938 -0.277344 0.014603 19 25 83
0.089844 -0.277344 -0.000473 22 34 99
0.093750 -0.277344 -0.008765 15 25 81
0.097656 -0.277344 -0.014992 15 29 92
0.101562 -0.277344 -0.019636 14 30 97
0.105469 -0.277344 -0.023987 13 30 99
0.109375 -0.277344 -0.027940 13 31 102
0.113281 -0.277344 -0.030873 13 31 104
0.117188 -0.277344 -0.033066 13 32 104
0.121094 -0.277344 -0.035259 13 32 104
0.125000 -0.277344 -0.037294 13 33 107
0.128906 -0.277344 -0.038717 13 33 107
0.132812 -0.277344 -0.039655 13 34 109
0.136719 -0.277344 -0.040670 13 33 106
0.140625 -0.277344 -0.041672 13 32 104
0.144531 -0.277344 -0.042118 13 33 104
0.148438 -0.277344 -0.041976 14 33 105
0.152344 -0.277344 -0.042180 15 34 105
0.156250 -0.277344 -0.042460 16 34 104
0.160156 -0.277344 -0.041768 16 33 101
0.164062 -0.277344 -0.040459 16 32 98
0.167969 -0.277344 -0.039525 16 32 96
0.171875 -0.277344 -0.038534 15 30 89
0.175781 -0.277344 -0.036485 14 28 80
0.179688 -0.277344 -0.033361 16 31 78
0.183594 -0.277344 -0.030256 11 22 57
0.187500 -0.277344 -0.025828 12 22 54
0.191406 -0.277344 -0.021341 19 29 63
0.195312 -0.277344 -0.013655 17 25 56
0.199219 -0.277344 -0.005885 38 45 89
0.203125 -0.277344 0.011285 116 101 145
0.226562 -0.277344 0.085762 131 106 140
0.230469 -0.277344 0.077839 186 159 181
0.234375 -0.277344 0.071565 198 162 178
0.238281 -0.277344 0.068310 173 121 131
0.242188 -0.277344 0.068397 90 51 55
0.246094 -0.277344 0.074407 146 78 72
0.250000 -0.277344 0.064034 73 31 30
-0.136719 -0.281250 0.026116 69 34 35
-0.132812 -0.281250 0.029229 116 54 54
-0.128906 -0.281250 0.042402 163 85 81
-0.125000 -0.281250 0.052884 160 82 79
-0.121094 -0.281250 0.042350 132 59 58
-0.085938 -0.281250 -0.040142 21 32 65
-0.082031 -0.281250 -0.051463 13 22 56
-0.078125 -0.281250 -0.058249 13 22 57
-0.074219 -0.281250 -0.063733 14 24 62
-0.070312 -0.281250 -0.068341 14 25 66
-0.066406 -0.281250 -0.072510 14 25 67
-0.062500 -0.281250 -0.076512 13 25 68
-0.058594 -0.281250 -0.079582 13 25 70
-0.054688 -0.281250 -0.081996 13 25 69
-0.050781 -0.281250 -0.084349 13 25 69
-0.046875 -0.281250 -0.086375 12 24 69
-0.042969 -0.281250 -0.087623 12 24 69
-0.039062 -0.281250 -0.088211 12 25 69
-0.035156 -0.281250 -0.088791 13 25 69
-0.031250 -0.281250 -0.089235 13 25 70
-0.027344 -0.281250 -0.089119 13 25 69
-0.023438 -0.281250 -0.088476 13 25 69
-0.019531 -0.281250 -0.087800 13 26 70
-0.015625 -0.281250 -0.086984 12 25 69
-0.011719 -0.281250 -0.085630 13 25 69
-0.007812 -0.281250 -0.083614 13 26 68
-0.003906 -0.281250 -0.081763 12 25 64
0.000000 -0.281250 -0.079410 12 24 61
0.003906 -0.281250 -0.076464 12 24 59
0.007812 -0.281250 -0.072300 12 23 54
0.011719 -0.281250 -0.067981 12 22 51
0.015625 -0.281250 -0.062821 13 22 51
0.019531 -0.281250 -0.055156 12 18 42
0.023438 -0.281250 -0.045373 15 20 42
0.089844 -0.281250 0.002014 20 30 89
0.093750 -0.281250 -0.006763 12 20 69
0.097656 -0.281250 -0.013364 14 27 88
0.101562 -0.281250 -0.018406 14 29 96
0.105469 -0.281250 -0.022931 14 30 100
0.109375 -0.281250 -0.027008 14 32 103
0.113281 -0.281250 -0.030026 14 31 104
0.117188 -0.281250 -0.032278 13 31 103
0.121094 -0.281250 -0.034533 13 32 105
0.125000 -0.281250 -0.036632 13 33 106
0.128906 -0.281250 -0.038105 13 33 106
0.132812 -0.281250 -0.039084 13 34 108
0.136719 -0.281250 -0.040142 13 32 105
0.140625 -0.281250 -0.041184 13 32 104
0.144531 -0.281250 -0.041665 14 33 105
0.148438 -0.281250 -0.041561 14 33 104
0.152344 -0.281250 -0.041802 15 33 102
0.156250 -0.281250 -0.042112 15 33 100
0.160156 -0.281250 -0.041473 15 32 96
0.164062 -0.281250 -0.040218 15 30 93
0.167969 -0.281250 -0.039316 15 30 92
0.171875 -0.281250 -0.038333 15 29 86
0.175781 -0.281250 -0.036308 14 29 79
0.179688 -0.281250 -0.033182 17 32 79
0.183594 -0.281250 -0.030153 11 22 57
0.187500 -0.281250 -0.025896 13 24 57
0.191406 -0.281250 -0.021451 22 31 67
0.195312 -0.281250 -0.013340 20 27 60
0.199219 -0.281250 -0.004812 45 49 100
0.203125 -0.281250 0.006228 102 86 136
0.214844 -0.281250 0.093931 120 75 103
0.222656 -0.281250 0.089236 177 144 170
0.226562 -0.281250 0.081189 182 152 176
0.230469 -0.281250 0.072261 199 169 186
0.234375 -0.281250 0.067141 198 159 171
0.238281 -0.281250 0.067803 160 114 121
0.242188 -0.281250 0.070194 61 42 50
0.246094 -0.281250 0.074086 111 59 62
-0.132812 -0.285156 0.044394 69 30 35
-0.128906 -0.285156 0.042607 116 50 53
-0.125000 -0.285156 0.046877 141 69 67
-0.121094 -0.285156 0.059115 154 80 75
-0.085938 -0.285156 -0.038016 17 25 54
-0.082031 -0.285156 -0.050377 14 22 54
-0.078125 -0.285156 -0.057630 14 22 56
-0.074219 -0.285156 -0.063024 15 25 62
-0.070312 -0.285156 -0.067779 15 25 65
-0.066406 -0.285156 -0.071965 14 25 67
-0.062500 -0.285156 -0.076004 13 25 67
-0.058594 -0.285156 -0.079097 13 25 69
-0.054688 -0.285156 -0.081565 13 25 69
-0.050781 -0.285156 -0.083952 13 25 70
-0.046875 -0.285156 -0.086019 12 24 69
-0.042969 -0.285156 -0.087291 12 24 69
-0.039062 -0.285156 -0.087893 12 25 69
-0.035156 -0.285156 -0.088489 12 25 69
-0.031250 -0.285156 -0.088940 12 24 68
-0.027344 -0.285156 -0.088827 12 24 68
-0.023438 -0.285156 -0.088186 12 25 68
-0.019531 -0.285156 -0.087523 13 25 69
-0.015625 -0.285156 -0.086715 12 25 68
-0.011719 -0.285156 -0.085373 13 26 68
-0.007812 -0.285156 -0.083362 13 26 67
-0.003906 -0.285156 -0.081513 12 24 63
0.000000 -0.285156 -0.079176 12 24 60
0.003906 -0.285156 -0.076226 12 24 59
0.007812 -0.285156 -0.072067 12 22 54
0.011719 -0.285156 -0.067656 12 22 51
0.015625 -0.285156 -0.062356 13 22 50
0.019531 -0.285156 -0.054316 12 18 42
0.023438 -0.285156 -0.044952 17 22 45
0.089844 -0.285156 0.004036 26 36 93
0.093750 -0.285156 -0.004326 13 20 67
0.097656 -0.285156 -0.011541 15 28 90
0.101562 -0.285156 -0.017096 16 31 98
0.105469 -0.285156 -0.021890 15 32 101
0.109375 -0.285156 -0.026045 15 32 104
0.113281 -0.285156 -0.029148 14 31 103
0.117188 -0.285156 -0.031460 13 30 102
0.121094 -0.285156 -0.033792 13 32 106
0.125000 -0.285156 -0.035963 14 33 109
0.128906 -0.285156 -0.037493 13 33 107
0.132812 -0.285156 -0.038525 14 34 108
0.136719 -0.285156 -0.039626 13 32 104
0.140625 -0.285156 -0.040705 13 31 101
0.144531 -0.285156 -0.041221 14 32 103
0.148438 -0.285156 -0.041156 14 33 102
0.152344 -0.285156 -0.041430 15 33 101
0.156250 -0.285156 -0.041768 15 33 99
0.160156 -0.285156 -0.041184 15 31 94
0.164062 -0.285156 -0.039983 14 28 88
0.167969 -0.285156 -0.039126 14 29 89
0.171875 -0.285156 -0.038153 14 28 84
0.175781 -0.285156 -0.036154 14 28 79
0.179688 -0.285156 -0.033018 16 32 80
0.183594 -0.285156 -0.029942 11 21 56
0.187500 -0.285156 -0.025823 15 25 59
0.191406 -0.285156 -0.021698 21 27 59
0.195312 -0.285156 -0.013356 29 33 70
0.199219 -0.285156 -0.004704 118 115 168
0.203125 -0.285156 0.001370 142 116 166
0.210938 -0.285156 0.096422 166 117 145
0.214844 -0.285156 0.095161 138 95 124
0.218750 -0.285156 0.090510 192 152 175
0.222656 -0.285156 0.087079 201 169 188
0.226562 -0.285156 0.080990 185 150 171
0.230469 -0.285156 0.073826 173 133 154
0.234375 -0.285156 0.071830 154 107 123
0.238281 -0.285156 0.073578 109 69 80
0.242188 -0.285156 0.062135 143 78 84
-0.125000 -0.289062 0.060635 85 37 40
-0.121094 -0.289062 0.068684 152 82 78
-0.085938 -0.289062 -0.037202 14 21 49
-0.082031 -0.289062 -0.049011 16 24 56
-0.078125 -0.289062 -0.056729 15 24 56
-0.074219 -0.289062 -0.062286 16 26 61
-0.070312 -0.289062 -0.067149 14 25 63
-0.066406 -0.289062 -0.071415 14 25 65
-0.062500 -0.289062 -0.075483 12 23 64
-0.058594 -0.289062 -0.078586 12 23 65
-0.054688 -0.289062 -0.081099 12 24 68
-0.050781 -0.289062 -0.083518 12 24 69
-0.046875 -0.289062 -0.085619 12 24 69
-0.042969 -0.289062 -0.086912 12 25 70
-0.039062 -0.289062 -0.087527 13 26 71
-0.035156 -0.289062 -0.088139 12 25 69
-0.031250 -0.289062 -0.088602 12 25 69
-0.027344 -0.289062 -0.088501 12 25 68
-0.023438 -0.289062 -0.087867 12 25 67
-0.019531 -0.289062 -0.087220 12 25 67
-0.015625 -0.289062 -0.086428 12 25 67
-0.011719 -0.289062 -0.085104 12 25 67
-0.007812 -0.289062 -0.083102 12 25 64
-0.003906 -0.289062 -0.081258 11 23 60
0.000000 -0.289062 -0.078938 12 23 58
0.003906 -0.289062 -0.076012 12 23 57
0.007812 -0.289062 -0.071906 11 22 53
0.011719 -0.289062 -0.067389 12 21 50
0.015625 -0.289062 -0.061930 12 21 48
0.019531 -0.289062 -0.054461 12 18 42
0.023438 -0.289062 -0.044210 19 25 51
0.089844 -0.289062 0.008263 36 44 99
0.093750 -0.289062 -0.002584 14 21 68
0.097656 -0.289062 -0.010091 16 27 89
0.101562 -0.289062 -0.015668 16 30 95
0.105469 -0.289062 -0.020723 15 30 97
0.109375 -0.289062 -0.025037 14 30 100
0.113281 -0.289062 -0.028238 13 30 101
0.117188 -0.289062 -0.030613 12 29 100
0.121094 -0.289062 -0.033020 13 31 105
0.125000 -0.289062 -0.035260 14 32 107
0.128906 -0.289062 -0.036848 13 32 106
0.132812 -0.289062 -0.037928 13 32 106
0.136719 -0.289062 -0.039078 13 30 101
0.140625 -0.289062 -0.040196 13 29 98
0.144531 -0.289062 -0.040746 13 31 99
0.148438 -0.289062 -0.040717 14 32 100
0.152344 -0.289062 -0.041027 15 33 100
0.156250 -0.289062 -0.041394 15 33 98
0.160156 -0.289062 -0.040860 15 31 93
0.164062 -0.289062 -0.039705 14 29 88
0.167969 -0.289062 -0.038867 15 30 88
0.171875 -0.289062 -0.037887 14 29 83
0.175781 -0.289062 -0.035879 14 29 79
0.179688 -0.289062 -0.032766 16 32 81
0.183594 -0.289062 -0.029722 11 22 58
0.187500 -0.289062 -0.025541 17 29 64
0.191406 -0.289062 -0.021534 20 25 53
0.195312 -0.289062 -0.013197 49 50 93
0.199219 -0.289062 -0.003270 211 199 223
0.203125 -0.289062 0.006115 200 170 202
0.210938 -0.289062 0.105961 186 141 165
0.214844 -0.289062 0.095237 181 138 160
0.218750 -0.289062 0.094417 208 172 184
0.222656 -0.289062 0.088713 193 154 171
0.226562 -0.289062 0.078753 164 122 143
0.230469 -0.289062 0.070855 116 79 98
0.234375 -0.289062 0.063061 198 162 178
-0.085938 -0.292969 -0.036480 17 26 59
-0.082031 -0.292969 -0.047797 17 25 57
-0.078125 -0.292969 -0.055945 14 21 50
-0.074219 -0.292969 -0.061646 15 25 58
-0.070312 -0.292969 -0.066523 14 25 61
-0.066406 -0.292969 -0.070887 15 26 66
-0.062500 -0.292969 -0.074969 13 25 66
-0.058594 -0.292969 -0.078068 12 24 66
-0.054688 -0.292969 -0.080601 12 24 67
-0.050781 -0.292969 -0.083043 12 23 67
-0.046875 -0.292969 -0.085174 12 23 66
-0.042969 -0.292969 -0.086483 12 25 68
-0.039062 -0.292969 -0.087119 13 25 69
-0.035156 -0.292969 -0.087751 12 25 67
-0.031250 -0.292969 -0.088226 12 25 67
-0.027344 -0.292969 -0.088141 12 24 66
-0.023438 -0.292969 -0.087515 12 24 66
-0.019531 -0.292969 -0.086886 12 24 65
-0.015625 -0.292969 -0.086112 12 24 65
-0.011719 -0.292969 -0.084807 12 25 65
-0.007812 -0.292969 -0.082822 12 24 62
-0.003906 -0.292969 -0.080993 11 23 58
0.000000 -0.292969 -0.078682 12 23 57
0.003906 -0.292969 -0.075818 12 23 55
0.007812 -0.292969 -0.071649 12 22 53
0.011719 -0.292969 -0.067136 12 21 50
0.015625 -0.292969 -0.061718 13 21 48
0.019531 -0.292969 -0.054961 14 21 45
0.023438 -0.292969 -0.038986 21 27 52
0.089844 -0.292969 0.013807 21 23 63
0.093750 -0.292969 -0.000913 13 17 59
0.097656 -0.292969 -0.008483 16 27 86
0.101562 -0.292969 -0.014126 15 29 92
0.105469 -0.292969 -0.019473 14 29 94
0.109375 -0.292969 -0.024014 14 29 97
0.113281 -0.292969 -0.027293 13 29 99
0.117188 -0.292969 -0.029738 13 28 99
0.121094 -0.292969 -0.032233 13 30 102
0.125000 -0.292969 -0.034550 14 31 105
0.128906 -0.292969 -0.036201 14 31 104
0.132812 -0.292969 -0.037330 14 31 104
0.136719 -0.292969 -0.038533 14 30 101
0.140625 -0.292969 -0.039700 14 30 99
0.144531 -0.292969 -0.040282 14 30 97
0.148438 -0.292969 -0.040287 15 31 97
0.152344 -0.292969 -0.040630 15 32 97
0.156250 -0.292969 -0.041020 15 32 95
0.160156 -0.292969 -0.040538 15 31 92
0.164062 -0.292969 -0.039436 14 30 89
0.167969 -0.292969 -0.038624 15 30 88
0.171875 -0.292969 -0.037652 14 28 80
0.175781 -0.292969 -0.035619 13 28 77
0.179688 -0.292969 -0.032513 15 31 79
0.183594 -0.292969 -0.029461 11 23 59
0.187500 -0.292969 -0.025399 18 31 66
0.191406 -0.292969 -0.021428 18 23 48
0.195312 -0.292969 -0.013554 55 54 95
0.199219 -0.292969 -0.002580 221 208 227
0.203125 -0.292969 0.006641 197 165 197
0.207031 -0.292969 0.053125 154 112 140
0.210938 -0.292969 0.053431 178 127 152
0.214844 -0.292969 0.054071 169 116 137
-0.085938 -0.296875 -0.035408 18 28 63
-0.082031 -0.296875 -0.046722 18 28 59
-0.078125 -0.296875 -0.055039 13 19 45
-0.074219 -0.296875 -0.060919 15 25 57
-0.070312 -0.296875 -0.065875 14 24 59
-0.066406 -0.296875 -0.070310 14 25 64
-0.062500 -0.296875 -0.074397 13 25 66
-0.058594 -0.296875 -0.077508 12 24 65
-0.054688 -0.296875 -0.080069 12 23 66
-0.050781 -0.296875 -0.082529 11 22 63
-0.046875 -0.296875 -0.084680 11 22 64
-0.042969 -0.296875 -0.086007 12 24 67
-0.039062 -0.296875 -0.086661 12 24 66
-0.035156 -0.296875 -0.087316 12 23 64
-0.031250 -0.296875 -0.087814 12 24 66
-0.027344 -0.296875 -0.087749 12 24 66
-0.023438 -0.296875 -0.087138 12 25 66
-0.019531 -0.296875 -0.086532 12 25 66
-0.015625 -0.296875 -0.085781 12 25 65
-0.011719 -0.296875 -0.084504 13 25 65
-0.007812 -0.296875 -0.082538 12 24 61
-0.003906 -0.296875 -0.080729 11 23 57
0.000000 -0.296875 -0.078429 12 23 55
0.003906 -0.296875 -0.075632 11 22 53
0.007812 -0.296875 -0.071329 12 22 51
0.011719 -0.296875 -0.067064 12 21 49
0.015625 -0.296875 -0.061136 13 23 49
0.019531 -0.296875 -0.053785 15 23 47
0.093750 -0.296875 0.003459 16 22 70
0.097656 -0.296875 -0.006631 17 29 89
0.101562 -0.296875 -0.012890 15 29 90
0.105469 -0.296875 -0.018208 15 28 94
0.109375 -0.296875 -0.022956 14 29 97
0.113281 -0.296875 -0.026340 13 27 97
0.117188 -0.296875 -0.028863 13 27 97
0.121094 -0.296875 -0.031443 13 28 98
0.125000 -0.296875 -0.033833 13 29 101
0.128906 -0.296875 -0.035539 13 30 100
0.132812 -0.296875 -0.036718 13 29 99
0.136719 -0.296875 -0.037977 14 29 98
0.140625 -0.296875 -0.039188 14 29 96
0.144531 -0.296875 -0.039807 14 29 94
0.148438 -0.296875 -0.039844 14 29 93
0.152344 -0.296875 -0.040211 14 29 92
0.156250 -0.296875 -0.040627 14 30 91
0.160156 -0.296875 -0.040187 14 30 90
0.164062 -0.296875 -0.039122 14 30 88
0.167969 -0.296875 -0.038330 15 30 86
0.171875 -0.296875 -0.037349 14 27 78
0.175781 -0.296875 -0.035307 13 27 75
0.179688 -0.296875 -0.032269 14 29 76
0.183594 -0.296875 -0.029144 11 23 60
0.187500 -0.296875 -0.025169 18 30 67
0.191406 -0.296875 -0.021362 19 24 51
0.195312 -0.296875 -0.014160 46 50 84
0.199219 -0.296875 -0.003403 184 168 198
0.203125 -0.296875 0.008297 165 131 169
-0.085938 -0.300781 -0.033764 9 13 35
-0.082031 -0.300781 -0.045497 17 26 54
-0.078125 -0.300781 -0.054026 12 19 44
-0.074219 -0.300781 -0.060085 16 26 60
-0.070312 -0.300781 -0.065155 14 24 59
-0.066406 -0.300781 -0.069702 14 25 64
-0.062500 -0.300781 -0.073805 13 24 64
-0.058594 -0.300781 -0.076904 12 23 63
-0.054688 -0.300781 -0.079482 12 23 63
-0.050781 -0.300781 -0.081955 11 21 62
-0.046875 -0.300781 -0.084117 11 22 63
-0.042969 -0.300781 -0.085463 12 24 65
-0.039062 -0.300781 -0.086134 11 23 63
-0.035156 -0.300781 -0.086808 11 22 62
-0.031250 -0.300781 -0.087335 12 24 64
-0.027344 -0.300781 -0.087299 12 24 65
-0.023438 -0.300781 -0.086717 12 24 65
-0.019531 -0.300781 -0.086140 12 24 65
-0.015625 -0.300781 -0.085421 12 24 64
-0.011719 -0.300781 -0.084190 13 25 64
-0.007812 -0.300781 -0.082248 12 24 60
-0.003906 -0.300781 -0.080465 12 23 57
0.000000 -0.300781 -0.078187 12 23 54
0.003906 -0.300781 -0.075461 12 22 51
0.007812 -0.300781 -0.070990 12 21 50
0.011719 -0.300781 -0.067042 12 21 48
0.015625 -0.300781 -0.060799 14 23 49
0.019531 -0.300781 -0.051949 15 24 46
0.093750 -0.300781 0.005541 16 21 66
0.097656 -0.300781 -0.004664 15 26 82
0.101562 -0.300781 -0.011351 13 25 83
0.105469 -0.300781 -0.017014 14 27 91
0.109375 -0.300781 -0.021929 14 27 95
0.113281 -0.300781 -0.025384 13 26 94
0.117188 -0.300781 -0.027970 13 26 94
0.121094 -0.300781 -0.030634 13 27 94
0.125000 -0.300781 -0.033111 13 28 97
0.128906 -0.300781 -0.034873 14 28 97
0.132812 -0.300781 -0.036100 13 28 96
0.136719 -0.300781 -0.037417 13 28 95
0.140625 -0.300781 -0.038673 13 28 94
0.144531 -0.300781 -0.039329 14 28 93
0.148438 -0.300781 -0.039395 13 28 91
0.152344 -0.300781 -0.039788 13 27 89
0.156250 -0.300781 -0.040238 14 28 88
0.160156 -0.300781 -0.039839 14 30 90
0.164062 -0.300781 -0.038812 15 31 88
0.167969 -0.300781 -0.038036 15 30 85
0.171875 -0.300781 -0.037058 14 28 78
0.175781 -0.300781 -0.035065 14 28 74
0.179688 -0.300781 -0.032162 14 29 73
0.183594 -0.300781 -0.028924 13 25 63
0.187500 -0.300781 -0.024906 20 33 72
0.191406 -0.300781 -0.021360 25 34 66
0.195312 -0.300781 -0.014685 41 50 81
0.199219 -0.300781 -0.003825 102 97 138
0.203125 -0.300781 0.010144 123 95 135
-0.085938 -0.304688 -0.032679 5 7 21
-0.082031 -0.304688 -0.044219 19 28 54
-0.078125 -0.304688 -0.052996 12 19 44
-0.074219 -0.304688 -0.059280 15 25 59
-0.070312 -0.304688 -0.064428 14 24 59
-0.066406 -0.304688 -0.069072 14 26 64
-0.062500 -0.304688 -0.073185 13 25 64
-0.058594 -0.304688 -0.076271 12 23 62
-0.054688 -0.304688 -0.078861 12 22 62
-0.050781 -0.304688 -0.081347 11 22 62
-0.046875 -0.304688 -0.083524 12 23 64
-0.042969 -0.304688 -0.084891 12 23 64
-0.039062 -0.304688 -0.085579 11 22 62
-0.035156 -0.304688 -0.086281 11 23 62
-0.031250 -0.304688 -0.086844 12 24 65
-0.027344 -0.304688 -0.086840 12 23 64
-0.023438 -0.304688 -0.086290 11 23 62
-0.019531 -0.304688 -0.085752 12 23 62
-0.015625 -0.304688 -0.085066 12 23 61
-0.011719 -0.304688 -0.083873 12 24 61
-0.007812 -0.304688 -0.081966 12 23 58
-0.003906 -0.304688 -0.080212 12 23 57
0.000000 -0.304688 -0.077950 13 23 55
0.003906 -0.304688 -0.075271 12 22 51
0.007812 -0.304688 -0.070761 12 21 48
0.011719 -0.304688 -0.066849 12 21 47
0.015625 -0.304688 -0.060392 14 23 47
0.019531 -0.304688 -0.051820 14 22 43
0.093750 -0.304688 0.007282 13 16 54
0.097656 -0.304688 -0.002544 15 26 80
0.101562 -0.304688 -0.009769 13 24 77
0.105469 -0.304688 -0.015917 14 26 89
0.109375 -0.304688 -0.020838 14 27 95
0.113281 -0.304688 -0.024438 13 26 93
0.117188 -0.304688 -0.027112 14 27 94
0.121094 -0.304688 -0.029847 13 27 93
0.125000 -0.304688 -0.032391 14 28 96
0.128906 -0.304688 -0.034200 14 29 97
0.132812 -0.304688 -0.035473 14 28 94
0.136719 -0.304688 -0.036844 13 27 93
0.140625 -0.304688 -0.038142 13 28 93
0.144531 -0.304688 -0.038833 14 28 93
0.148438 -0.304688 -0.038929 14 28 92
0.152344 -0.304688 -0.039352 13 28 89
0.156250 -0.304688 -0.039822 13 28 88
0.160156 -0.304688 -0.039458 14 31 90
0.164062 -0.304688 -0.038466 15 31 88
0.167969 -0.304688 -0.037706 15 30 84
0.171875 -0.304688 -0.036727 15 29 79
0.175781 -0.304688 -0.034775 14 28 75
0.179688 -0.304688 -0.031965 14 28 71
0.183594 -0.304688 -0.028659 13 26 64
0.187500 -0.304688 -0.024704 16 28 66
0.191406 -0.304688 -0.021138 22 31 66
0.195312 -0.304688 -0.014439 28 34 67
0.199219 -0.304688 -0.004415 36 39 76
0.203125 -0.304688 0.008010 61 53 90
-0.085938 -0.308594 -0.031994 18 28 63
-0.082031 -0.308594 -0.043143 21 29 50
-0.078125 -0.308594 -0.051827 16 23 51
-0.074219 -0.308594 -0.058497 17 27 62
-0.070312 -0.308594 -0.063749 14 24 59
-0.066406 -0.308594 -0.068403 15 27 65
-0.062500 -0.308594 -0.072506 13 25 63
-0.058594 -0.308594 -0.075593 11 22 60
-0.054688 -0.308594 -0.078189 11 21 59
-0.050781 -0.308594 -0.080685 11 22 61
-0.046875 -0.308594 -0.082876 12 23 64
-0.042969 -0.308594 -0.084261 12 23 63
-0.039062 -0.308594 -0.084975 11 23 62
-0.035156 -0.308594 -0.085715 12 24 64
-0.031250 -0.308594 -0.086318 12 25 66
-0.027344 -0.308594 -0.086351 12 24 64
-0.023438 -0.308594 -0.085838 11 23 62
-0.019531 -0.308594 -0.085345 12 23 62
-0.015625 -0.308594 -0.084697 12 23 61
-0.011719 -0.308594 -0.083540 12 23 60
-0.007812 -0.308594 -0.081676 12 23 58
-0.003906 -0.308594 -0.079951 12 23 57
0.000000 -0.308594 -0.077727 13 23 54
0.003906 -0.308594 -0.075062 12 21 49
0.007812 -0.308594 -0.070662 12 21 46
0.011719 -0.308594 -0.066515 12 20 44
0.015625 -0.308594 -0.059418 14 22 45
0.019531 -0.308594 -0.051019 14 21 42
0.093750 -0.308594 0.010273 18 21 62
0.097656 -0.308594 -0.000661 19 31 87
0.101562 -0.308594 -0.008555 12 22 75
0.105469 -0.308594 -0.015002 15 26 89
0.109375 -0.308594 -0.019744 15 27 95
0.113281 -0.308594 -0.023427 13 25 91
0.117188 -0.308594 -0.026218 14 27 93
0.121094 -0.308594 -0.029053 14 27 91
0.125000 -0.308594 -0.031667 14 28 94
0.128906 -0.308594 -0.033516 14 28 94
0.132812 -0.308594 -0.034828 13 27 91
0.136719 -0.308594 -0.036254 13 27 90
0.140625 -0.308594 -0.037594 13 28 91
0.144531 -0.308594 -0.038325 14 28 92
0.148438 -0.308594 -0.038453 14 29 92
0.152344 -0.308594 -0.038895 14 29 91
0.156250 -0.308594 -0.039373 14 29 90
0.160156 -0.308594 -0.039033 15 31 90
0.164062 -0.308594 -0.038061 15 31 87
0.167969 -0.308594 -0.037313 15 30 83
0.171875 -0.308594 -0.036340 16 31 82
0.175781 -0.308594 -0.034419 15 30 77
0.179688 -0.308594 -0.031756 15 30 73
0.183594 -0.308594 -0.028555 15 28 69
0.187500 -0.308594 -0.024664 14 26 64
0.191406 -0.308594 -0.021245 17 26 62
0.195312 -0.308594 -0.014611 21 27 61
0.199219 -0.308594 -0.004244 24 30 64
0.203125 -0.308594 0.007073 45 48 82
-0.085938 -0.312500 -0.027923 9 13 35
-0.082031 -0.312500 -0.041943 18 22 39
-0.078125 -0.312500 -0.050725 18 26 55
-0.074219 -0.312500 -0.057712 17 27 61
-0.070312 -0.312500 -0.063063 14 24 58
-0.066406 -0.312500 -0.067746 15 27 65
-0.062500 -0.312500 -0.071835 13 25 64
-0.058594 -0.312500 -0.074903 11 22 60
-0.054688 -0.312500 -0.077498 11 21 58
-0.050781 -0.312500 -0.080002 11 21 59
-0.046875 -0.312500 -0.082207 11 22 62
-0.042969 -0.312500 -0.083618 11 22 61
-0.039062 -0.312500 -0.084361 11 23 62
-0.035156 -0.312500 -0.085142 12 24 63
-0.031250 -0.312500 -0.085792 12 24 63
-0.027344 -0.312500 -0.085869 11 23 62
-0.023438 -0.312500 -0.085399 11 23 61
-0.019531 -0.312500 -0.084954 11 23 61
-0.015625 -0.312500 -0.084348 12 23 60
-0.011719 -0.312500 -0.083227 12 24 61
-0.007812 -0.312500 -0.081395 12 24 59
-0.003906 -0.312500 -0.079695 13 24 58
0.000000 -0.312500 -0.077468 13 23 54
0.003906 -0.312500 -0.074804 12 21 49
0.007812 -0.312500 -0.070593 12 21 46
0.011719 -0.312500 -0.066125 13 21 44
0.015625 -0.312500 -0.058782 15 23 45
0.019531 -0.312500 -0.050865 14 21 42
0.097656 -0.312500 0.000694 21 32 89
0.101562 -0.312500 -0.007090 12 21 72
0.105469 -0.312500 -0.013764 15 27 91
0.109375 -0.312500 -0.018636 15 28 95
0.113281 -0.312500 -0.022441 14 25 90
0.117188 -0.312500 -0.025347 15 27 93
0.121094 -0.312500 -0.028260 14 27 90
0.125000 -0.312500 -0.030944 15 28 92
0.128906 -0.312500 -0.032837 14 28 92
0.132812 -0.312500 -0.034190 13 27 90
0.136719 -0.312500 -0.035675 14 28 91
0.140625 -0.312500 -0.037063 14 29 92
0.144531 -0.312500 -0.037833 14 29 91
0.148438 -0.312500 -0.037993 14 29 91
0.152344 -0.312500 -0.038457 14 30 92
0.156250 -0.312500 -0.038942 15 31 92
0.160156 -0.312500 -0.038633 15 31 91
0.164062 -0.312500 -0.037677 14 30 85
0.167969 -0.312500 -0.036935 15 29 82
0.171875 -0.312500 -0.035987 16 31 82
0.175781 -0.312500 -0.034103 15 30 77
0.179688 -0.312500 -0.031503 16 30 74
0.183594 -0.312500 -0.028384 16 31 73
0.187500 -0.312500 -0.024552 16 28 68
0.191406 -0.312500 -0.021024 17 27 64
0.195312 -0.312500 -0.014649 20 27 63
0.199219 -0.312500 -0.004107 26 35 71
0.203125 -0.312500 0.005932 41 46 79
-0.082031 -0.316406 -0.040718 18 21 36
-0.078125 -0.316406 -0.049807 18 26 54
-0.074219 -0.316406 -0.056914 15 25 56
-0.070312 -0.316406 -0.062334 12 21 53
-0.066406 -0.316406 -0.067057 14 25 62
-0.062500 -0.316406 -0.071151 13 25 63
-0.058594 -0.316406 -0.074211 12 23 60
-0.054688 -0.316406 -0.076810 11 22 58
-0.050781 -0.316406 -0.079308 11 21 58
-0.046875 -0.316406 -0.081520 11 22 60
-0.042969 -0.316406 -0.082961 11 22 60
-0.039062 -0.316406 -0.083735 12 23 62
-0.035156 -0.316406 -0.084557 12 24 62
-0.031250 -0.316406 -0.085260 12 23 61
-0.027344 -0.316406 -0.085387 11 23 60
-0.023438 -0.316406 -0.084960 12 23 61
-0.019531 -0.316406 -0.084558 11 23 60
-0.015625 -0.316406 -0.083987 12 23 59
-0.011719 -0.316406 -0.082900 12 24 60
-0.007812 -0.316406 -0.081088 12 24 59
-0.003906 -0.316406 -0.079414 12 23 56
0.000000 -0.316406 -0.077158 12 22 52
0.003906 -0.316406 -0.074494 12 21 48
0.007812 -0.316406 -0.070501 13 21 46
0.011719 -0.316406 -0.065713 13 20 43
0.015625 -0.316406 -0.058145 16 23 44
0.019531 -0.316406 -0.050967 16 22 44
0.097656 -0.316406 0.002841 23 32 90
0.101562 -0.316406 -0.005510 12 19 70
0.105469 -0.316406 -0.012357 16 27 90
0.109375 -0.316406 -0.017474 15 27 94
0.113281 -0.316406 -0.021475 14 24 88
0.117188 -0.316406 -0.024469 15 27 91
0.121094 -0.316406 -0.027468 14 26 89
0.125000 -0.316406 -0.030224 15 27 90
0.128906 -0.316406 -0.032160 14 28 90
0.132812 -0.316406 -0.033555 13 27 88
0.136719 -0.316406 -0.035096 14 28 90
0.140625 -0.316406 -0.036530 14 29 90
0.144531 -0.316406 -0.037334 13 28 88
0.148438 -0.316406 -0.037526 14 28 89
0.152344 -0.316406 -0.038008 14 30 91
0.156250 -0.316406 -0.038497 15 32 93
0.160156 -0.316406 -0.038216 16 32 92
0.164062 -0.316406 -0.037278 15 30 85
0.167969 -0.316406 -0.036553 15 30 83
0.171875 -0.316406 -0.035639 17 31 83
0.175781 -0.316406 -0.033799 15 29 76
0.179688 -0.316406 -0.031252 16 30 74
0.183594 -0.316406 -0.028202 17 31 73
0.187500 -0.316406 -0.024563 17 29 68
0.191406 -0.316406 -0.020934 17 27 64
0.195312 -0.316406 -0.015085 19 27 62
0.199219 -0.316406 -0.004985 25 36 74
0.203125 -0.316406 0.005501 61 53 90
-0.082031 -0.320312 -0.039090 16 19 32
-0.078125 -0.320312 -0.048867 17 26 51
-0.074219 -0.320312 -0.056110 15 24 56
-0.070312 -0.320312 -0.061620 12 20 52
-0.066406 -0.320312 -0.066433 14 25 61
-0.062500 -0.320312 -0.070492 13 24 61
-0.058594 -0.320312 -0.073530 12 23 59
-0.054688 -0.320312 -0.076123 11 22 59
-0.050781 -0.320312 -0.078613 11 22 58
-0.046875 -0.320312 -0.080839 11 22 58
-0.042969 -0.320312 -0.082307 11 22 59
-0.039062 -0.320312 -0.083113 12 23 60
-0.035156 -0.320312 -0.083984 12 24 61
-0.031250 -0.320312 -0.084748 12 24 61
-0.027344 -0.320312 -0.084932 12 23 61
-0.023438 -0.320312 -0.084548 12 24 61
-0.019531 -0.320312 -0.084195 12 23 59
-0.015625 -0.320312 -0.083665 12 23 58
-0.011719 -0.320312 -0.082613 12 24 58
-0.007812 -0.320312 -0.080814 12 23 56
-0.003906 -0.320312 -0.079162 11 22 53
0.000000 -0.320312 -0.076911 11 21 49
0.003906 -0.320312 -0.074230 12 20 46
0.007812 -0.320312 -0.070106 12 20 45
0.011719 -0.320312 -0.064997 12 19 41
0.015625 -0.320312 -0.057660 16 23 44
0.019531 -0.320312 -0.048986 18 24 46
0.097656 -0.320312 0.006119 20 28 82
0.101562 -0.320312 -0.004186 11 17 65
0.105469 -0.320312 -0.011138 15 25 87
0.109375 -0.320312 -0.016272 15 27 91
0.113281 -0.320312 -0.020481 14 24 87
0.117188 -0.320312 -0.023601 15 26 89
0.121094 -0.320312 -0.026702 14 26 87
0.125000 -0.320312 -0.029520 14 27 88
0.128906 -0.320312 -0.031508 14 27 88
0.132812 -0.320312 -0.032951 13 27 88
0.136719 -0.320312 -0.034547 13 27 88
0.140625 -0.320312 -0.036029 13 27 88
0.144531 -0.320312 -0.036873 13 27 86
0.148438 -0.320312 -0.037096 14 28 89
0.152344 -0.320312 -0.037599 14 30 92
0.156250 -0.320312 -0.038102 15 31 92
0.160156 -0.320312 -0.037852 15 31 90
0.164062 -0.320312 -0.036938 15 30 86
0.167969 -0.320312 -0.036244 17 31 85
0.171875 -0.320312 -0.035363 17 32 84
0.175781 -0.320312 -0.033554 16 29 76
0.179688 -0.320312 -0.031072 16 29 74
0.183594 -0.320312 -0.028117 17 29 71
0.187500 -0.320312 -0.024625 17 28 67
0.191406 -0.320312 -0.020976 17 26 62
0.195312 -0.320312 -0.015392 20 28 63
0.199219 -0.320312 -0.005573 28 40 78
0.203125 -0.320312 0.005022 27 28 56
-0.082031 -0.324219 -0.036298 13 15 27
-0.078125 -0.324219 -0.047579 16 24 49
-0.074219 -0.324219 -0.055284 15 25 57
-0.070312 -0.324219 -0.060897 12 21 52
-0.066406 -0.324219 -0.065834 14 25 60
-0.062500 -0.324219 -0.069834 13 24 60
-0.058594 -0.324219 -0.072839 11 22 58
-0.054688 -0.324219 -0.075429 11 22 58
-0.050781 -0.324219 -0.077912 11 22 57
-0.046875 -0.324219 -0.080159 11 22 58
-0.042969 -0.324219 -0.081657 11 22 58
-0.039062 -0.324219 -0.082493 11 23 58
-0.035156 -0.324219 -0.083422 12 23 59
-0.031250 -0.324219 -0.084250 12 24 60
-0.027344 -0.324219 -0.084489 12 23 59
-0.023438 -0.324219 -0.084148 12 23 58
-0.019531 -0.324219 -0.083848 11 22 57
-0.015625 -0.324219 -0.083357 11 22 56
-0.011719 -0.324219 -0.082329 12 23 57
-0.007812 -0.324219 -0.080528 11 22 54
-0.003906 -0.324219 -0.078888 11 21 52
0.000000 -0.324219 -0.076650 11 20 48
0.003906 -0.324219 -0.073961 12 20 46
0.007812 -0.324219 -0.069671 12 20 45
0.011719 -0.324219 -0.064468 12 19 40
0.015625 -0.324219 -0.058068 16 22 41
0.019531 -0.324219 -0.041641 14 18 34
0.097656 -0.324219 0.008800 24 32 83
0.101562 -0.324219 -0.003378 12 19 66
0.105469 -0.324219 -0.009846 15 25 86
0.109375 -0.324219 -0.015127 15 26 90
0.113281 -0.324219 -0.019536 14 25 87
0.117188 -0.324219 -0.022742 15 26 88
0.121094 -0.324219 -0.025950 14 26 87
0.125000 -0.324219 -0.028844 15 26 88
0.128906 -0.324219 -0.030884 14 27 89
0.132812 -0.324219 -0.032372 14 27 89
0.136719 -0.324219 -0.034017 13 27 88
0.140625 -0.324219 -0.035546 13 26 87
0.144531 -0.324219 -0.036428 13 27 87
0.148438 -0.324219 -0.036679 14 29 91
0.152344 -0.324219 -0.037208 15 30 93
0.156250 -0.324219 -0.037735 15 30 90
0.160156 -0.324219 -0.037520 15 29 88
0.164062 -0.324219 -0.036629 16 29 85
0.167969 -0.324219 -0.035971 17 31 85
0.171875 -0.324219 -0.035133 17 31 82
0.175781 -0.324219 -0.033356 16 29 76
0.179688 -0.324219 -0.030908 16 29 74
0.183594 -0.324219 -0.028016 16 29 71
0.187500 -0.324219 -0.024648 18 29 69
0.191406 -0.324219 -0.021013 18 26 61
0.195312 -0.324219 -0.015690 21 28 60
0.199219 -0.324219 -0.006284 28 36 70
0.203125 -0.324219 0.004630 25 27 55
-0.082031 -0.328125 -0.035048 18 21 36
-0.078125 -0.328125 -0.046573 13 19 45
-0.074219 -0.328125 -0.054551 15 24 55
-0.070312 -0.328125 -0.060295 12 20 50
-0.066406 -0.328125 -0.065304 13 24 58
-0.062500 -0.328125 -0.069176 12 23 58
-0.058594 -0.328125 -0.072184 11 22 56
-0.054688 -0.328125 -0.074775 11 22 57
-0.050781 -0.328125 -0.077241 11 22 56
-0.046875 -0.328125 -0.079504 11 23 58
-0.042969 -0.328125 -0.081038 12 23 59
-0.039062 -0.328125 -0.081912 11 22 57
-0.035156 -0.328125 -0.082899 11 22 57
-0.031250 -0.328125 -0.083792 12 23 58
-0.027344 -0.328125 -0.084089 11 21 56
-0.023438 -0.328125 -0.083790 11 21 55
-0.019531 -0.328125 -0.083538 11 22 55
-0.015625 -0.328125 -0.083084 11 22 55
-0.011719 -0.328125 -0.082079 12 23 55
-0.007812 -0.328125 -0.080272 11 22 53
-0.003906 -0.328125 -0.078636 12 22 51
0.000000 -0.328125 -0.076413 11 20 46
0.003906 -0.328125 -0.073685 11 20 44
0.007812 -0.328125 -0.069281 12 20 44
0.011719 -0.328125 -0.064242 13 20 40
0.015625 -0.328125 -0.056863 17 23 41
0.101562 -0.328125 -0.000589 14 21 65
0.105469 -0.328125 -0.008669 15 25 84
0.109375 -0.328125 -0.014163 15 26 86
0.113281 -0.328125 -0.018483 14 25 85
0.117188 -0.328125 -0.021911 14 25 86
0.121094 -0.328125 -0.025239 14 25 86
0.125000 -0.328125 -0.028217 14 26 87
0.128906 -0.328125 -0.030308 14 26 86
0.132812 -0.328125 -0.031840 13 26 87
0.136719 -0.328125 -0.033541 13 25 85
0.140625 -0.328125 -0.035120 12 25 85
0.144531 -0.328125 -0.036037 13 26 86
0.148438 -0.328125 -0.036317 13 27 88
0.152344 -0.328125 -0.036872 14 29 90
0.156250 -0.328125 -0.037422 15 29 88
0.160156 -0.328125 -0.037241 15 29 87
0.164062 -0.328125 -0.036386 16 29 85
0.167969 -0.328125 -0.035771 16 29 82
0.171875 -0.328125 -0.034973 16 29 80
0.175781 -0.328125 -0.033250 16 30 77
0.179688 -0.328125 -0.030868 16 29 74
0.183594 -0.328125 -0.028038 16 28 70
0.187500 -0.328125 -0.024803 19 30 71
0.191406 -0.328125 -0.021279 19 27 63
0.195312 -0.328125 -0.016265 22 28 60
0.199219 -0.328125 -0.007194 27 33 68
0.203125 -0.328125 0.004087 30 34 65
-0.082031 -0.332031 -0.035264 16 19 32
-0.078125 -0.332031 -0.046064 13 19 47
-0.074219 -0.332031 -0.053942 17 28 61
-0.070312 -0.332031 -0.059654 12 21 51
-0.066406 -0.332031 -0.064820 13 24 58
-0.062500 -0.332031 -0.068594 12 23 57
-0.058594 -0.332031 -0.071587 11 22 56
-0.054688 -0.332031 -0.074173 11 22 56
-0.050781 -0.332031 -0.076626 10 21 54
-0.046875 -0.332031 -0.078915 11 22 56
-0.042969 -0.332031 -0.080481 11 23 57
-0.039062 -0.332031 -0.081392 11 22 56
-0.035156 -0.332031 -0.082440 11 22 56
-0.031250 -0.332031 -0.083398 11 22 57
-0.027344 -0.332031 -0.083749 11 22 56
-0.023438 -0.332031 -0.083487 12 22 57
-0.019531 -0.332031 -0.083277 12 22 55
-0.015625 -0.332031 -0.082852 12 22 54
-0.011719 -0.332031 -0.081864 12 23 55
-0.007812 -0.332031 -0.080043 12 22 52
-0.003906 -0.332031 -0.078384 12 22 50
0.000000 -0.332031 -0.076242 11 19 44
0.003906 -0.332031 -0.073521 11 19 42
0.007812 -0.332031 -0.068918 13 21 44
0.011719 -0.332031 -0.064018 13 20 40
0.015625 -0.332031 -0.054103 18 24 42
0.101562 -0.332031 0.001686 13 19 59
0.105469 -0.332031 -0.007685 15 25 82
0.109375 -0.332031 -0.013042 14 26 85
0.113281 -0.332031 -0.017503 14 25 85
0.117188 -0.332031 -0.021226 14 26 87
0.121094 -0.332031 -0.024597 15 26 88
0.125000 -0.332031 -0.027636 15 27 87
0.128906 -0.332031 -0.029790 14 25 85
0.132812 -0.332031 -0.031370 14 26 87
0.136719 -0.332031 -0.033120 13 25 86
0.140625 -0.332031 -0.034751 13 25 86
0.144531 -0.332031 -0.035701 13 26 86
0.148438 -0.332031 -0.036007 13 26 86
0.152344 -0.332031 -0.036589 14 27 87
0.156250 -0.332031 -0.037161 15 28 87
0.160156 -0.332031 -0.037014 15 28 86
0.164062 -0.332031 -0.036199 16 28 83
0.167969 -0.332031 -0.035622 15 27 78
0.171875 -0.332031 -0.034861 15 27 76
0.175781 -0.332031 -0.033199 16 29 76
0.179688 -0.332031 -0.030895 16 29 73
0.183594 -0.332031 -0.028146 15 27 67
0.187500 -0.332031 -0.024996 18 28 69
0.191406 -0.332031 -0.021529 19 26 62
0.195312 -0.332031 -0.016667 22 28 62
0.199219 -0.332031 -0.007901 27 33 69
0.203125 -0.332031 0.003689 27 28 56
-0.082031 -0.335938 -0.024771 13 15 27
-0.078125 -0.335938 -0.044412 12 18 46
-0.074219 -0.335938 -0.053294 20 33 68
-0.070312 -0.335938 -0.059195 13 22 52
-0.066406 -0.335938 -0.064184 13 24 58
-0.062500 -0.335938 -0.068054 12 23 57
-0.058594 -0.335938 -0.071030 12 23 57
-0.054688 -0.335938 -0.073595 11 23 57
-0.050781 -0.335938 -0.076035 10 21 54
-0.046875 -0.335938 -0.078352 10 21 55
-0.042969 -0.335938 -0.079956 11 22 56
-0.039062 -0.335938 -0.080911 11 22 56
-0.035156 -0.335938 -0.082021 11 22 55
-0.031250 -0.335938 -0.083044 11 22 56
-0.027344 -0.335938 -0.083452 11 22 56
-0.023438 -0.335938 -0.083223 12 23 57
-0.019531 -0.335938 -0.083049 12 23 55
-0.015625 -0.335938 -0.082646 12 22 54
-0.011719 -0.335938 -0.081669 12 23 53
-0.007812 -0.335938 -0.079822 12 22 51
-0.003906 -0.335938 -0.078153 12 21 49
0.000000 -0.335938 -0.076073 11 19 43
0.003906 -0.335938 -0.073223 12 19 42
0.007812 -0.335938 -0.068629 13 21 44
0.011719 -0.335938 -0.063505 13 20 39
0.015625 -0.335938 -0.053467 19 25 42
0.101562 -0.335938 0.002793 16 22 63
0.105469 -0.335938 -0.006249 16 26 82
0.109375 -0.335938 -0.012153 15 26 83
0.113281 -0.335938 -0.016890 15 26 85
0.117188 -0.335938 -0.020558 14 26 86
0.121094 -0.335938 -0.024024 14 26 86
0.125000 -0.335938 -0.027138 15 26 87
0.128906 -0.335938 -0.029351 14 26 86
0.132812 -0.335938 -0.030979 14 27 89
0.136719 -0.335938 -0.032774 14 26 88
0.140625 -0.335938 -0.034455 13 26 85
0.144531 -0.335938 -0.035439 13 26 85
0.148438 -0.335938 -0.035771 13 26 85
0.152344 -0.335938 -0.036375 14 27 86
0.156250 -0.335938 -0.036965 15 28 86
0.160156 -0.335938 -0.036844 16 28 86
0.164062 -0.335938 -0.036064 16 29 84
0.167969 -0.335938 -0.035522 16 28 79
0.171875 -0.335938 -0.034803 16 28 76
0.175781 -0.335938 -0.033203 16 30 77
0.179688 -0.335938 -0.030968 17 30 75
0.183594 -0.335938 -0.028317 16 28 70
0.187500 -0.335938 -0.025329 19 29 70
0.191406 -0.335938 -0.021987 19 26 63
0.195312 -0.335938 -0.017225 23 29 64
0.199219 -0.335938 -0.008749 26 33 69
0.203125 -0.335938 0.003177 25 27 55
-0.078125 -0.339844 -0.042255 12 18 45
-0.074219 -0.339844 -0.052584 22 36 69
-0.070312 -0.339844 -0.058914 13 21 50
-0.066406 -0.339844 -0.063546 14 24 58
-0.062500 -0.339844 -0.067558 12 23 56
-0.058594 -0.339844 -0.070536 12 23 57
-0.054688 -0.339844 -0.073083 12 23 57
-0.050781 -0.339844 -0.075512 11 22 55
-0.046875 -0.339844 -0.077857 11 22 56
-0.042969 -0.339844 -0.079500 11 23 57
-0.039062 -0.339844 -0.080497 11 22 57
-0.035156 -0.339844 -0.081657 11 22 56
-0.031250 -0.339844 -0.082736 11 22 55
-0.027344 -0.339844 -0.083195 12 22 56
-0.023438 -0.339844 -0.083000 12 23 56
-0.019531 -0.339844 -0.082863 12 23 55
-0.015625 -0.339844 -0.082481 12 22 53
-0.011719 -0.339844 -0.081509 12 22 52
-0.007812 -0.339844 -0.079623 11 22 50
-0.003906 -0.339844 -0.077980 11 21 47
0.000000 -0.339844 -0.075943 11 19 42
0.003906 -0.339844 -0.072865 11 19 41
0.007812 -0.339844 -0.068284 13 21 42
0.011719 -0.339844 -0.062021 13 20 38
0.015625 -0.339844 -0.053384 22 27 44
0.101562 -0.339844 0.003626 13 17 51
0.105469 -0.339844 -0.004796 15 25 77
0.109375 -0.339844 -0.011488 14 25 80
0.113281 -0.339844 -0.016476 15 27 85
0.117188 -0.339844 -0.020018 15 26 86
0.121094 -0.339844 -0.023542 14 24 82
0.125000 -0.339844 -0.026699 14 25 83
0.128906 -0.339844 -0.028971 13 25 83
0.132812 -0.339844 -0.030650 14 26 87
0.136719 -0.339844 -0.032485 13 25 85
0.140625 -0.339844 -0.034215 12 24 81
0.144531 -0.339844 -0.035235 12 24 81
0.148438 -0.339844 -0.035597 13 25 82
0.152344 -0.339844 -0.036222 14 26 83
0.156250 -0.339844 -0.036830 15 27 84
0.160156 -0.339844 -0.036731 16 29 85
0.164062 -0.339844 -0.035982 17 30 85
0.167969 -0.339844 -0.035478 17 29 81
0.171875 -0.339844 -0.034797 16 28 76
0.175781 -0.339844 -0.033251 16 29 75
0.179688 -0.339844 -0.031080 17 30 74
0.183594 -0.339844 -0.028520 17 29 70
0.187500 -0.339844 -0.025644 19 29 68
0.191406 -0.339844 -0.022402 19 26 62
0.195312 -0.339844 -0.017765 25 31 66
0.199219 -0.339844 -0.009561 28 36 73
0.203125 -0.339844 0.002531 30 34 65
-0.078125 -0.343750 -0.041118 17 23 53
-0.074219 -0.343750 -0.051858 25 38 72
-0.070312 -0.343750 -0.058488 14 22 51
-0.066406 -0.343750 -0.063022 14 25 58
